# .PCD v0.7 - Point Cloud Data file format
VERSION 0.7
FIELDS x y z intensity t reflectivity ring noise range
SIZE 4 4 4 4 4 2 1 2 4
TYPE F F F F U U U U U
COUNT 1 1 1 1 1 1 1 1 1
WIDTH 782
HEIGHT 1
VIEWPOINT 0 0 0 1 0 0 0
POINTS 782
DATA ascii
14.79917 2.5023618 2.87973 49 96521510 1134 12 51 15283
13.635736 2.8251281 2.5284007 363 96521510 7265 13 38 14153
12.620613 3.1041827 2.2318509 139 96521510 2408 14 57 13187
11.642271 3.3203976 1.9653802 208 96521510 3121 15 56 12265
15.054156 2.5452065 2.3526671 179 96521510 4265 16 32 15448
13.74152 2.8437934 2.0246422 374 96521510 7508 17 57 14178
12.753163 3.1294684 1.7679833 52 96521510 905 18 50 13250
11.814393 3.3616848 1.5358514 422 96521510 6472 19 75 12379
15.229813 2.5746312 1.8049117 358 96521510 8668 20 66 15551
14.001977 2.8954015 1.5315713 181 96521510 3734 21 49 14380
12.885345 3.1554673 1.2935051 164 96521510 2906 22 51 13329
11.967603 3.3982806 1.0969565 485 96521510 7569 23 88 12489
15.494373 2.6162961 1.2582223 294 96521510 7296 24 48 15764
14.228693 2.9383988 1.0243713 67 96521510 1413 25 47 14565
13.051538 3.195683 0.81878674 355 96521510 6438 26 81 13462
12.086643 3.4243338 0.64671379 505 96521510 7983 27 50 12579
15.705943 2.6441271 0.69232255 262 96521510 6650 28 40 15942
14.38215 2.9648554 0.49765724 102 96521510 2196 29 32 14693
13.244748 3.2297623 0.33627483 418 96521510 7768 30 36 13637
12.274775 3.4727747 0.19059767 589 96521510 9593 31 71 12758
15.974946 2.6885543 0.11309642 96 96521510 2508 32 49 16200
14.549143 2.993722 -0.037591387 235 96521510 5176 33 49 14854
13.413381 3.2691476 -0.16482478 434 96521510 8265 34 54 13807
12.427586 3.5073416 -0.2770282 551 96521510 9183 35 55 12916
16.337301 2.7413287 -0.4919478 38 96521510 1049 36 91 16573
14.794768 3.0329609 -0.59073699 372 96521510 8487 37 54 15114
13.608496 3.3106635 -0.68179375 501 96521510 9850 38 116 14022
12.483389 3.5233259 -0.75449479 131 96521510 2204 39 55 12993
16.470209 2.7503316 -1.1082195 79 96521510 2200 40 53 16735
15.02695 3.0734537 -1.1621571 408 96521510 9662 41 72 15382
13.767848 3.3453586 -1.2096831 481 96521510 9726 42 112 14220
12.728352 3.5850303 -1.2548876 625 96521510 11036 43 59 13283
16.659546 2.7759717 -1.7435459 176 96521510 5060 44 56 16979
15.110873 3.0842993 -1.7375349 261 96521510 6279 45 38 15520
13.956891 3.3835545 -1.7549345 548 96521510 11479 46 74 14468
12.874885 3.6229072 -1.7660646 612 96521510 11141 47 100 13491
17.01869 2.8211644 -2.4210835 260 96521510 7876 48 52 17420
15.44454 3.1453855 -2.3648648 474 96521510 12030 49 46 15938
14.173217 3.4281418 -2.3306849 543 96521510 11830 50 55 14767
13.043747 3.6664934 -2.2994707 595 96521510 11246 51 64 13743
17.277826 2.8483214 -3.1210818 330 96521510 10425 52 57 17787
15.699945 3.1891253 -3.0106151 459 96521510 12208 53 67 16301
14.384652 3.4744997 -2.9269261 536 96521510 12186 54 56 15085
13.204131 3.7118247 -2.8554149 522 96521510 10254 55 64 14010
17.639744 2.8978662 -3.8780344 276 96521510 9240 56 98 18292
16.007275 3.2428267 -3.7031469 439 96521510 12299 57 53 16747
14.611339 3.5262854 -3.5614491 503 96521510 11993 58 40 15447
13.396316 3.7645884 -3.4436693 545 96521510 11191 59 48 14335
18.033697 2.940932 -4.689054 233 96521510 8278 60 43 18864
16.278763 3.2836308 -4.428617 447 96521510 13195 61 36 17187
14.840757 3.5786381 -4.2325249 296 96521510 7420 62 40 15842
13.578225 3.8218455 -4.0690408 463 96521510 9974 63 27 14681
14.793299 2.3951139 4.6776433 298 96618540 7332 0 57 15699
13.432787 2.7033255 4.1126537 122 96618540 2499 1 103 14306
12.250659 2.9480636 3.6485913 79 96618540 1354 2 34 13118
11.341177 3.1854451 3.2905977 448 96618540 6699 3 26 12231
15.4857 2.5152614 4.2381144 171 96618540 4505 4 46 16251
13.499524 2.710628 3.5729516 22 96618540 439 5 34 14225
12.429687 2.9860971 3.184402 304 96618540 5268 6 53 13174
11.551451 3.2318933 2.8673594 212 96618540 3219 7 45 12333
15.705643 2.5540805 3.6668386 78 96618540 2067 8 56 16329
13.625664 2.7413993 3.0573542 123 96618540 2485 9 34 14231
12.54456 3.0065162 2.7080719 408 96618540 7084 10 32 13181
11.766758 3.2810631 2.4453614 48 96618540 740 11 34 12458
15.1981 2.4739935 2.9543471 28 96618540 699 12 66 15679
13.687541 2.7483807 2.534832 70 96618540 1405 13 27 14189
12.800447 3.0652452 2.2602844 222 96618540 3953 14 39 13355
11.799351 3.287044 1.9884552 177 96618540 2719 15 49 12409
15.209962 2.475652 2.3745975 112 96618540 2717 16 26 15592
13.968323 2.8014631 2.0554876 430 96618540 8902 17 43 14394
12.957201 3.0953705 1.7936023 56 96618540 1007 18 32 13442
11.960995 3.3242023 1.5522285 380 96618540 5954 19 72 12511
15.504134 2.5232551 1.8355526 242 96618540 6064 20 66 15815
14.218365 2.849288 1.5532986 230 96618540 4881 21 57 14584
13.101967 3.1234283 1.3133022 114 96618540 2080 22 48 13533
12.103416 3.3567309 1.1074965 458 96618540 7284 23 101 12609
15.687236 2.549963 1.2725893 377 96618540 9572 24 55 15944
14.469469 2.895668 1.0404068 82 96618540 1784 25 54 14793
13.234021 3.1544209 0.82900488 286 96618540 5319 26 77 13630
12.257579 3.391654 0.65473413 460 96618540 7465 27 80 12735
15.93489 2.5822268 0.70170295 297 96618540 7744 28 44 16158
14.670568 2.9305868 0.50700545 51 96618540 1136 29 33 14969
13.381037 3.1761382 0.33923393 426 96618540 8057 30 36 13757
12.434635 3.4357393 0.19274895 548 96618540 9115 31 48 12902
16.204357 2.6250229 0.11460437 139 96618540 3735 32 44 16416
14.7673 2.9442818 -0.038107656 188 96618540 4254 33 45 15058
13.596639 3.225559 -0.16683032 409 96618540 7981 34 45 13975
12.587664 3.4692738 -0.2801168 559 96618540 9539 35 82 13060
16.507751 2.6658931 -0.49657845 62 96618540 1744 36 77 16729
15.001278 2.9795001 -0.59824139 330 96618540 7723 37 42 15306
13.79184 3.2657654 -0.68996245 533 96618540 10729 38 134 14190
12.689557 3.4975948 -0.76564407 333 96618540 5782 39 50 13185
16.770502 2.6948123 -1.1272913 47 96618540 1349 40 53 17023
15.245063 3.0207293 -1.1775699 421 96618540 10237 41 67 15586
13.962649 3.302094 -1.2249955 537 96618540 11136 42 107 14400
12.934406 3.5575533 -1.2730263 632 96618540 11484 43 60 13475
16.970917 2.7209399 -1.7743526 99 96618540 2963 44 88 17279
15.51555 3.0678527 -1.7818689 360 96618540 9131 45 64 15916
14.162879 3.3416176 -1.7782238 529 96618540 11376 46 79 14660
13.068945 3.5911229 -1.7896279 565 96618540 10563 47 94 13671
17.364267 2.7690864 -2.4677818 188 96618540 5939 48 70 17756
15.731334 3.1033871 -2.4058175 457 96618540 12002 49 52 16214
14.378533 3.384553 -2.3609884 552 96618540 12345 50 37 14959
13.237131 3.6333623 -2.3295882 569 96618540 11039 51 62 13923
17.633352 2.7959049 -3.1821454 221 96618540 7283 52 64 18135
15.973796 3.1428199 -3.0593731 460 96618540 12635 53 60 16565
14.611973 3.4346578 -2.9688363 496 96618540 11622 54 67 15301
13.407923 3.6804931 -2.894547 535 96618540 10781 55 53 14202
17.969948 2.8389871 -3.9467247 213 96618540 7388 56 94 18616
16.279518 3.1941175 -3.7615235 465 96618540 13443 57 49 17011
14.837315 3.4846201 -3.6112499 371 96618540 9090 58 53 15663
13.598895 3.7316394 -3.4897928 497 96618540 10497 59 67 14527
18.33848 2.8752341 -4.7636256 208 96618540 7631 60 25 19164
16.605858 3.2437017 -4.5121031 389 96618540 11918 61 37 17511
15.098853 3.5429852 -4.2998519 439 96618540 11360 62 46 16094
13.801536 3.7934625 -4.1289082 446 96618540 9891 63 35 14897
14.78508 2.3007762 4.6704926 295 96715760 7237 0 51 15675
14.216246 2.7703435 4.3472357 191 96715760 4360 1 41 15122
12.403193 2.9043756 3.6886427 53 96715760 927 2 36 13262
11.483114 3.1494234 3.3261108 463 96715760 7073 3 32 12363
15.661086 2.445215 4.2819271 244 96715760 6567 4 47 16419
13.607117 2.6454794 3.5970645 64 96715760 1311 5 6 14321
12.549821 2.9336278 3.2105076 283 96715760 4999 6 75 13282
11.661134 3.185559 2.889679 323 96715760 4986 7 30 12429
15.998296 2.5010111 3.7315121 110 96715760 3027 8 43 16617
13.791774 2.6868763 3.0908687 93 96715760 1917 9 43 14387
12.700018 2.9614916 2.7376571 466 96715760 8271 10 25 13325
11.92291 3.2458918 2.4736269 94 96715760 1490 11 22 12602
15.317784 2.3970919 2.9746971 52 96715760 1285 12 53 15787
13.877995 2.6981432 2.5669885 163 96715760 3359 13 39 14369
12.934197 3.0134814 2.2805939 259 96715760 4695 14 49 13475
11.979314 3.2581036 2.0153761 95 96715760 1495 15 54 12577
15.494367 2.4244483 2.4166312 87 96715760 2187 16 19 15868
14.195115 2.7564549 2.0863326 422 96715760 8998 17 56 14610
13.196045 3.066962 1.824025 89 96715760 1655 18 48 13670
12.107576 3.2850463 1.5686055 329 96715760 5265 19 69 12643
15.731286 2.4612384 1.8606224 221 96715760 5669 20 48 16031
14.387853 2.7915361 1.5699137 310 96715760 6745 21 66 14740
13.237231 3.0699601 1.3249475 61 96715760 1129 22 50 13653
12.273783 3.3230128 1.1211987 461 96715760 7515 23 93 12765
15.974408 2.4961343 1.2946186 338 96715760 8881 24 52 16220
14.651488 2.8387067 1.0522224 147 96715760 3281 25 50 14961
13.463154 3.1218605 0.8421424 196 96715760 3763 26 82 13846
12.440133 3.3601286 0.66337138 513 96715760 8547 27 68 12903
16.199196 2.5231502 0.7126466 325 96715760 8764 28 65 16410
14.864899 2.8746717 0.51310211 38 96715760 870 29 12 15149
13.575605 3.1344562 0.34367251 340 96715760 6597 30 45 13937
12.582914 3.3937466 0.19472097 509 96715760 8653 31 76 13034
16.469152 2.5643148 0.11636365 194 96715760 5402 32 65 16668
15.008955 2.8968236 -0.038684659 104 96715760 2421 33 47 15286
13.814937 3.1879373 -0.16926563 390 96715760 7832 34 54 14179
12.759324 3.4324887 -0.28346276 546 96715760 9528 35 52 13216
16.843826 2.6142225 -0.50619602 88 96715760 2569 36 77 17053
15.243006 2.9304087 -0.60715288 219 96715760 5296 37 62 15534
14.021859 3.2295012 -0.70046508 424 96715760 8799 38 115 14406
12.8496 3.4570153 -0.77400607 300 96715760 5338 39 61 13329
17.058891 2.6338825 -1.1455685 43 96715760 1274 40 50 17299
15.463087 2.9654429 -1.1929828 375 96715760 9360 41 68 15790
14.20404 3.2672842 -1.2443912 521 96715760 11146 42 124 14628
13.082907 3.5121937 -1.2854968 593 96715760 10972 43 48 13607
17.223242 2.6531029 -1.7989976 55 96715760 1703 44 59 17519
15.721476 3.0084529 -1.8033643 406 96715760 10523 45 51 16108
14.392089 3.3026068 -1.804424 548 96715760 12134 46 81 14876
13.240112 3.5509284 -1.8100494 574 96715760 10975 47 108 13827
17.580622 2.6930788 -2.4961345 132 96715760 4243 48 54 17960
15.983212 3.0513098 -2.4414284 403 96715760 10922 49 65 16454
14.583843 3.3385723 -2.3912919 523 96715760 11996 50 47 15151
13.419166 3.594933 -2.3576977 516 96715760 10239 51 41 14091
17.965515 2.7356739 -3.2389977 169 96715760 5771 52 74 18459
16.24766 3.0932722 -3.1081309 440 96715760 12449 53 52 16829
14.83934 3.3921554 -3.0107467 539 96715760 12989 54 60 15517
13.61182 3.6467988 -2.9336791 537 96715760 11120 55 32 14394
18.253702 2.7691271 -4.0052385 177 96715760 6328 56 79 18892
16.54026 3.1400046 -3.8172462 442 96715760 13185 57 64 17263
15.051937 3.4377127 -3.6582839 425 96715760 10692 58 35 15867
13.790318 3.693331 -3.5330341 505 96715760 10932 59 69 14707
18.666113 2.8093646 -4.8441625 152 96715760 5763 60 29 19488
16.841917 3.1826556 -4.5708523 366 96715760 11507 61 38 17739
15.278145 3.4862902 -4.3447366 430 96715760 11383 62 65 16262
13.991593 3.7535188 -4.1787977 401 96715760 9109 63 33 15077
14.742271 2.2015541 4.6526151 327 96813740 7964 0 43 15615
14.424984 2.7192574 4.4058809 223 96813740 5250 1 59 15326
12.454496 2.8358934 3.6986556 30 96813740 527 2 25 13298
11.613868 3.1087899 3.3583951 431 96813740 6711 3 38 12483
15.80182 2.3679597 4.3163514 285 96813740 7796 4 48 16551
13.862812 2.6070192 3.6603603 117 96813740 2479 5 28 14573
12.692485 2.8849578 3.2424145 235 96813740 4236 6 67 13414
11.815787 3.1500254 2.9231582 395 96813740 6237 7 49 12573
16.20993 2.4322987 3.7773223 138 96813740 3891 8 54 16821
14.026824 2.6434398 3.1398518 47 96813740 1000 9 22 14615
12.901202 2.9250584 2.7771039 386 96813740 7045 10 53 13517
11.976718 3.1817365 2.4806933 171 96813740 2729 11 13 12638
15.553637 2.3363202 3.0176587 78 96813740 2011 12 67 16015
14.230794 2.6762211 2.6291578 107 96813740 2311 13 36 14717
13.090859 2.9654167 2.3049653 323 96813740 5981 14 57 13619
12.147912 3.2240384 2.040374 61 96813740 982 15 50 12733
15.708335 2.359277 2.4476995 47 96813740 1209 16 21 16072
14.421874 2.7087674 2.117178 383 96813740 8409 17 54 14826
13.307417 3.0069039 1.8368345 163 96813740 3084 18 26 13766
12.288655 3.2533574 1.5894492 255 96813740 4192 19 70 12811
16.0054 2.4036083 1.8912632 185 96813740 4925 20 61 16295
14.60407 2.7406135 1.5916411 305 96813740 6820 21 70 14944
13.512139 3.0464704 1.3505672 50 96813740 962 22 41 13917
12.409513 3.2781699 1.1317387 389 96813740 6462 23 91 12885
16.214182 2.4317789 1.3128166 314 96813740 8507 24 63 16448
14.856878 2.7840295 1.0657259 206 96813740 4722 25 40 15153
13.633956 3.0734353 0.85163063 169 96813740 3317 26 90 14002
12.599578 3.3203814 0.6707747 507 96813740 8633 27 90 13047
16.487083 2.4644709 0.72463268 344 96813740 9565 28 54 16686
15.188764 2.8407335 0.52366966 51 96813740 1216 29 17 15461
13.781865 3.0931315 0.34840706 282 96813740 5624 30 34 14129
12.754349 3.3561695 0.19705153 540 96813740 9387 31 51 13190
16.769409 2.5057747 0.11837426 250 96813740 7179 32 35 16956
15.29776 2.8553164 -0.039383139 80 96813740 1928 33 46 15562
13.998153 3.1398778 -0.17127118 363 96813740 7482 34 62 14347
12.954208 3.3998172 -0.28732347 464 96813740 8335 35 58 13396
17.073099 2.5426245 -0.51260769 159 96813740 4750 36 82 17269
15.4729 2.8762703 -0.61559534 164 96813740 4061 37 36 15750
14.216855 3.1826801 -0.70921725 487 96813740 10362 38 106 14586
13.113902 3.4419734 -0.78863955 532 96813740 9804 39 55 13581
17.394531 2.5765312 -1.1670243 70 96813740 2188 40 64 17623
15.739825 2.9185007 -1.2129288 280 96813740 7224 41 83 16054
14.398847 3.2191997 -1.2597036 533 96813740 11690 42 101 14808
13.266004 3.4742241 -1.3013684 575 96813740 10919 43 65 13775
17.676105 2.6119337 -1.8445914 40 96813740 1275 44 57 17963
15.974151 2.9553173 -1.8302335 348 96813740 9288 45 55 16348
14.609721 3.2583146 -1.8291688 530 96813740 12058 46 90 15080
13.434292 3.5147893 -1.8336127 582 96813740 11423 47 89 14007
17.996565 2.6438825 -2.5528393 69 96813740 2341 48 71 18368
16.223366 2.994103 -2.4752591 408 96813740 11342 49 48 16682
14.812256 3.2953441 -2.4253833 531 96813740 12528 50 54 15367
13.612668 3.5573964 -2.3878155 618 96813740 12596 51 63 14271
18.26252 2.6663499 -3.2895331 85 96813740 3004 52 61 18747
16.509909 3.0383458 -3.1546729 405 96813740 11824 53 84 17081
15.066727 3.3469901 -3.0526569 357 96813740 8849 54 58 15733
13.793069 3.6047976 -2.9679196 534 96813740 11316 55 39 14562
18.664927 2.7144558 -4.0917373 120 96813740 4483 56 73 19300
16.800941 3.0828111 -3.8729694 377 96813740 11552 57 49 17515
15.289334 3.3933611 -3.7108517 467 96813740 12085 58 53 16095
13.993045 3.6557565 -3.5791578 520 96813740 11552 59 68 14899
18.970606 2.7362621 -4.9187341 175 96813740 6843 60 29 19788
17.12347 3.1271658 -4.6419702 351 96813740 11381 61 36 18015
15.525041 3.4425471 -4.4088578 437 96813740 11893 62 30 16502
14.181675 3.7113838 -4.2286873 433 96813740 10069 63 50 15257
14.687467 2.1013217 4.6311622 329 96910910 7938 0 46 15543
14.5997 2.659533 4.4541769 218 96910910 5244 1 65 15494
12.764275 2.8241627 3.7854342 22 96910910 403 2 31 13610
11.811646 3.0841889 3.4100502 330 96910910 5299 3 20 12675
15.712848 2.2561383 4.2881861 322 96910910 8694 4 49 16443
14.129968 2.5675955 3.7266703 145 96910910 3184 5 39 14837
12.937351 2.8572464 3.3004267 155 96910910 2898 6 65 13654
11.959145 3.1097751 2.9538476 453 96910910 7306 7 46 12705
16.40974 2.3594177 3.8204377 154 96910910 4445 8 50 17013
14.227263 2.590919 3.1811006 28 96910910 610 9 21 14807
13.022129 2.8685813 2.799293 123 96910910 2277 10 39 13625
12.10992 3.1377015 2.5042479 197 96910910 3203 11 22 12758
16.489201 2.3734863 3.1962874 63 96910910 1823 12 75 16963
14.351497 2.6078503 2.6484518 134 96910910 2940 13 28 14825
13.247415 2.9155416 2.3293369 358 96910910 6773 14 47 13763
12.408273 3.2117703 2.0807552 70 96910910 1173 15 46 12985
16.015993 2.3050866 2.4933884 25 96910910 667 16 14 16372
14.601829 2.6499164 2.1411684 316 96910910 7094 17 54 14994
13.46501 2.9557936 1.8560489 205 96910910 3960 18 36 13910
12.469795 3.2195685 1.6102928 157 96910910 2651 19 71 12979
16.302984 2.346101 1.9246897 128 96910910 3533 20 62 16583
14.820197 2.6871409 1.6133686 346 96910910 7948 21 72 15148
13.763913 3.0146101 1.3738579 75 96910910 1498 22 32 14157
12.614605 3.2496774 1.1486028 278 96910910 4755 23 113 13077
16.465601 2.366276 1.3319726 265 96910910 7368 24 52 16688
15.062141 2.7269368 1.0792295 265 96910910 6233 25 34 15345
13.863166 3.0358417 0.86476821 115 96910910 2329 26 92 14218
12.770605 3.2817852 0.67879504 458 96910910 7989 27 77 13203
16.762981 2.4006522 0.73609757 368 96910910 10561 28 47 16950
15.323928 2.7688081 0.5277341 108 96910910 2616 29 27 15581
14.011563 3.0545027 0.35373339 232 96910910 4769 30 30 14345
12.914167 3.3136325 0.19920281 549 96910910 9754 31 49 13334
17.033918 2.4385431 0.12013353 307 96910910 9076 32 57 17208
15.62204 2.8167603 -0.040172726 36 96910910 898 33 43 15874
14.204741 3.0947969 -0.17356323 265 96910910 5610 34 69 14539
13.102675 3.3529847 -0.29015467 527 96910910 9653 35 61 13528
17.337742 2.4733922 -0.5200879 212 96910910 6515 36 88 17521
15.714497 2.8215384 -0.62450683 121 96910910 3078 37 50 15978
14.423511 3.1361327 -0.71855289 474 96910910 10350 38 125 14778
13.274044 3.3970847 -0.79700154 562 96910910 10596 39 61 13725
17.658966 2.5050678 -1.1837121 118 96910910 3782 40 72 17875
15.957668 2.8577259 -1.2283416 231 96910910 6118 41 62 16258
14.616961 3.1739204 -1.2770579 518 96910910 11674 42 109 15012
13.460695 3.4370937 -1.3183736 586 96910910 11402 43 56 13955
18.010906 2.5485804 -1.8778623 52 96910910 1754 44 64 18287
16.226757 2.8991923 -1.8571025 314 96910910 8628 45 50 16588
14.838984 3.2139955 -1.855369 512 96910910 11988 46 77 15296
13.616992 3.4734588 -1.855605 468 96910910 9408 47 91 14175
18.271338 2.5698202 -2.5895309 37 96910910 1300 48 65 18632
16.521826 2.944473 -2.517992 336 96910910 9667 49 38 16970
15.063845 3.2544417 -2.4632626 515 96910910 12535 50 45 15607
13.806208 3.5176184 -2.4179327 577 96910910 12060 51 59 14451
18.582739 2.5967519 -3.3442793 51 96910910 1864 52 78 19059
16.795309 2.9844422 -3.2056468 372 96910910 11216 53 79 17357
15.282604 3.2966783 -3.0922387 498 96910910 12659 54 67 15937
14.008462 3.5694103 -3.0094974 547 96910910 11917 55 50 14766
18.936766 2.635442 -4.1477075 61 96910910 2348 56 76 19564
17.061535 3.0225346 -3.9286921 312 96910910 9835 57 51 17767
15.549574 3.3511434 -3.7689524 453 96910910 12096 58 37 16347
14.184535 3.6129563 -3.6223989 487 96910910 11083 59 65 15079
18.825838 2.5975671 -4.8769741 40 96910910 1529 60 31 19620
17.427803 3.0723646 -4.7192717 291 96910910 9749 61 42 18315
15.783271 3.3983376 -4.4761848 391 96910910 10965 62 43 16754
14.382932 3.6699061 -4.2819028 395 96910910 9417 63 48 15449
14.666036 2.0065033 4.6204357 320 97009110 7683 0 57 15507
14.785541 2.5997565 4.5059233 235 97009110 5785 1 61 15674
12.939135 2.7796831 3.8321612 56 97009110 1060 2 17 13778
11.95355 3.04302 3.4455631 315 97009110 5163 3 29 12807
15.657533 2.1502268 4.2694087 306 97009110 8211 4 73 16371
15.037829 2.6373529 3.9617691 132 97009110 3278 5 25 15773
13.14819 2.8193128 3.3497376 73 97009110 1411 6 60 13858
12.091134 3.0650151 2.9817469 454 97009110 7461 7 43 12825
16.620846 2.2857685 3.8662479 165 97009110 4878 8 49 17217
14.462207 2.5421238 3.2300835 31 97009110 699 9 10 15035
13.177298 2.8180976 2.8288782 54 97009110 1019 10 27 13769
12.311478 3.1094389 2.5419354 234 97009110 3920 11 28 12950
16.935425 2.3317413 3.2799492 93 97009110 2830 12 68 17407
14.669595 2.5727713 2.7041898 84 97009110 1917 13 41 15137
13.47324 2.8786831 2.3658941 365 97009110 7141 14 62 13979
12.519626 3.1587558 2.0961385 84 97009110 1431 15 44 13081
16.253069 2.2375026 2.5281117 50 97009110 1374 16 16 16600
14.828394 2.5971541 2.1720138 262 97009110 6072 17 60 15210
13.703892 2.9202118 1.8864715 279 97009110 5568 18 47 14138
12.639429 3.1807714 1.6296475 116 97009110 2009 19 61 13135
16.505995 2.2720284 1.9469742 75 97009110 2121 20 71 16775
15.071469 2.6372881 1.6389302 333 97009110 7895 21 67 15388
13.922338 2.9599035 1.3878323 131 97009110 2674 22 29 14301
12.750244 3.2013242 1.1591429 285 97009110 4966 23 100 13197
16.622011 2.2847466 1.343466 35 97009110 981 24 44 16832
15.279049 2.6694891 1.093577 307 97009110 7433 25 63 15549
14.06899 2.9905684 0.87644607 60 97009110 1252 26 83 14410
12.941627 3.2412136 0.68681526 442 97009110 7893 27 79 13359
17.050587 2.3351662 0.74808365 326 97009110 9664 28 40 17226
15.529667 2.70769 0.53423721 113 97009110 2806 29 25 15773
14.217827 3.0082033 0.35846794 164 97009110 3459 30 35 14537
13.09722 3.2750809 0.20171264 465 97009110 8484 31 75 13502
17.322002 2.3714139 0.12206037 343 97009110 10499 32 61 17484
15.851831 2.7578752 -0.04071936 77 97009110 1985 33 39 16090
14.423036 3.0497801 -0.17599854 286 97009110 6225 34 69 14743
13.309254 3.3189712 -0.29427275 495 97009110 9308 35 54 13720
17.614056 2.4026279 -0.52792448 258 97009110 8172 36 72 17785
16.003258 2.7721353 -0.63529444 65 97009110 1706 37 51 16254
14.630122 3.0871675 -0.72788852 411 97009110 9207 38 132 14970
13.468994 3.3590558 -0.80745399 485 97009110 9368 39 56 13905
17.970633 2.4368913 -1.2035787 178 97009110 5896 40 59 18175
16.246096 2.8066077 -1.2491941 184 97009110 5039 41 78 16534
14.858452 3.1310146 -1.2964536 449 97009110 10426 42 124 15240
13.655424 3.3977032 -1.3353786 583 97009110 11640 43 45 14135
18.381073 2.4860148 -1.9148302 75 97009110 2621 44 71 18647
16.549774 2.8522289 -1.8920324 252 97009110 7212 45 58 16900
15.033278 3.1596341 -1.8772026 517 97009110 12391 46 77 15476
13.857411 3.4443655 -1.8854518 531 97009110 11019 47 93 14403
18.69898 2.5130613 -2.6479037 35 97009110 1288 48 60 19052
16.80858 2.8892806 -2.5589447 310 97009110 9206 49 55 17246
15.303883 3.208143 -2.499248 414 97009110 10369 50 56 15835
13.999765 3.4755981 -2.4480503 546 97009110 11678 51 53 14631
18.87936 2.5201974 -3.3948147 25 97009110 919 52 52 19347
17.103909 2.9311335 -3.2610536 236 97009110 7343 53 55 17657
15.544512 3.2534881 -3.141134 478 97009110 12537 54 74 16189
14.189728 3.5230212 -3.0437379 534 97009110 11900 55 50 14934
19.196705 2.5516479 -4.2011333 50 97009110 1974 56 84 19816
17.414299 2.9749408 -4.0056434 280 97009110 9204 57 58 18115
15.809864 3.3058586 -3.8270533 453 97009110 12495 58 58 16599
14.421244 3.5791659 -3.677171 523 97009110 12243 59 53 15307
18.345898 2.4167287 -4.7487111 9 97009110 322 60 20 19104
17.777821 3.0217161 -4.8089414 200 97009110 6957 61 31 18663
16.030214 3.348722 -4.5403061 421 97009110 12149 62 35 16994
14.628963 3.6372252 -4.3484221 363 97009110 8925 63 48 15689
14.632637 1.9105443 4.6061335 334 97106480 7993 0 59 15459
15.039182 2.5493236 4.5783672 271 97106480 6886 1 60 15926
13.15906 2.7425697 3.8922384 121 97106480 2365 2 25 13994
12.072957 2.9946599 3.4746194 250 97106480 4166 3 27 12915
15.670431 2.0541136 4.2694087 305 97106480 8186 4 66 16371
15.282784 2.5837576 4.0220509 146 97106480 3738 5 23 16013
13.233643 2.7528124 3.3671412 40 97106480 767 6 56 13930
12.245682 3.024348 3.0152261 419 97106480 7041 7 44 12969
16.750498 2.1989622 3.8931949 269 97106480 8100 8 59 17337
14.708633 2.4924994 3.2816446 77 97106480 1792 9 22 15275
13.401325 2.7801294 2.873256 91 97106480 1774 10 33 13985
12.433157 3.05914 2.5631344 349 97106480 5946 11 30 13058
17.241526 2.2661781 3.336477 114 97106480 3583 12 85 17707
14.952865 2.5279806 2.7534966 44 97106480 1038 13 37 15413
13.675941 2.8343606 2.3983893 364 97106480 7317 14 70 14171
12.676803 3.1158037 2.1192136 142 97106480 2479 15 27 13225
16.595741 2.1810033 2.5792832 80 97106480 2287 16 32 16936
15.078277 2.5456641 2.206286 210 97106480 5024 17 61 15450
13.838017 2.8601432 1.9024835 289 97106480 5867 18 44 14258
12.774358 3.1315079 1.6445359 46 97106480 817 19 59 13255
16.862326 2.2157385 1.9873644 53 97106480 1541 20 51 17123
15.299148 2.5804822 1.6619358 338 97106480 8241 21 60 15604
14.104 2.9081891 1.4041357 172 97106480 3593 22 45 14469
12.95543 3.1684661 1.1760069 207 97106480 3716 23 84 13389
16.932219 2.2216156 1.3674109 57 97106480 1662 24 43 17132
15.554831 2.6194201 1.1121445 363 97106480 9088 25 62 15813
14.345159 2.9573927 0.89250308 65 97106480 1404 26 91 14674
13.100984 3.1958256 0.69421864 385 97106480 7022 27 95 13503
17.32612 2.2646856 0.75954849 266 97106480 8124 28 51 17490
15.770708 2.6501126 0.5419597 184 97106480 4707 29 18 16001
14.424043 2.9594862 0.36320248 93 97106480 2014 30 21 14729
13.291938 3.2372453 0.20440175 418 97106480 7817 31 51 13682
17.633692 2.3039491 0.12415474 349 97106480 11049 32 75 17784
16.069647 2.6942906 -0.041235629 110 97106480 2913 33 33 16294
14.664813 3.0070198 -0.17872034 226 97106480 5076 34 61 14971
13.492585 3.2768843 -0.29787612 505 97106480 9749 35 60 13888
17.973404 2.3394015 -0.53825438 307 97106480 10098 36 103 18133
16.433918 2.7429817 -0.65171033 39 97106480 1075 37 37 16674
14.848413 3.0381863 -0.73780769 381 97106480 8769 38 130 15174
13.663971 3.3187606 -0.8179065 537 97106480 10646 39 47 14085
18.270239 2.3634465 -1.2226505 178 97106480 6084 40 59 18463
16.522684 2.7500916 -1.2691402 107 97106480 3005 41 56 16798
15.088243 3.0828693 -1.3148285 415 97106480 9917 42 98 15456
13.83856 3.3532374 -1.3512502 551 97106480 11263 43 50 14303
18.703781 2.4128916 -1.946869 117 97106480 4189 44 53 18959
16.802235 2.7896898 -1.9189014 170 97106480 4981 45 54 17140
15.285811 3.1149001 -1.906314 138 97106480 3416 46 79 15716
14.028602 3.3956578 -1.9058733 569 97106480 12063 47 103 14559
19.067661 2.4435964 -2.6979377 62 97106480 2322 48 45 19412
17.142103 2.838433 -2.6070197 235 97106480 7242 49 48 17570
15.543912 3.1590192 -2.5352335 495 97106480 12762 50 43 16063
14.23932 3.4424536 -2.4861991 579 97106480 12774 51 53 14859
19.374962 2.4654508 -3.4811459 44 97106480 1716 52 47 19839
17.377565 2.8683858 -3.3098116 296 97106480 9517 53 78 17921
15.817993 3.209547 -3.1923575 448 97106480 12139 54 65 16453
14.416621 3.4855835 -3.0877614 492 97106480 11283 55 47 15150
0 0 -0 5 97106480 0 56 67 0
17.720919 2.9155295 -4.07198 288 97106480 9751 57 51 18415
16.047287 3.2528641 -3.879621 419 97106480 11853 58 42 16827
14.64674 3.5398679 -3.7290602 491 97106480 11821 59 51 15523
18.406513 2.3099043 -4.7606425 24 97106480 870 60 31 19152
18.093533 2.9612677 -4.8893352 246 97106480 8847 61 32 18975
16.311134 3.3030875 -4.6140451 359 97106480 10695 62 46 17270
14.841509 3.5935209 -4.4049635 397 97106480 10017 63 50 15893
14.678186 1.8249642 4.6168604 324 97204820 7767 0 57 15495
15.043198 2.4551456 4.5749178 315 97204820 7967 1 51 15914
13.311218 2.6891656 3.9322901 160 97204820 3194 2 23 14138
12.270855 2.9639428 3.5262744 148 97204820 2538 3 31 13107
15.613769 1.9493121 4.2506323 326 97204820 8673 4 59 16299
15.470317 2.5179248 4.0672622 170 97204820 4452 5 25 16193
13.398672 2.701479 3.4048493 30 97204820 588 6 42 14086
12.40018 2.9818988 3.0487056 359 97204820 6168 7 34 13113
16.717264 2.0903385 3.8824165 256 97204820 7666 8 61 17289
14.920287 2.434284 3.3254714 113 97204820 2701 9 32 15479
13.671431 2.7487764 2.9274955 150 97204820 3042 10 23 14249
12.611893 3.0211697 2.5961111 408 97204820 7134 11 21 13226
17.407125 2.1793764 3.3658717 161 97204820 5152 12 62 17863
15.142899 2.4646347 2.7856531 50 97204820 1209 13 33 15593
13.85541 2.7829998 2.4268227 271 97204820 5580 14 68 14339
12.845439 3.073797 2.1442115 218 97204820 3896 15 43 13381
17.126612 2.1439521 2.6596954 16 97204820 476 16 44 17464
15.316353 2.4892986 2.2388449 149 97204820 3673 17 65 15678
14.053545 2.8148875 1.9297037 373 97204820 7792 18 48 14462
13.048137 3.1138749 1.6772901 52 97204820 957 19 71 13519
17.100311 2.1403568 2.0138271 35 97204820 1040 20 51 17351
15.550243 2.5248048 1.6874975 301 97204820 7547 21 40 15844
14.273833 2.8520153 1.4192747 227 97204820 4849 22 35 14625
13.149056 3.1304402 1.191817 133 97204820 2450 23 108 13569
17.337223 2.1666293 1.3990182 100 97204820 3060 24 47 17528
15.771483 2.5564885 1.1264919 362 97204820 9276 25 50 16017
14.503983 2.8974743 0.90126145 84 97204820 1849 26 93 14818
13.318565 3.1624458 0.70470673 303 97204820 5697 27 86 13707
17.589523 2.1894295 0.7704922 210 97204820 6597 28 50 17742
16.047136 2.5954223 0.55090147 271 97204820 7163 29 27 16265
14.71255 2.9247231 0.37000835 63 97204820 1412 30 35 15005
13.475001 3.1943741 0.20691156 451 97204820 8643 31 51 13850
17.90947 2.2283022 0.12599778 314 97204820 10242 32 66 18048
16.334658 2.6357822 -0.041873373 148 97204820 4038 33 57 16546
14.859526 2.9520533 -0.18086915 177 97204820 4075 34 58 15151
13.675895 3.2326713 -0.30147946 422 97204820 8346 35 63 14056
18.285009 2.2659535 -0.54715949 285 97204820 9689 36 98 18433
16.639864 2.6725168 -0.65921468 57 97204820 1615 37 28 16866
15.078402 2.9889712 -0.74831027 320 97204820 7580 38 113 15390
13.88227 3.2817097 -0.82975262 524 97204820 10708 39 64 14289
18.6528 2.296658 -1.2472849 286 97204820 10160 40 68 18835
16.858257 2.6997461 -1.2936195 47 97204820 1392 41 59 17122
15.306268 3.0296988 -1.3321826 389 97204820 9542 42 104 15660
14.044913 3.312135 -1.3693891 434 97204820 9109 43 50 14495
19.014423 2.334446 -1.9776754 172 97204820 6395 44 69 19259
17.101643 2.7316821 -1.9511443 123 97204820 3749 45 66 17428
15.491611 3.0579572 -1.9296032 179 97204820 4539 46 75 15908
14.222869 3.3504331 -1.9294364 482 97204820 10475 47 93 14739
19.436182 2.3697 -2.7479718 107 97204820 4166 48 50 19772
17.381865 2.7686653 -2.6408498 198 97204820 6260 49 44 17798
15.795532 3.1093576 -2.5731127 452 97204820 12004 50 43 16303
14.43292 3.3956602 -2.5163167 552 97204820 12474 51 57 15039
19.495277 2.3592958 -3.5000966 63 97204820 2490 52 49 19947
17.709326 2.8116348 -3.3696506 224 97204820 7471 53 65 18245
16.056858 3.1555603 -3.2365963 457 97204820 12703 54 53 16681
14.643582 3.4454927 -3.1317849 499 97204820 11771 55 54 15366
18.679348 2.2499683 -4.0815611 52 97204820 1910 56 53 19252
18.015894 2.850637 -4.1356635 234 97204820 8170 57 51 18703
16.319019 3.2038271 -3.9404886 449 97204820 13105 58 39 17091
14.849612 3.4926021 -3.7751839 433 97204820 10683 59 49 15715
18.951252 2.2602403 -4.8978539 18 97204820 692 60 19 19704
18.386253 2.8934522 -4.9635453 195 97204820 7225 61 32 19263
16.592091 3.2541299 -4.6877847 373 97204820 11475 62 29 17546
15.087729 3.5552771 -4.4714828 396 97204820 10298 63 39 16133
14.586725 1.7227741 4.584681 152 97302150 3588 0 52 15387
15.012562 2.3556695 4.5611191 362 97302150 9124 1 63 15866
13.712078 2.6826854 4.0457697 87 97302150 1832 2 46 14546
12.378819 2.9097517 3.5521023 95 97302150 1652 3 25 13203
15.567913 1.846648 4.2349844 328 97302150 8639 4 47 16239
15.726465 2.46066 4.1305585 195 97302150 5266 5 33 16445
13.689277 2.6727674 3.4744644 31 97302150 632 6 47 14374
12.577342 2.9429843 3.0877647 343 97302150 6045 7 30 13281
16.671715 1.9808254 3.8689425 258 97302150 7672 8 64 17229
15.965405 2.5043266 3.5549181 97 97302150 2650 9 26 16547
13.907063 2.7074788 2.9743385 101 97302150 2110 10 39 14477
12.779165 2.9784489 2.6267319 407 97302150 7285 11 24 13382
17.619114 2.0961959 3.4043109 95 97302150 3112 12 77 18067
15.414367 2.4118271 2.8328161 28 97302150 698 13 29 15857
13.976709 2.7182527 2.4451013 36 97302150 762 14 58 14447
13.002495 3.0271509 2.1672864 266 97302150 4859 15 42 13525
18.116934 2.1551025 2.8113823 86 97302150 2928 16 8 18460
15.601235 2.4374394 2.2782581 90 97302150 2279 17 52 15954
14.24568 2.7625651 1.9537216 425 97302150 9105 18 32 14642
13.182985 3.060683 1.6921784 84 97302150 1571 19 65 13639
17.409008 2.0705829 2.0486462 56 97302150 1735 20 37 17651
15.754067 2.458782 1.7079469 54 97302150 1400 21 65 16036
14.47868 2.8006701 1.4379071 313 97302150 6864 22 43 14817
13.354343 3.0928533 1.2086811 88 97302150 1672 23 84 13761
17.682781 2.0997019 1.4258363 64 97302150 2033 24 35 17864
16.047079 2.5002098 1.1450593 373 97302150 9876 25 49 16281
14.733166 2.8493629 0.91439903 106 97302150 2406 26 65 15034
13.47784 3.1130292 0.7121101 233 97302150 4476 27 76 13851
17.98361 2.1265113 0.78716844 132 97302150 4353 28 59 18126
16.276072 2.5300691 0.55821747 325 97302150 8823 29 21 16481
14.977605 2.8819954 0.37622243 47 97302150 1087 30 35 15257
13.658034 3.1493769 0.2094214 377 97302150 7416 31 73 14018
18.256475 2.1578076 0.12834349 250 97302150 8466 32 59 18384
16.575829 2.5704436 -0.042450376 207 97302150 5815 33 37 16774
15.124807 2.9084041 -0.18387745 103 97302150 2454 34 66 15403
13.882548 3.1917069 -0.30559757 429 97302150 8719 35 58 14248
18.608294 2.1901703 -0.5564208 327 97302150 11498 36 87 18745
16.89296 2.6069422 -0.66859519 80 97302150 2332 37 34 17106
15.343652 2.9438221 -0.76056331 232 97302150 5681 38 95 15642
14.053922 3.2313652 -0.83881146 480 97302150 10006 39 54 14445
18.98764 2.2197008 -1.2687408 292 97302150 10733 40 69 19159
17.229301 2.6508427 -1.3208184 54 97302150 1638 41 47 17482
15.571172 2.9829659 -1.3536201 297 97302150 7522 42 103 15912
14.251275 3.2686245 -1.3875279 556 97302150 11983 43 57 14687
19.312941 2.2508957 -2.0072496 189 97302150 7236 44 72 19547
17.424534 2.6737208 -1.9860742 67 97302150 2097 45 41 17740
15.720679 3.0030746 -1.9558035 130 97302150 3386 46 89 16124
14.46349 3.3135777 -1.9592832 529 97302150 11853 47 97 14967
19.780891 2.2886398 -2.7946701 171 97302150 6934 48 59 20108
17.726984 2.712214 -2.6907053 113 97302150 3708 49 28 18134
16.047119 3.0567253 -2.6109922 464 97302150 12687 50 47 16543
14.684139 3.359813 -2.5564733 527 97302150 12295 51 39 15279
18.969498 2.1776526 -3.4032373 10 97302150 358 52 57 19395
17.959419 2.7384744 -3.413976 139 97302150 4766 53 59 18485
16.307213 3.1009605 -3.2831633 425 97302150 12181 54 67 16921
14.870585 3.402746 -3.1758084 498 97302150 12084 55 36 15582
0 0 -0 3 97302150 0 56 75 0
18.39172 2.794539 -4.2179213 162 97302150 5879 57 49 19075
16.613688 3.1559346 -4.0068898 382 97302150 11529 58 32 17379
15.097869 3.4533672 -3.8328385 464 97302150 11823 59 64 15955
18.664469 2.1099675 -4.8202996 17 97302150 631 60 24 19392
18.736137 2.8308148 -5.053215 158 97302150 6066 61 31 19611
16.884411 3.2040026 -4.76473 330 97302150 10481 62 52 17834
15.311553 3.5089936 -4.5313501 397 97302150 10604 63 33 16349
14.209969 1.5899324 4.4631138 23 97398660 508 0 40 14979
15.004003 2.2600858 4.5542192 335 97398660 8418 1 67 15842
14.430456 2.7314074 4.2527032 156 97398660 3642 2 25 15290
12.621778 2.8852527 3.6166713 63 97398660 1134 3 28 13443
15.521391 1.7446204 4.219337 275 97398660 7186 4 55 16179
15.982483 2.4003451 4.1938539 221 97398660 6153 5 32 16697
13.877047 2.6211388 3.5179737 79 97398660 1665 6 47 14554
12.777248 2.9071851 3.1324036 276 97398660 5002 7 49 13473
16.660315 1.8758757 3.863553 269 97398660 7975 8 67 17205
16.25861 2.4481995 3.6167912 116 97398660 3284 9 16 16835
14.108072 2.6568711 3.0137856 54 97398660 1155 10 36 14669
12.957858 2.936388 2.6597083 430 97398660 7889 11 35 13550
17.502825 1.9735228 3.3794386 37 97398660 1197 12 89 17935
15.557311 2.3364904 2.8563976 90 97398660 2297 13 16 15989
14.120978 2.6564944 2.4674418 73 97398660 1542 14 52 14579
13.147903 2.9760771 2.1884384 299 97398660 5569 15 48 13657
18.389095 2.0731287 2.8515882 125 97398660 4371 16 37 18724
15.768592 2.3645632 2.3005352 53 97398660 1365 17 46 16110
14.437696 2.7079892 1.9777395 376 97398660 8251 18 48 14822
13.375743 3.0190611 1.7145108 149 97398660 2837 19 50 13819
17.729326 1.9984351 2.0848582 101 97398660 3245 20 49 17963
16.15826 2.4204006 1.7501236 27 97398660 716 21 55 16432
14.683428 2.7469175 1.4565398 320 97398660 7198 22 55 15009
13.489686 3.0371099 1.2192211 50 97398660 967 23 95 13881
17.980612 2.0232642 1.4488233 36 97398660 1202 24 61 18152
16.287054 2.4353335 1.1610948 335 97398660 9141 25 71 16509
14.926976 2.7919405 0.92534697 181 97398660 4198 26 74 15214
13.707162 3.0775278 0.7232151 143 97398660 2838 27 68 14067
18.210773 2.0401514 0.79654878 98 97398660 3285 28 41 18342
16.575975 2.4726195 0.56797212 318 97398660 8935 29 30 16769
15.230885 2.8339291 0.38214058 52 97398660 1245 30 18 15497
13.852725 3.1048768 0.2121105 332 97398660 6683 31 53 14198
18.627127 2.0858078 0.13085675 226 97398660 7956 32 62 18744
16.828674 2.5040092 -0.043057751 222 97398660 6413 33 53 17014
15.354713 2.8550284 -0.18645601 73 97398660 1792 34 62 15619
14.054081 3.1404774 -0.30894351 405 97398660 8393 35 52 14404
18.97901 2.1158197 -0.56710696 349 97398660 12742 36 105 19105
17.157732 2.5401168 -0.67844474 149 97398660 4482 37 29 17358
15.538197 2.8824117 -0.76931542 167 97398660 4184 38 97 15822
14.283929 3.1921003 -0.85135442 415 97398660 8931 39 61 14661
19.310329 2.1374025 -1.2894019 351 97398660 13321 40 71 19471
17.481991 2.5800154 -1.3389512 88 97398660 2776 41 72 17722
15.789043 2.9243846 -1.3709742 294 97398660 7640 42 94 16116
14.480946 3.2279034 -1.4079342 500 97398660 11116 43 60 14903
19.706055 2.1742415 -2.0466821 231 97398660 9191 44 73 19931
17.711952 2.606689 -2.0169735 47 97398660 1516 45 32 18016
16.078497 2.9692891 -1.998015 343 97398660 9317 46 71 16472
14.680959 3.2687223 -1.9859881 497 97398660 11445 47 82 15171
19.770937 2.1646369 -2.7913344 155 97398660 6270 48 63 20084
18.025087 2.6447387 -2.7334385 67 97398660 2264 49 34 18422
16.321955 3.0054128 -2.6526594 390 97398660 11006 50 42 16807
14.87771 3.3081689 -2.5865908 526 97398660 12559 51 57 15459
18.994247 2.0624924 -3.4053431 92 97398660 3450 52 47 19407
18.395988 2.6896484 -3.4937618 110 97398660 3923 53 44 18917
16.557491 3.0434055 -3.32973 363 97398660 10704 54 63 17161
15.097608 3.3573411 -3.2198319 498 97398660 12419 55 44 15798
19.171926 2.0709524 -4.1833243 73 97398660 2824 56 53 19732
18.73278 2.728873 -4.2922187 129 97398660 4844 57 49 19411
16.862432 3.0961096 -4.0622239 380 97398660 11781 58 55 17619
15.323454 3.4061606 -3.884728 460 97398660 12042 59 58 16171
18.399683 1.9657701 -4.7487111 15 97398660 544 60 12 19104
18.890856 2.7357407 -5.0903201 157 97398660 6120 61 20 19755
17.176729 3.1504087 -4.8416753 320 97398660 10498 62 38 18122
15.546624 3.4626024 -4.5945435 415 97398660 11397 63 29 16577
14.356154 1.517158 4.5060201 16 97497880 358 0 39 15123
14.96071 2.1597695 4.5369706 360 97497880 8956 1 50 15782
14.628357 2.6759987 4.3061051 173 97497880 4142 2 24 15482
12.718221 2.8252971 3.6392703 15 97497880 270 3 31 13527
15.497244 1.6456802 4.209949 330 97497880 8587 4 57 16143
16.008408 2.3038878 4.1968684 272 97497880 7585 5 37 16709
14.121966 2.57776 3.5759861 158 97497880 3450 6 44 14794
12.965786 2.8665228 3.1742527 206 97497880 3833 7 41 13653
16.613371 1.7674295 3.8500795 264 97497880 7774 8 60 17145
16.493719 2.3801973 3.6657743 149 97497880 4329 9 37 17063
14.216543 2.5870762 3.033509 25 97497880 539 10 31 14765
13.13651 2.8922453 2.6926849 382 97497880 7183 11 35 13718
17.795855 1.8960559 3.4337056 236 97497880 7852 12 65 18223
15.933638 2.2931273 2.9228544 127 97497880 3393 13 30 16361
14.497735 2.6353712 2.5304015 100 97497880 2227 14 40 14951
13.339445 2.9335079 2.2172823 357 97497880 6826 15 51 13837
18.719887 1.9941765 2.9009321 128 97497880 4636 16 26 19048
16.029686 2.3032382 2.3365214 34 97497880 923 17 59 16362
14.676379 2.6596425 2.0081623 344 97497880 7781 18 53 15050
13.510325 2.9624357 1.7293992 196 97497880 3799 19 54 13939
18.997553 2.0234201 2.2324915 59 97497880 2200 20 62 19235
16.338158 2.3449416 1.7680167 83 97497880 2277 21 41 16600
14.911558 2.6950045 1.4775013 338 97497880 7846 22 61 15225
13.800008 3.0181303 1.2455714 74 97497880 1492 23 94 14181
18.37332 1.9533659 1.4794729 32 97497880 1088 24 40 18536
16.550526 2.3710001 1.1788183 291 97497880 8188 25 60 16761
15.144204 2.7365053 0.93775475 268 97497880 6378 26 78 15418
13.842876 3.0188994 0.7293846 119 97497880 2400 27 85 14187
18.616379 1.9700068 0.81374609 54 97497880 1882 28 47 18738
16.816414 2.4031003 0.57569456 337 97497880 9730 29 23 16997
15.448709 2.7764952 0.38717103 133 97497880 3275 30 17 15701
14.070824 3.0632088 0.21515815 235 97497880 4884 31 64 14402
18.92597 2.0017662 0.13286735 182 97497880 6608 32 66 19032
17.176359 2.4481137 -0.043908074 317 97497880 9529 33 53 17350
15.749868 2.8286343 -0.19104011 54 97497880 1393 34 69 16003
14.260675 3.0948951 -0.31306162 374 97497880 7976 35 67 14596
19.313711 2.0332332 -0.57672441 273 97497880 10314 36 89 19429
17.469795 2.4768717 -0.69017035 198 97497880 6164 37 36 17658
15.862337 2.8419752 -0.78448588 115 97497880 3001 38 80 16134
14.478854 3.1425097 -0.86180687 445 97497880 9791 39 56 14841
19.704165 2.058692 -1.314831 327 97497880 12900 40 88 19855
17.80554 2.516232 -1.3625238 105 97497880 3430 41 63 18034
16.053852 2.8716612 -1.3924115 254 97497880 6811 42 89 16368
14.722321 3.1870122 -1.429474 497 97497880 11370 43 45 15131
20.039577 2.0866647 -2.079953 354 97497880 14539 44 74 20255
18.188122 2.562851 -2.0693684 50 97497880 1695 45 45 18484
16.319214 2.9103112 -2.025671 316 97497880 8823 46 77 16700
14.910045 3.2238359 -2.0142641 462 97497880 10943 47 93 15387
19.299198 1.9932292 -2.7229548 49 97497880 1866 48 45 19592
18.428785 2.588562 -2.7921965 41 97497880 1444 49 26 18818
16.585085 2.9487662 -2.6924326 329 97497880 9564 50 41 17059
15.129015 3.2667594 -2.6267474 514 97497880 12678 51 68 15699
19.03005 1.9483135 -3.4095545 16 97497880 622 52 62 19431
18.750856 2.6241238 -3.5580335 54 97497880 1989 53 47 19265
16.877216 2.9952366 -3.3902671 322 97497880 9818 54 49 17473
15.347592 3.3142364 -3.2687469 492 97497880 12648 55 32 16038
18.717598 1.9057614 -4.0815611 42 97497880 1575 56 59 19252
19.085306 2.6607411 -4.3691692 87 97497880 3384 57 37 19759
17.145554 3.0394638 -4.1258583 315 97497880 10077 58 37 17895
15.583178 3.3636868 -3.9452653 418 97497880 11285 59 69 16423
18.29575 1.8411964 -4.7188826 137 97497880 4932 60 17 18984
18.52828 2.5672622 -4.9882817 11 97497880 403 61 28 19359
17.469017 3.0933464 -4.9186206 267 97497880 9033 62 54 18410
15.838041 3.4256439 -4.674367 288 97497880 8181 63 44 16865
14.239808 1.4165685 4.4666896 16 97594940 371 0 58 14991
14.939524 2.0632145 4.5266213 348 97594940 8640 1 60 15746
14.848817 2.6222723 4.3661828 175 97594940 4305 2 33 15698
12.961271 2.795948 3.7038393 32 97594940 606 3 6 13767
15.50705 1.5505599 4.209949 19 97594940 508 4 58 16143
15.953202 2.1961145 4.1787839 294 97594940 8129 5 35 16637
14.343933 2.5274315 3.6281977 112 97594940 2532 6 69 15010
13.108654 2.8138566 3.204942 135 97594940 2558 7 45 13785
16.542458 1.6572987 3.8312166 265 97594940 7727 8 61 17061
16.705378 2.3061953 3.7096009 195 97594940 5805 9 34 17267
14.64856 2.5729365 3.1222646 20 97594940 457 10 24 15197
13.32661 2.8484788 2.7280169 96 97594940 1850 11 26 13898
17.736795 1.779767 3.4201386 272 97594940 8973 12 75 18151
17.000107 2.3402314 3.1157939 88 97594940 2665 13 44 17441
14.630122 2.5668027 2.5507112 84 97594940 1918 14 66 15071
13.519368 2.8862257 2.2442031 427 97594940 8369 15 35 14005
19.062193 1.9124256 2.9521036 173 97594940 6488 16 39 19384
16.408276 2.2549667 2.3896434 46 97594940 1277 17 45 16734
14.90329 2.6064184 2.0369837 284 97594940 6608 18 52 15266
13.74953 2.9265819 1.7576869 273 97594940 5470 19 51 14167
19.43655 1.9496405 2.2826314 77 97594940 2965 20 39 19667
16.635939 2.2835917 1.7986908 79 97594940 2266 21 64 16888
15.127832 2.6383419 1.4972984 400 97594940 9513 22 47 15429
13.946891 2.9607029 1.2571654 100 97594940 2056 23 76 14313
18.753927 1.8775315 1.5091645 57 97594940 2026 24 39 18908
16.801952 2.3018987 1.1956978 200 97594940 5792 25 68 17001
15.373105 2.6805654 0.95089227 280 97594940 6853 26 68 15634
14.142525 2.9934635 0.74419129 58 97594940 1225 27 62 14475
18.938288 1.8866411 0.82729548 65 97594940 2349 28 33 19050
17.127909 2.3404644 0.58585566 292 97594940 8726 29 39 17297
15.654573 2.7144439 0.39190555 156 97594940 3936 30 21 15893
14.288926 3.01898 0.21820581 168 97594940 3574 31 53 14606
19.284176 1.920079 0.13529684 126 97594940 4746 32 74 19380
17.416969 2.373461 -0.044485081 330 97594940 10182 33 55 17578
15.944273 2.7626703 -0.19318892 53 97594940 1376 34 54 16183
14.502451 3.0543118 -0.31795186 298 97594940 6557 35 67 14824
19.695847 1.9513481 -0.58776677 195 97594940 7653 36 92 19801
17.746073 2.4050603 -0.70048887 251 97594940 8053 37 33 17922
16.068447 2.7772536 -0.79382151 71 97594940 1902 38 73 16326
14.697147 3.0955842 -0.87365305 386 97594940 8727 39 56 15045
20.121576 1.9775695 -1.3418494 291 97594940 11965 40 68 20263
18.105238 2.4453702 -1.3842831 183 97594940 6129 41 50 18322
16.330383 2.8178301 -1.4148698 150 97594940 4156 42 87 16632
14.916966 3.1334555 -1.4464792 513 97594940 12016 43 50 15311
19.838169 1.9427245 -2.0577724 124 97594940 4992 44 79 20039
18.404411 2.4782553 -2.0922072 88 97594940 3065 45 29 18688
16.606762 2.8565664 -2.0591493 248 97594940 7155 46 83 16976
15.139123 3.1762593 -2.0425401 494 97594940 12030 47 99 15603
19.133646 1.8575497 -2.6979377 322 97594940 12118 48 47 19412
18.691319 2.5085862 -2.8295882 50 97594940 1811 49 22 19070
16.883165 2.8950105 -2.7378879 310 97594940 9316 50 47 17347
15.391943 3.2248151 -2.6689119 500 97594940 12735 51 58 15951
19.394432 1.865443 -3.4727232 240 97594940 9383 52 53 19791
19.210808 2.5684094 -3.6422515 29 97594940 1145 53 64 19721
17.150549 2.9353132 -3.4414909 300 97594940 9423 54 55 17737
15.574612 3.2633703 -3.3127706 391 97594940 10319 55 49 16254
18.647223 1.7830626 -4.0637527 75 97594940 2774 56 58 19168
19.217279 2.5590334 -4.3957043 57 97594940 2240 57 37 19879
17.440113 2.981426 -4.1922593 282 97594940 9310 58 46 18183
15.820148 3.3133767 -4.0000372 355 97594940 9830 59 51 16651
0 0 -0 2 97594940 0 60 25 0
18.325285 2.4246299 -4.9295325 26 97594940 947 61 13 19131
17.772638 3.03476 -4.9987717 225 97594940 7863 62 43 18710
16.129578 3.385237 -4.7541895 339 97594940 9964 63 38 17153
14.487745 1.3515115 4.5417747 107 97694270 2480 0 30 15243
14.906323 1.9654986 4.5128226 356 97694270 8784 1 64 15698
15.080523 2.5678744 4.4295979 161 97694270 4077 2 28 15926
13.079995 2.7376761 3.7328954 106 97694270 2038 3 19 13875
15.170248 1.4229252 4.1160641 16 97694270 410 4 64 15783
15.908795 2.0906193 4.1637135 317 97694270 8704 5 29 16577
15.357903 2.6090384 3.8805518 129 97694270 3312 6 57 16054
13.297064 2.769062 3.2467911 94 97694270 1829 7 24 13965
16.505745 1.5513878 3.8204377 271 97694270 7857 8 63 17013
16.986458 2.2388732 3.7688963 174 97694270 5348 9 26 17543
14.733546 2.4947703 3.1370573 74 97694270 1719 10 32 15269
13.389923 2.7762101 2.7374387 76 97694270 1474 11 23 13946
17.688717 1.6653794 3.4088333 236 97694270 7736 12 74 18091
17.31851 2.2758739 3.1715322 122 97694270 3835 13 37 17753
14.890483 2.5184031 2.5933611 71 97694270 1656 14 56 15323
13.676009 2.8320408 2.2672782 441 97694270 8821 15 39 14149
19.038145 1.7920918 2.9466209 186 97694270 6953 16 32 19348
16.669102 2.186686 2.4256294 103 97694270 2959 17 52 16986
15.14182 2.552485 2.0674062 225 97694270 5391 18 47 15494
13.907165 2.8710501 1.7755529 322 97694270 6604 19 64 14311
19.732941 1.8571466 2.3160577 111 97694270 4440 20 59 19955
16.921743 2.2171245 1.8280869 43 97694270 1281 21 58 17164
15.391077 2.5870445 1.5217535 351 97694270 8622 22 45 15681
14.128708 2.9088171 1.2719215 164 97694270 3447 23 74 14481
19.074738 1.7915059 1.5340672 86 97694270 3165 24 38 19220
17.041275 2.2282479 1.2117331 62 97694270 1827 25 51 17229
