# .PCD v0.7 - Point Cloud Data file format
VERSION 0.7
FIELDS x y z intensity t reflectivity ring noise range
SIZE 4 4 4 4 4 2 1 2 4
TYPE F F F F U U U U U
COUNT 1 1 1 1 1 1 1 1 1
WIDTH 783
HEIGHT 1
VIEWPOINT 0 0 0 1 0 0 0
POINTS 783
DATA ascii
1.7591879 -2.3608894 0.88370597 297 14550530 281 1 91 3074
1.9386622 -2.4074912 0.89504242 85 14550530 88 2 23 3218
1.3061064 -1.5024407 0.55610055 15 14550530 6 3 29 2067
1.6239462 -2.3594859 0.77376682 280 14550530 247 4 81 2967
1.79934 -2.4169753 0.781905 322 14550530 312 5 29 3113
1.9842823 -2.4660814 0.7884863 283 14550530 301 6 88 3262
2.1931329 -2.5279689 0.80001491 332 14550530 394 7 62 3441
1.6694942 -2.4246671 0.67839551 275 14550530 251 8 84 3021
1.8759816 -2.5179055 0.69070292 108 14550530 111 9 57 3215
2.0704587 -2.5760345 0.69381374 306 14550530 349 10 49 3377
2.2890708 -2.6432106 0.69996458 354 14550530 450 11 34 3566
1.7419955 -2.5291128 0.58921123 314 14550530 307 12 95 3127
1.9418381 -2.6083868 0.59043056 307 14550530 335 13 48 3305
2.125313 -2.6453235 0.58271503 279 14550530 330 14 2131 3443
2.380543 -2.7501922 0.59049541 305 14550530 413 15 57 3685
1.7984427 -2.6111631 0.48856524 319 14550530 328 16 40 3208
2.0029874 -2.6918008 0.48409772 343 14550530 395 17 68 3390
2.189666 -2.7284441 0.47101745 320 14550530 398 18 53 3530
1.3128281 -1.5185567 0.25099176 40 14550530 16 19 82 2023
1.8653538 -2.7084129 0.38428798 315 14550530 346 20 71 3311
2.0746977 -2.7890863 0.37234858 310 14550530 379 21 85 3496
2.3066542 -2.8769944 0.35954958 285 14550530 392 22 82 3705
2.5684664 -2.9742126 0.34650439 304 14550530 473 23 111 3945
1.9105345 -2.7751536 0.2697787 280 14550530 320 24 70 3380
2.1407773 -2.8794935 0.25298068 310 14550530 402 25 61 3597
2.3737633 -2.9609084 0.23124552 294 14550530 425 26 114 3802
2.6632667 -3.0876911 0.20991594 283 14550530 472 27 90 4083
1.9734904 -2.8696017 0.15138856 379 14550530 461 28 71 3486
2.2272949 -2.9980507 0.12657355 284 14550530 396 29 37 3737
2.4989383 -3.1230719 0.098660678 269 14550530 430 30 51 4001
2.7743793 -3.2188954 0.063492715 309 14550530 559 31 91 4250
2.0533457 -2.9860523 0.025300087 317 14550530 417 32 82 3624
2.2876687 -3.0816755 -0.0097129224 289 14550530 426 33 63 3838
2.5528567 -3.1912558 -0.048789665 238 14550530 398 34 81 4087
2.8985043 -3.3673024 -0.095316924 312 14550530 616 35 95 4444
2.1670535 -3.1547112 -0.11365885 112 14550530 164 36 99 3829
2.3812525 -3.2126586 -0.15641986 317 14550530 508 37 69 4002
2.6677923 -3.3377991 -0.20800984 299 14550530 547 38 128 4278
2.9913802 -3.4750774 -0.26671243 277 14550530 585 39 78 4593
1.0738983 -1.5659728 -0.12601982 16 14550530 6 40 80 1903
2.462631 -3.3256035 -0.31354517 293 14550530 505 41 98 4150
2.7909312 -3.4938641 -0.38179028 304 14550530 612 42 141 4488
1.1832469 -1.3760794 -0.17222466 161 14550530 54 43 92 1823
2.2935557 -3.346998 -0.41886586 336 14550530 559 44 101 4079
2.5911376 -3.5020809 -0.49080884 283 14550530 545 45 59 4384
2.842967 -3.5628295 -0.55699885 130 14550530 274 46 111 4592
3.3595295 -3.9089603 -0.68058485 76 14550530 205 47 135 5199
2.3459897 -3.4296734 -0.58317262 319 14550530 562 48 77 4196
2.6817832 -3.6279037 -0.6769051 307 14550530 640 49 69 4562
1.2229919 -1.5343107 -0.31360945 40 14550530 16 50 58 1987
3.4477563 -4.0138831 -0.89800328 94 14550530 272 51 62 5367
2.4729607 -3.6222107 -0.78171813 355 14550530 705 52 79 4455
2.8051901 -3.7988689 -0.88743061 245 14550530 567 53 67 4805
3.2425361 -4.0705628 -1.0293233 64 14550530 181 54 66 5305
3.6399765 -4.2375164 -1.1629549 87 14550530 285 55 58 5706
2.5921202 -3.8013046 -0.99812949 290 14550530 643 56 98 4708
3.0120687 -4.0835028 -1.1505029 31 14550530 83 57 44 5203
3.2021897 -4.0214977 -1.2180446 402 14550530 1120 58 57 5283
3.2830617 -3.8226852 -1.2470238 424 14550530 1143 59 77 5191
1.0067271 -1.4800651 -0.45936024 176 14550530 60 60 44 1848
3.0747967 -4.1758623 -1.3829283 372 14550530 1071 61 36 5367
3.1698606 -3.9824653 -1.4111978 331 14550530 925 62 64 5282
3.2424159 -3.7721608 -1.4348767 355 14550530 953 63 62 5177
1.5580617 -2.2962694 0.86616409 305 14650010 258 0 84 2907
1.7242366 -2.3438644 0.87335682 296 14650010 274 1 83 3038
1.9166794 -2.4103193 0.89170474 233 14650010 239 2 33 3206
1.2215735 -1.4227384 0.52381605 16 14650010 6 3 32 1947
1.6289662 -2.398155 0.78315532 297 14650010 268 4 86 3003
1.7844759 -2.4279704 0.781905 307 14650010 297 5 53 3113
1.9980887 -2.514677 0.80008882 270 14650010 296 6 69 3310
2.1623921 -2.5236526 0.79443502 377 14650010 441 7 63 3417
1.6611576 -2.4445372 0.68109024 303 14650010 279 8 78 3033
1.8674411 -2.53881 0.69328099 151 14650010 158 9 60 3227
2.0327106 -2.5610936 0.68641746 305 14650010 340 10 54 3341
2.265161 -2.6482644 0.69760913 333 14650010 420 11 43 3554
1.7131938 -2.520261 0.58468902 351 14650010 338 12 108 3103
1.8978277 -2.5821977 0.58185548 318 14650010 338 13 62 3257
2.0943403 -2.6397843 0.5786531 270 14650010 316 14 93 3419
2.3328352 -2.728734 0.58280373 300 14650010 396 15 52 3637
1.7757196 -2.6123405 0.48673767 325 14650010 332 16 50 3196
1.9794016 -2.6944685 0.48238412 303 14650010 346 17 66 3378
2.1802697 -2.7511487 0.47261861 320 14650010 402 18 60 3542
2.4246254 -2.8396115 0.46687201 61 14650010 86 19 106 3763
1.8285995 -2.6902354 0.3801097 315 14650010 338 20 73 3275
2.0434201 -2.7825298 0.36979243 260 14650010 314 21 76 3472
2.2667172 -2.8630018 0.35605597 283 14650010 381 22 78 3669
2.4958684 -2.9262531 0.33912638 291 14650010 434 23 124 3861
1.8800259 -2.7670362 0.26786312 309 14650010 348 24 80 3356
2.1230688 -2.8925748 0.25298068 212 14650010 275 25 72 3597
2.3406816 -2.9566355 0.22978579 287 14650010 410 26 94 3778
2.6131847 -3.0674839 0.20744815 308 14650010 502 27 98 4035
1.949113 -2.8717372 0.15086743 406 14650010 491 28 69 3474
2.1733925 -2.9633064 0.12454133 276 14650010 373 29 37 3677
2.4425418 -3.0912826 0.097181134 265 14650010 411 30 46 3941
2.7234659 -3.199312 0.062775627 324 14650010 573 31 73 4202
2.0080316 -2.9588788 0.024964988 328 14650010 420 32 74 3576
2.2403429 -3.0569384 -0.0095914472 288 14650010 414 33 68 3790
2.5183516 -3.1880281 -0.048503157 257 14650010 425 34 98 4063
2.8233926 -3.3210406 -0.093515255 299 14650010 569 35 79 4360
2.1005406 -3.0984507 -0.11116542 264 14650010 370 36 114 3745
2.3260903 -3.1788251 -0.15407471 214 14650010 333 37 68 3942
2.6324103 -3.3352885 -0.20684287 303 14650010 548 38 126 4254
2.9544818 -3.4751124 -0.26531875 283 14650010 590 39 48 4569
1.0575583 -1.5626165 -0.12522516 23 14650010 8 40 79 1891
2.4280558 -3.3213322 -0.31173193 321 14650010 547 41 100 4126
2.7324159 -3.4639852 -0.3766861 334 14650010 655 42 124 4428
1.1206497 -1.3195736 -0.16428891 187 14650010 57 43 65 1739
2.2328546 -3.3016813 -0.41147229 246 14650010 395 44 86 4007
2.5133317 -3.4408793 -0.4800612 287 14650010 529 45 58 4288
2.8505409 -3.6176307 -0.56282115 134 14650010 289 46 96 4640
3.28159 -3.8660116 -0.66958869 60 14650010 157 47 97 5115
2.3315504 -3.4538529 -0.58484042 357 14650010 633 48 80 4208
2.6384854 -3.6155322 -0.67156345 282 14650010 579 49 67 4526
1.125607 -1.430051 -0.29088184 180 14650010 61 50 46 1843
3.2623374 -3.8455067 -0.85583878 97 14650010 255 51 70 5115
2.4374862 -3.6177213 -0.77750683 326 14650010 640 52 117 4431
2.7609856 -3.7874191 -0.88078177 300 14650010 683 53 84 4769
3.2247765 -4.0996346 -1.0316517 18 14650010 52 54 65 5317
3.4999037 -4.1253939 -1.1262686 152 14650010 463 55 43 5526
2.5360103 -3.7684913 -0.98540908 331 14650010 715 56 110 4648
1.1062589 -1.5191958 -0.42610401 43 14650010 16 57 54 1927
3.1558018 -4.0135326 -1.2097445 353 14650010 971 58 36 5247
3.2821493 -3.8694077 -1.255672 418 14650010 1143 59 81 5227
2.6689754 -3.9761064 -1.2289379 207 14650010 507 60 62 4944
3.0491161 -4.1946502 -1.3829283 383 14650010 1102 61 47 5367
3.1525109 -4.010932 -1.4144038 355 14650010 994 62 55 5294
3.2415953 -3.8183539 -1.4448546 316 14650010 858 63 50 5213
1.5439427 -2.3057861 0.86616409 301 14747170 255 0 60 2907
1.6963151 -2.3358006 0.86645734 307 14747170 279 1 82 3014
1.8876168 -2.4039032 0.88502949 260 14747170 263 2 39 3182
2.0649719 -2.4350982 0.89185929 15 14747170 16 3 47 3315
1.5819684 -2.3599908 0.76750779 316 14747170 274 4 64 2943
1.7354383 -2.3918672 0.76683456 335 14747170 312 5 26 3053
1.9538703 -2.4902461 0.7884863 202 14747170 215 6 75 3262
2.1167088 -2.5012369 0.78327525 361 14747170 410 7 60 3369
1.639614 -2.4449718 0.67839551 286 14747170 261 8 91 3021
1.8311692 -2.5217707 0.68554682 225 14747170 230 9 69 3191
2.0024688 -2.5550313 0.68148661 317 14747170 349 10 59 3317
2.2184958 -2.6261592 0.6881873 341 14747170 419 11 28 3506
1.6845667 -2.511152 0.58016676 337 14747170 320 12 93 3079
1.8611465 -2.5651243 0.57542413 320 14747170 332 13 56 3221
2.0926909 -2.6712053 0.58271503 289 14747170 343 14 85 3443
2.2778401 -2.6977451 0.57318914 308 14747170 393 15 51 3577
1.7398363 -2.5936391 0.48125502 325 14747170 324 16 39 3160
1.9419131 -2.6777189 0.47724324 311 14747170 348 17 97 3342
2.1413605 -2.7363777 0.46781507 304 14747170 373 18 57 3506
2.4071562 -2.8544352 0.46687201 168 14747170 238 19 87 3763
1.8054186 -2.6915066 0.37871695 301 14747170 321 20 79 3263
1.9842881 -2.7370546 0.36212391 272 14747170 315 21 88 3400
2.2270393 -2.8486288 0.35256237 287 14747170 378 22 50 3633
2.4855676 -2.9506545 0.34018037 308 14747170 462 23 111 3873
1.8430276 -2.7487144 0.26498973 313 14747170 346 24 66 3320
2.0912335 -2.8861609 0.25129274 294 14747170 376 25 62 3573
2.2929883 -2.9331958 0.22686633 325 14747170 452 26 132 3730
2.5711675 -3.0559499 0.2055973 331 14747170 530 27 75 3999
1.9247839 -2.873682 0.15034629 384 14747170 461 28 77 3462
2.1411021 -2.9571579 0.12372843 281 14747170 375 29 39 3653
2.423528 -3.1062117 0.097181134 237 14747170 368 30 41 3941
2.649734 -3.151674 0.061520707 307 14747170 521 31 87 4118
1.9764838 -2.9512036 0.024797438 322 14747170 407 32 62 3552
2.2145097 -3.060905 -0.0095610786 308 14747170 440 33 71 3778
2.4692228 -3.1655755 -0.047930144 287 14747170 463 34 67 4015
2.7798183 -3.3107383 -0.092743114 311 14747170 582 35 64 4324
2.054811 -3.0714035 -0.10974061 338 14747170 462 36 115 3697
2.4329274 -3.3679988 -0.16251716 17 14747170 30 37 66 4158
2.5971601 -3.3324702 -0.20567591 292 14747170 522 38 135 4230
2.9099927 -3.4656518 -0.26322827 274 14747170 564 39 84 4533
2.1518726 -3.2219582 -0.2571387 38 14747170 58 40 80 3883
2.3796213 -3.2973561 -0.30810535 365 14747170 607 41 100 4078
2.6743741 -3.4335222 -0.37158194 340 14747170 648 42 159 4368
3.0241163 -3.6055267 -0.44657484 187 14747170 418 43 102 4727
2.2721884 -3.4046772 -0.42256266 31 14747170 53 44 90 4115
2.4642742 -3.417547 -0.4746874 287 14747170 517 45 58 4240
2.7917173 -3.5880482 -0.5555433 288 14747170 605 46 89 4580
3.0132325 -3.5943339 -0.61932045 74 14747170 166 47 102 4731
2.290549 -3.4384241 -0.57983702 396 14747170 690 48 90 4172
2.5954418 -3.6027675 -0.66622186 291 14747170 587 49 72 4490
1.0877243 -1.3995066 -0.28330597 172 14747170 56 50 84 1795
3.2842691 -3.9198627 -0.86788583 129 14747170 348 51 70 5187
2.3956194 -3.6030958 -0.77118987 352 14747170 680 52 93 4395
2.7239172 -3.7851441 -0.87634927 263 14747170 592 53 119 4745
3.1345706 -4.0356712 -1.0106965 27 14747170 75 54 60 5209
3.2406263 -3.8676367 -1.0504503 376 14747170 997 55 56 5154
2.480402 -3.7351346 -0.97268867 339 14747170 714 56 110 4588
1.0081156 -1.4024216 -0.3916088 196 14747170 61 57 37 1771
3.0953112 -3.9867051 -1.1959109 258 14747170 693 58 56 5187
3.2583454 -3.8894737 -1.255672 438 14747170 1197 59 80 5227
2.6124344 -3.9439564 -1.2140235 287 14747170 684 60 53 4884
3.0030415 -4.185019 -1.3736521 86 14747170 244 61 34 5331
3.1349308 -4.0393353 -1.4176099 353 14747170 995 62 61 5306
3.2255132 -3.8470075 -1.4481806 305 14747170 832 63 43 5225
1.4981915 -2.2674305 0.84828663 318 14846040 258 0 69 2847
1.6685578 -2.3274829 0.85955793 328 14846040 294 1 76 2990
1.8657682 -2.4063311 0.88169181 263 14846040 264 2 48 3170
2.0425708 -2.4388623 0.88863087 208 14846040 227 3 21 3303
1.5291104 -2.3116801 0.74873084 271 14846040 224 4 72 2871
1.7274928 -2.4119136 0.76984864 307 14846040 288 5 36 3065
1.9100281 -2.4653685 0.77688384 122 14846040 126 6 100 3214
2.1162908 -2.532088 0.78885514 352 14846040 406 7 65 3393
1.5987685 -2.4159794 0.66761661 296 14846040 262 8 77 2973
1.8020055 -2.5139081 0.68039072 282 14846040 283 9 93 3167
1.9723788 -2.5486946 0.67655575 285 14846040 309 10 49 3293
2.1948023 -2.6306872 0.68583184 341 14846040 416 11 32 3494
1.6561164 -2.5017869 0.57564449 342 14846040 320 12 81 3055
1.8522471 -2.5860946 0.57756793 336 14846040 351 13 46 3233
2.0256062 -2.6185133 0.56849831 300 14846040 339 14 80 3359
2.2309005 -2.675283 0.56549752 341 14846040 424 15 55 3529
1.7107965 -2.5844865 0.47759992 315 14846040 309 16 57 3136
1.8839645 -2.6316395 0.46696153 329 14846040 352 17 69 3270
2.102715 -2.7212334 0.46301147 305 14846040 367 18 52 3470
2.3819759 -2.860002 0.46538317 224 14846040 316 19 79 3751
1.7822911 -2.6925948 0.37732416 326 14846040 345 20 95 3251
1.9744005 -2.7588816 0.36340201 297 14846040 346 21 98 3412
2.187624 -2.8338776 0.34906876 284 14846040 368 22 75 3597
2.4444809 -2.938282 0.33701834 323 14846040 476 23 115 3837
1.8129262 -2.7400198 0.26307416 334 14846040 362 24 50 3296
2.0386658 -2.8502574 0.24707289 320 14846040 395 25 83 3513
2.2676284 -2.9377284 0.22613646 281 14846040 389 26 90 3718
2.5217321 -3.0347996 0.20312953 305 14846040 476 27 97 3951
1.8542315 -2.8054259 0.14617725 389 14846040 440 28 53 3366
2.1159434 -2.9604826 0.123322 260 14846040 344 29 33 3641
2.3678167 -3.0735075 0.095701598 260 14846040 391 30 42 3881
2.6150162 -3.1494107 0.061162166 320 14846040 537 31 74 4094
1.9517224 -2.9532645 0.024713663 324 14846040 406 32 103 3540
2.1608162 -3.025609 -0.0094092349 296 14846040 410 33 67 3718
2.442431 -3.1711605 -0.047786891 248 14846040 398 34 89 4003
2.7288194 -3.2907917 -0.091713578 309 14846040 566 35 68 4276
2.0161014 -3.0539234 -0.10867199 351 14846040 470 36 136 3661
2.2242513 -3.1192639 -0.1498535 21 14846040 31 37 71 3834
2.5547345 -3.3198469 -0.20392549 309 14846040 543 38 150 4194
2.8351438 -3.4188914 -0.25835046 301 14846040 596 39 85 4449
2.1188848 -3.2151055 -0.25554937 192 14846040 286 40 84 3859
2.3246312 -3.2631671 -0.30357218 319 14846040 515 41 92 4018
2.6313887 -3.4214344 -0.36851948 311 14846040 584 42 117 4332
2.948591 -3.5596147 -0.43863907 302 14846040 651 43 92 4643
2.2315598 -3.3886478 -0.41886586 14 14846040 24 44 89 4079
2.4363432 -3.422888 -0.47334391 276 14846040 493 45 57 4228
2.7333651 -3.5578814 -0.5482654 288 14846040 588 46 133 4520
2.9228394 -3.5302825 -0.60518247 69 14846040 147 47 122 4623
2.2367704 -3.4027624 -0.57149804 368 14846040 623 48 84 4112
2.5457773 -3.5799403 -0.65909964 323 14846040 638 49 67 4442
2.8754401 -3.7468724 -0.75490385 242 14846040 555 50 62 4783
3.2299862 -3.903481 -0.85985452 86 14846040 226 51 55 5139
2.3345835 -3.558461 -0.75855613 374 14846040 700 52 75 4323
2.6528316 -3.734484 -0.86083537 272 14846040 591 53 102 4661
3.0381098 -3.9614172 -0.98741311 20 14846040 53 54 60 5089
3.2992208 -3.9870102 -1.0773536 107 14846040 298 55 52 5286
2.4445817 -3.7306657 -0.96760046 333 14846040 694 56 104 4564
1.0265812 -1.4467583 -0.40222275 143 14846040 47 57 49 1819
3.1418328 -4.0982914 -1.223578 262 14846040 736 58 57 5307
3.2344186 -3.9093933 -1.255672 415 14846040 1135 59 68 5227
2.5563896 -3.9112644 -1.1991092 293 14846040 681 60 46 4824
2.9706042 -4.1939049 -1.3705599 34 14846040 95 61 31 5319
3.1241546 -4.0768523 -1.4240221 340 14846040 965 62 56 5330
3.2239082 -3.8933678 -1.4581584 312 14846040 863 63 41 5261
1.4654825 -2.2477937 0.83756012 322 14942800 255 0 66 2811
1.6409669 -2.318913 0.85265839 332 14942800 292 1 87 2966
1.8369545 -2.3994293 0.87501657 268 14942800 265 2 42 3146
2.0275679 -2.4513495 0.88863087 342 14942800 373 3 31 3303
1.5402249 -2.3598239 0.76124883 312 14942800 266 4 66 2919
1.6992505 -2.4034991 0.76382047 349 14942800 322 5 31 3041
1.8948649 -2.4770417 0.77688384 156 14942800 162 6 69 3214
2.0784256 -2.5180228 0.78048533 327 14942800 369 7 69 3357
1.5967007 -2.4453261 0.67300606 295 14942800 265 8 94 2997
1.7526999 -2.4770823 0.66750044 296 14942800 286 9 64 3107
1.9495727 -2.5514174 0.67409027 298 14942800 321 10 38 3281
2.1561723 -2.6168613 0.67876542 357 14942800 426 11 40 3458
1.6020658 -2.4527011 0.56207776 320 14942800 285 12 86 2983
1.8090804 -2.5588477 0.56899285 323 14942800 327 13 50 3185
1.9951433 -2.6120951 0.56443644 287 14942800 319 14 91 3335
2.2295032 -2.7072079 0.56934333 344 14942800 435 15 67 3553
1.6689637 -2.5552166 0.47028971 315 14942800 301 16 58 3088
1.8609273 -2.63345 0.4652479 307 14942800 326 17 66 3258
2.0715508 -2.715174 0.45980909 335 14942800 397 18 55 3446
2.3265624 -2.828583 0.45793903 211 14942800 288 19 75 3691
1.7592183 -2.693501 0.37593138 273 14942800 287 20 89 3239
1.9367822 -2.741708 0.35956776 342 14942800 390 21 96 3376
2.1629546 -2.8377485 0.34790426 280 14942800 361 22 63 3585
2.3808753 -2.8978095 0.33069432 300 14942800 425 23 128 3765
1.8026187 -2.7611079 0.26403195 308 14942800 337 24 82 3308
1.9935226 -2.8235979 0.24369699 306 14942800 368 25 81 3465
2.2205179 -2.9134815 0.223217 322 14942800 433 26 126 3670
2.4802566 -3.022423 0.20127869 344 14942800 528 27 77 3915
1.8435318 -2.8267925 0.14669839 398 14942800 455 28 64 3378
2.0977385 -2.9734101 0.123322 262 14942800 347 29 43 3641
2.3125994 -3.0402381 0.094222054 301 14942800 439 30 35 3821
2.5880344 -3.1561186 0.06098289 326 14942800 544 31 74 4082
1.9204558 -2.9450815 0.024546113 328 14942800 406 32 72 3516
2.1629529 -3.0682342 -0.0095003415 302 14942800 426 33 67 3754
2.4156637 -3.1765361 -0.047643635 266 14942800 424 34 86 3991
2.6933737 -3.2889099 -0.091198824 298 14942800 539 35 81 4252
1.9776844 -3.0360851 -0.10760338 346 14942800 455 36 126 3625
1.1905308 -1.6914465 -0.080906816 24 14942800 10 37 67 2070
2.4690547 -3.2495682 -0.19867417 334 14942800 557 38 132 4086
2.7913415 -3.4084179 -0.25625995 327 14942800 637 39 95 4413
2.0468979 -3.1477425 -0.2491921 298 14942800 422 40 91 3763
2.3183305 -3.2969456 -0.30538547 218 14942800 356 41 103 4042
2.5814221 -3.3994272 -0.36443618 305 14942800 559 42 126 4284
2.9342582 -3.5868866 -0.43977275 296 14942800 642 43 77 4655
1.1246029 -1.7307487 -0.21307838 11 14942800 5 44 100 2075
2.3878744 -3.3987441 -0.46797013 284 14942800 497 45 63 4180
2.689887 -3.5461161 -0.5438987 310 14942800 624 46 107 4484
1.1239264 -1.3745916 -0.23445421 161 14942800 52 47 108 1791
2.1835167 -3.3665726 -0.56315905 397 14942800 653 48 64 4052
2.5033092 -3.5663538 -0.65375799 313 14942800 607 49 49 4406
2.838083 -3.7455564 -0.75111598 296 14942800 671 50 68 4759
3.2209466 -3.9415483 -0.86387008 49 14942800 132 51 59 5163
2.2998657 -3.5528839 -0.75434482 354 14942800 655 52 98 4299
2.6027844 -3.7120657 -0.85197037 312 14942800 664 53 86 4613
1.1020988 -1.4554433 -0.3610878 43 14942800 15 54 59 1861
3.2300906 -3.9525974 -1.0626791 233 14942800 635 55 67 5214
2.3961763 -3.7062025 -0.95742416 324 14942800 661 56 94 4516
2.7296777 -3.8973794 -1.0788591 233 14942800 555 57 87 4879
3.0602496 -4.0430098 -1.2014444 325 14942800 881 58 50 5211
3.2251108 -3.9472067 -1.2614375 385 14942800 1062 59 75 5251
2.5134442 -3.8975711 -1.1901606 302 14942800 692 60 35 4788
2.8451598 -4.0695138 -1.3241789 26 14942800 68 61 25 5139
3.0990806 -4.0959449 -1.4240221 343 14942800 976 62 59 5330
3.1999583 -3.9130759 -1.4581584 319 14942800 882 63 41 5261
1.4640567 -2.276011 0.84471107 293 15041350 236 0 63 2835
1.6201261 -2.3195157 0.84920871 305 15041350 266 1 93 2954
1.8291479 -2.4198506 0.87835425 266 15041350 265 2 46 3158
1.9978654 -2.4458423 0.88217396 374 15041350 402 3 40 3279
1.5068997 -2.3400104 0.75186038 333 15041350 277 4 86 2883
1.6711768 -2.3948298 0.75779229 311 15041350 283 5 45 3017
1.8585767 -2.4607468 0.76818198 237 15041350 240 6 79 3178
2.0555623 -2.521682 0.77769542 357 15041350 400 7 67 3345
1.5690002 -2.4354169 0.66761661 293 15041350 259 8 84 2973
1.7240467 -2.4685731 0.6623444 312 15041350 297 9 76 3083
1.9197348 -2.5445814 0.66915941 258 15041350 274 10 58 3257
2.1177955 -2.6026618 0.67169905 334 15041350 391 11 39 3422
1.5933703 -2.4723911 0.56433886 338 15041350 303 12 86 2995
1.7730753 -2.5408523 0.56256151 323 15041350 321 13 61 3149
1.9648359 -2.6054025 0.5603745 282 15041350 309 14 92 3311
2.1904287 -2.6932685 0.56357461 344 15041350 425 15 56 3517
1.6532538 -2.5654092 0.47028971 334 15041350 318 16 48 3088
1.8311446 -2.6253359 0.46182066 329 15041350 344 17 84 3234
2.0476964 -2.7183347 0.45820791 298 15041350 352 18 81 3434
2.294148 -2.8243203 0.45496136 281 15041350 378 19 76 3667
1.6974643 -2.6341131 0.366182 277 15041350 276 20 91 3155
1.8994498 -2.7241778 0.35573351 306 15041350 342 21 85 3340
2.13832 -2.8414237 0.34673971 269 15041350 343 22 57 3573
2.3479867 -2.8937988 0.32858631 325 15041350 455 23 134 3741
1.7597328 -2.7318926 0.26020077 312 15041350 332 24 65 3260
1.9556283 -2.8063142 0.24116507 319 15041350 375 25 79 3429
2.1881955 -2.9079101 0.22175726 275 15041350 365 26 119 3646
2.4390285 -3.0096529 0.19942784 296 15041350 446 27 94 3879
1.8196651 -2.8279691 0.14617725 377 15041350 428 28 67 3366
2.0383337 -2.9271736 0.12088333 273 15041350 347 29 42 3569
2.2866974 -3.0447786 0.093926147 243 15041350 352 30 45 3809
2.5233138 -3.1159911 0.05990725 337 15041350 543 31 68 4010
1.8893636 -2.9366264 0.024378562 291 15041350 355 32 79 3492
2.1029632 -3.0223475 -0.0093181292 325 15041350 441 33 97 3682
2.3745136 -3.1625121 -0.047213875 247 15041350 387 34 69 3955
2.6429658 -3.2680602 -0.090169288 292 15041350 517 35 66 4204
1.952533 -3.0380721 -0.10724717 328 15041350 428 36 103 3613
1.0569859 -1.5214618 -0.072464369 21 15041350 7 37 65 1854
2.4634545 -3.2838326 -0.19984114 314 15041350 530 38 129 4110
2.710109 -3.3509638 -0.2506853 291 15041350 543 39 81 4317
2.008148 -3.1300094 -0.24680813 352 15041350 489 40 85 3727
2.2844119 -3.2914481 -0.30357218 26 15041350 42 41 90 4018
2.5461705 -3.3960695 -0.36239451 301 15041350 546 42 116 4260
2.8521361 -3.5304809 -0.43070331 323 15041350 672 43 73 4559
2.0996172 -3.2750933 -0.40161425 49 15041350 75 44 79 3911
2.3329995 -3.3643367 -0.46125284 303 15041350 515 45 66 4120
2.6395168 -3.5244181 -0.53807646 290 15041350 571 46 113 4436
1.1304185 -1.3999741 -0.23759598 139 15041350 46 47 126 1815
2.1628189 -3.3799069 -0.56315905 362 15041350 595 48 93 4052
2.4611051 -3.5523825 -0.64841634 310 15041350 591 49 39 4370
2.7582612 -3.6869936 -0.73596418 312 15041350 679 50 67 4663
3.0629632 -3.7955143 -0.82772911 28 15041350 67 51 51 4947
2.2589462 -3.5370591 -0.74802786 350 15041350 637 52 78 4263
2.553113 -3.6891751 -0.8431052 309 15041350 645 53 83 4565
1.0720013 -1.4338931 -0.35410273 179 15041350 60 54 73 1825
3.1393745 -3.8900616 -1.0406673 141 15041350 369 55 62 5106
2.3544705 -3.6911738 -0.94979185 366 15041350 735 56 104 4480
2.6790936 -3.8755484 -1.0682452 270 15041350 631 57 66 4831
2.9864547 -3.9962373 -1.1820774 439 15041350 1155 58 68 5127
3.1788859 -3.9397244 -1.2527893 407 15041350 1108 59 58 5215
2.4458067 -3.8442721 -1.1692805 313 15041350 692 60 37 4704
1.0552874 -1.529305 -0.4955042 47 15041350 17 61 40 1923
3.0808105 -4.1241479 -1.4272281 365 15041350 1040 62 54 5342
3.1831319 -3.941607 -1.4614844 308 15041350 855 63 54 5273
1.4255126 -2.2462647 0.83040911 236 15140050 183 0 49 2787
1.6058633 -2.3294129 0.84920871 340 15140050 297 1 80 2954
1.7866895 -2.394078 0.86500371 267 15140050 258 2 36 3110
1.9537947 -2.4220724 0.86926019 333 15140050 347 3 48 3231
1.4925133 -2.3492126 0.75186038 317 15140050 264 4 79 2883
1.6432739 -2.3859067 0.75176406 309 15140050 276 5 39 2993
1.8155997 -2.4347661 0.75657946 294 15140050 288 6 92 3130
2.0107763 -2.4978814 0.76653564 356 15140050 388 7 59 3297
1.5226645 -2.3956542 0.65414304 298 15140050 253 8 75 2913
1.6889131 -2.4501567 0.65461022 313 15140050 291 9 70 3047
1.9040854 -2.5563128 0.66915941 149 15140050 158 10 57 3257
2.0944154 -2.6064351 0.66934359 317 15140050 368 11 42 3410
1.5655236 -2.4622314 0.55981666 315 15140050 278 12 98 2971
1.73736 -2.5225124 0.55613023 283 15140050 274 13 48 3113
1.9417496 -2.6079233 0.55834359 299 15140050 326 14 81 3299
2.1590276 -2.6881878 0.5597288 342 15140050 417 15 56 3493
1.624755 -2.5554881 0.4666346 333 15140050 312 16 38 3064
1.7947973 -2.607173 0.45667979 314 15140050 322 17 73 3198
2.0096867 -2.7022192 0.45340434 299 15140050 346 18 73 3398
2.239522 -2.7919023 0.44751722 322 15140050 420 19 67 3607
1.6940591 -2.6645954 0.36896753 314 15140050 318 20 71 3179
1.8759346 -2.7259521 0.35445541 290 15140050 322 21 67 3328
2.0709848 -2.7873826 0.33858797 299 15140050 365 22 68 3489
2.3227117 -2.898823 0.32753229 334 15140050 465 23 117 3729
1.7236899 -2.712352 0.25732738 328 15140050 341 24 75 3224
1.9315888 -2.8083982 0.24032108 318 15140050 372 25 78 3417
2.1488824 -2.8924377 0.21956767 305 15140050 398 26 97 3610
2.3980515 -2.9964917 0.197577 301 15140050 445 27 75 3843
1.7637272 -2.778352 0.14305046 396 15140050 430 28 69 3294
1.9931626 -2.90009 0.11925755 309 15140050 383 29 50 3521
2.2322462 -3.01057 0.092446603 250 15140050 351 30 36 3749
2.4966531 -3.1220443 0.059727974 321 15140050 514 31 75 3998
1.8391563 -2.8975084 0.023959687 334 15140050 394 32 91 3432
2.0504129 -2.9857342 -0.0091662854 333 15140050 437 33 66 3622
2.3121905 -3.1191852 -0.046354357 242 15140050 366 34 70 3883
2.5929167 -3.2467175 -0.089139767 315 15140050 545 35 68 4156
1.9017401 -2.9993453 -0.10546616 323 15140050 407 36 156 3553
2.1800206 -3.1794558 -0.15079156 123 15140050 182 37 55 3858
2.4075909 -3.2507274 -0.19692375 281 15140050 461 38 128 4050
2.6969726 -3.3768902 -0.25138211 299 15140050 561 39 69 4329
1.9760971 -3.1220374 -0.2452188 380 15140050 521 40 93 3703
1.12138 -1.6370713 -0.15035059 20 15140050 8 41 101 1990
2.4968307 -3.3731878 -0.35831121 297 15140050 527 42 129 4212
2.7931693 -3.5012217 -0.42503494 347 15140050 703 43 70 4499
2.0667214 -3.2677381 -0.39914972 261 15140050 395 44 82 3887
2.3257821 -3.3982694 -0.46393973 337 15140050 579 45 68 4144
2.6036785 -3.5213921 -0.53516531 307 15140050 598 46 107 4412
2.9537833 -3.7044065 -0.62560397 251 15140050 573 47 151 4779
2.1356957 -3.3830655 -0.56149125 316 15140050 516 48 80 4040
2.4124687 -3.5282319 -0.64129412 324 15140050 606 49 70 4322
2.7074268 -3.6657219 -0.72838837 292 15140050 623 50 81 4615
3.135469 -3.9345162 -0.85383093 34 15140050 90 51 63 5103
2.2120104 -3.5108716 -0.73960531 355 15140050 631 52 90 4215
2.5171254 -3.6852942 -0.83867276 322 15140050 665 53 84 4541
1.0422106 -1.4120296 -0.34711769 162 15140050 52 54 90 1789
3.2106302 -4.0286875 -1.0724621 521 15140050 1444 55 58 5262
2.3005483 -3.6559234 -0.93707144 317 15140050 620 56 97 4420
2.642072 -3.8725791 -1.0629382 302 15140050 699 57 69 4807
3.0935941 -4.1930122 -1.2346449 205 15140050 587 58 52 5355
3.1038392 -3.8953838 -1.2326101 555 15140050 1462 59 69 5131
2.4098148 -3.8395174 -1.1633149 304 15140050 665 60 40 4680
1.0197775 -1.4974174 -0.48313594 177 15140050 62 61 13 1875
3.0691743 -4.1615868 -1.4336401 345 15140050 992 62 57 5366
3.1732645 -3.9790931 -1.4681364 348 15140050 978 63 58 5297
1.4117029 -2.2549691 0.83040911 193 15238810 150 0 70 2787
1.5786093 -2.3202171 0.84230918 337 15238810 290 1 79 2930
1.7514546 -2.3771567 0.85499078 282 15238810 266 2 40 3074
1.9244943 -2.4159353 0.86280328 310 15238810 319 3 38 3207
1.4534618 -2.3190618 0.73934239 289 15238810 233 4 66 2835
1.6155441 -2.3767323 0.74573594 327 15238810 288 5 43 2969
1.7937226 -2.4364834 0.7536788 286 15238810 278 6 81 3118
1.9954119 -2.5101724 0.76653564 347 15238810 378 7 65 3297
1.5265721 -2.4346733 0.66222715 309 15238810 269 8 83 2949
1.6804396 -2.4701638 0.6571883 310 15238810 290 9 55 3059
1.9092367 -2.5963316 0.67655575 135 15238810 147 10 58 3293
2.0418134 -2.5731509 0.65756625 321 15238810 360 11 50 3350
1.5503862 -2.4717908 0.55981666 347 15238810 306 12 98 2971
1.7218494 -2.5331252 0.55613023 328 15238810 318 13 44 3113
1.925711 -2.6197886 0.55834359 298 15238810 325 14 76 3299
2.1351321 -2.6921043 0.55780584 329 15238810 399 15 61 3481
1.6027426 -2.555362 0.46480706 300 15238810 279 16 46 3052
1.7654171 -2.5984883 0.45325258 331 15238810 334 17 72 3174
1.9649143 -2.6761546 0.44699955 319 15238810 358 18 72 3350
2.2223492 -2.8055913 0.44751722 308 15238810 401 19 67 3607
1.6270148 -2.5941615 0.3578254 315 15238810 300 20 65 3083
1.8256545 -2.6880591 0.34806499 291 15238810 311 21 75 3268
2.0750346 -2.8289287 0.34208158 304 15238810 378 22 60 3525
2.2677956 -2.8661494 0.32226226 304 15238810 409 23 113 3669
1.719722 -2.7431467 0.25924298 310 15238810 327 24 70 3248
1.8874292 -2.780581 0.23694521 308 15238810 350 25 80 3369
2.1169264 -2.8862517 0.21810795 302 15238810 389 26 88 3586
2.3721898 -3.0017469 0.19696006 290 15238810 426 27 89 3831
1.7530094 -2.7992826 0.1435716 397 15238810 434 28 75 3306
1.9618663 -2.8924146 0.11844466 284 15238810 347 29 35 3497
2.1924741 -2.9951699 0.091558881 277 15238810 381 30 39 3713
2.4551413 -3.109055 0.059190154 303 15238810 476 31 71 3962
1.8277112 -2.9189093 0.024043461 307 15238810 364 32 97 3444
2.0387866 -3.0081923 -0.009196654 331 15238810 438 33 68 3634
2.2717493 -3.1042643 -0.045924596 159 15238810 235 34 116 3847
2.5283718 -3.2060444 -0.087595478 305 15238810 509 35 76 4084
1.8705792 -2.9906192 -0.10475375 367 15238810 457 36 145 3529
2.120151 -3.1331871 -0.1479774 289 15238810 415 37 61 3786
2.3593023 -3.2267375 -0.19458985 290 15238810 464 38 155 4002
2.6391094 -3.3463428 -0.24789795 297 15238810 542 39 73 4269
1.950562 -3.1239474 -0.24442415 376 15238810 513 40 82 3691
2.1634321 -3.2002764 -0.29269254 23 15238810 35 41 103 3874
2.4478686 -3.3498297 -0.35422784 325 15238810 563 42 135 4164
2.7568483 -3.499526 -0.42276761 297 15238810 595 43 76 4475
2.0276768 -3.2499762 -0.39545292 339 15238810 503 44 98 3851
2.2781894 -3.3729494 -0.45856592 319 15238810 536 45 65 4096
2.5609546 -3.5084391 -0.53079861 300 15238810 575 46 100 4376
2.8721201 -3.6476843 -0.61303687 287 15238810 629 47 122 4683
2.0897701 -3.3557563 -0.55482006 377 15238810 601 48 86 3992
2.3575847 -3.493783 -0.63239139 326 15238810 593 49 58 4262
2.6569583 -3.6439667 -0.7208125 307 15238810 641 50 79 4567
1.1431762 -1.4527048 -0.31372389 38 15238810 13 51 52 1875
2.1592462 -3.4742091 -0.72907716 374 15238810 646 52 86 4155
2.4483223 -3.6322141 -0.82315886 304 15238810 605 53 72 4457
2.8082583 -3.8540146 -0.94317448 218 15238810 516 54 75 4861
3.1931157 -4.0575442 -1.0749078 269 15238810 749 55 64 5274
2.2595184 -3.6400795 -0.92943925 343 15238810 659 56 108 4384
2.5790439 -3.8304718 -1.0470173 308 15238810 690 57 43 4735
3.0128109 -4.1364079 -1.2125112 34 15238810 93 58 57 5259
3.1663151 -4.0242105 -1.267203 358 15238810 997 59 64 5275
2.3739736 -3.834466 -1.1573492 312 15238810 676 60 48 4656
1.0105704 -1.5036465 -0.48313594 137 15238810 48 61 42 1875
3.0571945 -4.1990376 -1.4400523 348 15238810 1012 62 77 5390
3.1630561 -4.0166054 -1.4747882 327 15238810 925 63 50 5321
1.3978401 -2.2635887 0.83040911 169 15334900 132 0 59 2787
1.5323088 -2.2821493 0.82506055 337 15334900 278 1 73 2870
1.7300556 -2.3785372 0.8516531 283 15334900 265 2 43 3062
1.8881977 -2.4004462 0.85311794 321 15334900 322 3 55 3171
1.4331131 -2.3180826 0.73621291 259 15334900 207 4 72 2823
1.5944598 -2.3769546 0.74272186 299 15334900 261 5 49 2957
1.758202 -2.4191859 0.744977 300 15334900 285 6 80 3082
1.9727657 -2.5131879 0.76374567 256 15334900 277 7 68 3285
1.4870005 -2.4042141 0.65144825 296 15334900 249 8 70 2901
1.6325885 -2.4317763 0.64429796 326 15334900 294 9 64 2999
1.8242773 -2.5129597 0.65190136 189 15334900 191 10 61 3173
2.011472 -2.567107 0.65285534 372 15334900 411 11 37 3326
1.5351903 -2.4812574 0.55981666 330 15334900 291 12 118 2971
1.6996967 -2.5338373 0.55398643 308 15334900 297 13 70 3101
1.8957077 -2.6124108 0.55428165 319 15334900 342 14 83 3275
2.103967 -2.6865036 0.55396003 328 15334900 392 15 64 3457
1.5558331 -2.5147192 0.45566931 330 15334900 295 16 49 2992
1.7560539 -2.6191368 0.45496616 334 15334900 339 17 81 3186
1.9414772 -2.6785314 0.44539833 319 15334900 356 18 61 3338
2.1684122 -2.7722795 0.44007307 313 15334900 394 19 69 3547
1.6236082 -2.6243677 0.36061093 302 15334900 292 20 76 3107
1.8224126 -2.7190332 0.35062116 298 15334900 323 21 87 3292
2.022614 -2.7932398 0.33625892 278 15334900 334 22 72 3465
2.2501664 -2.8800104 0.32226226 291 15334900 392 23 105 3669
1.66511 -2.6926057 0.2534962 330 15334900 333 24 61 3176
1.8636703 -2.7821643 0.23610124 325 15334900 367 25 83 3357
2.064054 -2.8506782 0.21445863 297 15334900 369 26 111 3526
2.3242362 -2.9784544 0.19449228 312 15334900 447 27 96 3783
1.7231992 -2.7895868 0.14252932 386 15334900 415 28 50 3282
1.9374106 -2.8944314 0.11803821 307 15334900 373 29 30 3485
2.1740549 -3.0085664 0.091558881 263 15334900 362 30 44 3713
2.4286404 -3.114599 0.059010882 332 15334900 519 31 76 3950
1.7719319 -2.868813 0.023540812 299 15334900 340 32 86 3372
1.9936051 -2.9807472 -0.0090751797 333 15334900 429 33 67 3586
2.2526591 -3.118145 -0.045924596 203 15334900 301 34 68 3847
2.501281 -3.2120321 -0.087338097 322 15334900 534 35 71 4072
1.8458958 -2.9918323 -0.10439754 354 15334900 438 36 106 3517
2.0675914 -3.0962772 -0.14563227 311 15334900 433 37 59 3726
2.2833397 -3.1634042 -0.18992202 52 15334900 80 38 98 3906
2.5964453 -3.3341179 -0.24580747 310 15334900 555 39 52 4233
1.8874031 -3.0644908 -0.23886152 412 15334900 536 40 105 3607
1.1410487 -1.7104331 -0.15579039 14 15334900 6 41 95 2062
2.3992884 -3.3259993 -0.35014454 350 15334900 593 42 115 4116
2.7059839 -3.478658 -0.41823286 303 15334900 595 43 67 4427
1.9701605 -3.2013624 -0.38805938 368 15334900 526 44 90 3779
2.2376096 -3.3570974 -0.45453557 261 15334900 431 45 67 4060
2.5115244 -3.485431 -0.52497625 306 15334900 574 46 102 4328
2.8277779 -3.6370628 -0.60832429 291 15334900 628 47 150 4647
2.0567005 -3.3482642 -0.55148447 380 15334900 599 48 82 3968
2.3426805 -3.5180609 -0.63417196 313 15334900 571 49 45 4274
2.6276269 -3.6505835 -0.7189185 316 15334900 657 50 65 4555
1.1124636 -1.4316657 -0.3077004 173 15334900 59 51 67 1839
2.1131907 -3.4471052 -0.72065461 350 15334900 591 52 92 4107
2.4194577 -3.6373484 -0.82094258 354 15334900 700 53 87 4445
2.7433136 -3.8138342 -0.9292044 249 15334900 572 54 63 4789
3.168159 -4.0770602 -1.0749078 36 15334900 101 55 60 5274
2.2126465 -3.6138692 -0.91926295 326 15334900 613 56 112 4336
2.5231097 -3.7974865 -1.0337501 299 15334900 654 57 76 4675
1.1128095 -1.5476868 -0.45166561 50 15334900 19 58 47 1959
3.1129768 -4.0067687 -1.255672 321 15334900 878 59 67 5227
2.2958815 -3.7596805 -1.1305035 344 15334900 711 60 42 4548
2.6675303 -4.0221577 -1.2870741 247 15334900 615 61 47 4995
3.0448697 -4.2364969 -1.4464643 292 15334900 857 62 60 5414
3.1454287 -4.0450397 -1.4781142 310 15334900 881 63 44 5333
1.3898834 -2.2819061 0.83398461 157 15432530 123 0 53 2799
1.5119287 -2.2819271 0.82161081 328 15432530 268 1 67 2858
1.6952604 -2.3610191 0.84164029 255 15432530 233 2 43 3026
1.8592539 -2.3937314 0.84666103 337 15432530 333 3 48 3147
1.4128313 -2.3169415 0.73308343 323 15432530 256 4 71 2811
1.5670224 -2.3673217 0.73669362 336 15432530 289 5 45 2933
1.7569005 -2.4488506 0.75077826 326 15432530 315 6 70 3106
1.914408 -2.4698975 0.74700606 184 15432530 190 7 75 3213
1.4417713 -2.36338 0.63797468 317 15432530 256 8 69 2841
1.6046913 -2.4222076 0.63914192 314 15432530 278 9 73 2975
1.8088237 -2.524106 0.65190136 244 15432530 246 10 63 3173
1.981282 -2.5607879 0.64814442 350 15432530 381 11 35 3302
1.5076585 -2.4705107 0.55529439 340 15432530 296 12 89 2947
1.6710833 -2.524528 0.54969889 320 15432530 304 13 60 3077
1.8452065 -2.5759203 0.54412687 320 15432530 331 14 93 3215
2.0512133 -2.6525123 0.54434544 323 15432530 373 15 65 3397
1.5527297 -2.544466 0.45932439 265 15432530 241 16 44 3016
1.7268432 -2.6100519 0.45153895 328 15432530 328 17 65 3162
1.9319259 -2.7000656 0.44699955 301 15432530 338 18 66 3350
2.1295261 -2.757261 0.4356066 298 15432530 368 19 78 3511
1.595058 -2.6139321 0.3578254 307 15432530 292 20 89 3083
1.772784 -2.6804042 0.34423074 293 15432530 306 21 84 3232
1.9846011 -2.7764487 0.33276531 301 15432530 354 22 77 3429
2.2032466 -2.8559053 0.31804624 327 15432530 429 23 119 3621
1.654786 -2.7129838 0.25445402 315 15432530 321 24 63 3188
1.8201613 -2.7536039 0.23272535 325 15432530 356 25 84 3309
2.0395586 -2.8535447 0.21372876 282 15432530 348 26 95 3514
2.2839732 -2.9641805 0.19264144 318 15432530 447 27 78 3747
1.718526 -2.8205838 0.1435716 227 15432530 249 28 61 3306
1.886565 -2.8562286 0.11600599 289 15432530 339 29 39 3425
2.1276879 -2.9827845 0.090375252 250 15432530 335 30 40 3665
2.3655641 -3.0723991 0.057935242 337 15432530 507 31 73 3878
1.7730249 -2.9103749 0.023792136 285 15432530 331 32 78 3408
1.9488382 -2.952862 -0.0089537045 340 15432530 426 33 69 3538
2.1986494 -3.0830615 -0.045208331 232 15432530 333 34 73 3787
2.4449606 -3.1797655 -0.086051188 315 15432530 507 35 75 4012
1.8150326 -2.982609 -0.10368513 331 15432530 404 36 123 3493
2.0287614 -3.0788677 -0.1442252 329 15432530 449 37 67 3690
2.2221558 -3.1187861 -0.18642116 27 15432530 40 38 96 3834
2.5394266 -3.3025026 -0.24232331 299 15432530 521 39 68 4173
1.8685642 -3.076014 -0.23886152 379 15432530 493 40 105 3607
2.0779424 -3.1566222 -0.28634608 69 15432530 100 41 64 3790
2.3718998 -3.330919 -0.34912372 346 15432530 583 42 124 4104
2.6627576 -3.4667737 -0.41483185 325 15432530 627 43 68 4391
1.9504802 -3.2133908 -0.38805938 395 15432530 564 44 93 3779
2.2431793 -3.4106152 -0.45990938 39 15432530 67 45 58 4108
2.4693787 -3.4716568 -0.52060956 300 15432530 553 46 90 4292
2.7619414 -3.5977254 -0.59889895 288 15432530 603 47 114 4575
2.0114865 -3.3201656 -0.54481328 384 15432530 590 48 105 3920
2.2689157 -3.453027 -0.61992753 313 15432530 546 49 48 4178
2.5708618 -3.6183395 -0.7094487 281 15432530 569 50 59 4495
1.0748514 -1.4009191 -0.29966909 148 15432530 48 51 92 1791
2.073662 -3.4296777 -0.71433765 366 15432530 607 52 85 4071
2.364737 -3.602828 -0.80986124 314 15432530 604 53 80 4385
2.6789689 -3.7730041 -0.91523433 302 15432530 673 54 67 4717
2.9499927 -3.8447657 -1.0088725 18 15432530 43 55 51 4950
2.16012 -3.577183 -0.90654242 365 15432530 667 56 119 4276
2.4676788 -3.7639611 -1.0204827 306 15432530 653 57 69 4615
1.0357091 -1.4592646 -0.4239985 168 15432530 57 58 60 1839
3.0599728 -3.9888251 -1.2441411 410 15432530 1100 59 82 5179
2.2607758 -3.7537827 -1.1245377 342 15432530 699 60 44 4524
2.5920079 -3.9608335 -1.2623376 289 15432530 693 61 49 4899
3.0121267 -4.2456694 -1.4432584 105 15432530 305 62 46 5402
3.113528 -4.0551186 -1.4747882 332 15432530 939 63 46 5321
1.3640585 -2.2707524 0.82683361 235 15531090 181 0 51 2775
1.4538736 -2.2238214 0.79746276 227 15531090 175 1 86 2774
1.6740762 -2.3619726 0.83830261 304 15531090 276 2 47 3014
1.8445312 -2.4050944 0.84666103 363 15531090 359 3 57 3147
1.4045588 -2.3354948 0.73621291 335 15531090 267 4 63 2823
1.5270605 -2.3379934 0.72463733 305 15531090 254 5 59 2885
1.7014641 -2.4025693 0.73337448 316 15531090 291 6 75 3034
1.9204967 -2.5094025 0.75537586 97 15531090 103 7 76 3249
1.4392998 -2.3922217 0.64336419 301 15531090 247 8 75 2865
1.5962114 -2.441818 0.64172 321 15531090 287 9 71 2987
1.7729558 -2.5063939 0.64450508 280 15531090 275 10 55 3137
1.9441029 -2.5448458 0.64107805 336 15531090 358 11 35 3266
1.4620851 -2.4292288 0.54398876 335 15531090 279 12 96 2887
1.6555616 -2.534734 0.54969889 346 15531090 327 13 53 3077
1.8020537 -2.5485668 0.53600305 305 15531090 306 14 85 3167
2.0205226 -2.6462197 0.54049963 333 15531090 378 15 42 3373
1.5126251 -2.5132995 0.45201421 332 15531090 292 16 38 2968
1.6848254 -2.580817 0.44468445 328 15531090 318 17 80 3114
1.8741571 -2.653584 0.43739238 345 15531090 371 18 63 3278
2.1053472 -2.7608073 0.43411773 323 15531090 396 19 73 3499
1.5728432 -2.6134579 0.35643262 306 15531090 289 20 75 3071
1.7497832 -2.6812394 0.34295267 317 15531090 329 21 80 3220
1.9606423 -2.7788148 0.33160079 315 15531090 368 22 69 3417
2.1711948 -2.850352 0.31593823 305 15531090 395 23 92 3597
1.6011121 -2.6615863 0.24870723 327 15531090 317 24 51 3116
1.7966918 -2.7546942 0.23188138 328 15531090 357 25 80 3297
2.0012963 -2.8366439 0.21153916 302 15531090 365 26 108 3478
2.25123 -2.9590638 0.19140755 326 15531090 452 27 81 3723
1.6826621 -2.800247 0.1420082 177 15531090 189 28 57 3270
1.8624556 -2.857703 0.11559955 286 15531090 333 29 45 3413
2.0955329 -2.976166 0.089783438 265 15531090 351 30 44 3641
2.3321445 -3.0677521 0.05757669 333 15531090 495 31 74 3854
1.7242335 -2.8697696 0.023373259 309 15531090 347 32 85 3348
1.9372315 -2.9748201 -0.0089840731 353 15531090 445 33 75 3550
2.1658771 -3.0768702 -0.044921827 214 15531090 303 34 89 3763
2.4108951 -3.1755967 -0.085536428 297 15531090 473 35 58 3988
1.7905251 -2.9834051 -0.10332893 321 15531090 389 36 131 3481
1.9706155 -3.030941 -0.14141105 326 15531090 427 37 69 3618
1.189401 -1.6911817 -0.10064992 21 15531090 9 38 89 2070
2.4973826 -3.2893977 -0.24023281 324 15531090 555 39 62 4137
1.8311943 -3.0566072 -0.23647754 398 15531090 508 40 88 3571
2.0911233 -3.2194865 -0.29087925 215 15531090 319 41 76 3850
2.3239152 -3.3062825 -0.34504041 334 15531090 549 42 134 4056
2.5981236 -3.4259348 -0.40802976 339 15531090 633 43 64 4319
1.9000719 -3.1740892 -0.38189808 379 15531090 525 44 95 3719
0 -0 -0 9 15531090 0 45 52 0
2.4001193 -3.418503 -0.51042056 331 15531090 586 46 110 4208
2.7110686 -3.5766809 -0.59261549 300 15531090 615 47 116 4527
1.9727913 -3.3018415 -0.53980994 380 15531090 574 48 82 3884
2.24123 -3.4569266 -0.61814708 330 15531090 574 49 58 4166
2.5145924 -3.5855381 -0.69997889 310 15531090 611 50 60 4435
2.8807998 -3.8028107 -0.80965865 275 15531090 644 51 96 4839
2.0525789 -3.4423368 -0.71433765 393 15531090 652 52 94 4071
2.342586 -3.61727 -0.80986124 323 15531090 622 53 71 4385
2.6354992 -3.7604508 -0.90824932 307 15531090 673 54 80 4681
3.0895119 -4.0781741 -1.0651249 19 15531090 51 55 42 5226
2.1141288 -3.5500665 -0.89636612 359 15531090 642 56 91 4228
2.419112 -3.7397265 -1.0098687 301 15531090 627 57 57 4567
1.0133363 -1.4464653 -0.41846508 152 15531090 50 58 71 1815
3.1198394 -4.1189532 -1.278734 418 15531090 1185 59 77 5323
2.2258291 -3.7475967 -1.118572 314 15531090 635 60 37 4500
2.5299194 -3.9182186 -1.2437851 312 15531090 726 61 45 4827
2.9130545 -4.1598768 -1.4079918 44 15531090 121 62 55 5270
3.0885875 -4.0741463 -1.4747882 342 15531090 967 63 52 5321
1.3267467 -2.2396574 0.81253165 164 15626670 122 0 63 2727
1.3467491 -2.0878243 0.74571675 225 15626670 152 1 71 2594
1.6463373 -2.3533106 0.83162737 272 15626670 243 2 47 2990
1.8018309 -2.3795111 0.83374727 361 15626670 346 3 36 3099
1.3606547 -2.2942481 0.7205655 320 15626670 245 4 65 2763
1.5189779 -2.3570826 0.72765136 342 15626670 287 5 30 2897
1.6800189 -2.4034202 0.73047382 334 15626670 305 6 90 3022
1.8909906 -2.502516 0.74979597 190 15626670 198 7 62 3225
1.4066936 -2.3708384 0.63528001 318 15626670 255 8 86 2829
1.5557892 -2.4121704 0.63140774 317 15626670 274 9 98 2939
1.7575434 -2.5172255 0.64450508 304 15626670 300 10 68 3137
1.9284514 -2.5567267 0.64107805 349 15626670 372 11 40 3266
1.4351218 -2.4178858 0.53946656 321 15626670 263 12 82 2863
1.6207904 -2.5150707 0.54326755 309 15626670 286 13 61 3041
1.7796134 -2.5498776 0.53397208 311 15626670 310 14 66 3155
1.997117 -2.6491094 0.53857666 353 15626670 399 15 60 3361
1.5092818 -2.5429311 0.45566931 317 15626670 283 16 46 2992
1.6560953 -2.5711362 0.44125721 317 15626670 303 17 81 3090
1.8442374 -2.6455216 0.43419001 332 15626670 352 18 76 3254
2.0812056 -2.7641611 0.43262893 308 15626670 375 19 74 3487
1.5385282 -2.5923104 0.35225433 291 15626670 269 20 64 3035
1.7332984 -2.6919253 0.34295267 295 15626670 306 21 76 3220
1.9367296 -2.780992 0.33043626 304 15626670 352 22 55 3405
2.1536644 -2.8636205 0.31593823 312 15626670 404 23 111 3597
1.5847508 -2.6713605 0.24870723 324 15626670 314 24 56 3116
1.7603223 -2.7354681 0.22934946 350 15626670 372 25 53 3261
1.9770086 -2.839041 0.21080929 307 15626670 369 26 109 3466
2.2114387 -2.9440751 0.18955672 330 15626670 449 27 80 3687
1.604331 -2.7073805 0.13679689 97 15626670 97 28 70 3150
1.8319129 -2.8489017 0.11478666 285 15626670 327 29 45 3389
2.0703859 -2.9791167 0.089487523 287 15626670 377 30 45 3629
2.2988718 -3.0628116 0.057218146 332 15626670 488 31 62 3830
1.6821252 -2.8390007 0.02303816 324 15626670 353 32 101 3300
1.8929956 -2.9462678 -0.0088625979 317 15626670 389 33 70 3502
2.1264174 -3.0605392 -0.044492066 220 15626670 306 34 78 3727
2.3913646 -3.1903298 -0.085536428 326 15626670 518 35 50 3988
1.7477485 -2.9530458 -0.10190411 333 15626670 392 36 110 3433
1.9584551 -3.0530682 -0.14188007 323 15626670 426 37 78 3630
1.103819 -1.5901409 -0.094231665 15 15626670 6 38 82 1938
2.4627817 -3.2854884 -0.23883916 295 15626670 500 39 61 4113
1.7941337 -3.0368586 -0.23409356 386 15626670 483 40 93 3535
2.0261371 -3.1617348 -0.28453282 328 15626670 466 41 79 3766
2.2831383 -3.2910075 -0.34197789 217 15626670 350 42 133 4020
2.555573 -3.4131234 -0.40462872 318 15626670 584 43 73 4283
1.8623563 -3.1548507 -0.37820128 364 15626670 494 44 102 3683
1.8860935 -2.9458027 -0.3940801 12 15626670 14 45 55 3520
2.3587453 -3.4037945 -0.50605386 346 15626670 603 46 98 4172
2.6819434 -3.5837235 -0.59104455 265 15626670 540 47 136 4515
1.9343972 -3.2831686 -0.53480655 379 15626670 562 48 60 3848
2.1880038 -3.4206285 -0.60924429 318 15626670 535 49 50 4106
2.4655676 -3.5619271 -0.69240296 322 15626670 621 50 59 4387
2.7936385 -3.7351489 -0.79158819 310 15626670 695 51 72 4731
1.9835149 -3.3733957 -0.69749254 373 15626670 589 52 109 3975
2.2822475 -3.5719466 -0.79656363 353 15626670 657 53 84 4313
2.5922852 -3.7475071 -0.90126431 303 15626670 654 54 84 4645
1.164554 -1.5569746 -0.40477189 57 15626670 23 55 65 1986
2.0863676 -3.5528593 -0.89382201 340 15626670 605 56 96 4216
2.3772321 -3.7249041 -1.0019083 331 15626670 680 57 64 4531
2.7111628 -3.92097 -1.1295098 204 15626670 488 58 56 4899
3.1084592 -4.1566758 -1.2844994 351 15626670 1005 59 69 5347
2.179296 -3.7210643 -1.1066406 347 15626670 687 60 49 4452
2.4996004 -3.9238889 -1.240693 278 15626670 644 61 35 4815
2.9269245 -4.2347493 -1.4272281 23 15626670 64 62 51 5342
3.056622 -4.0837903 -1.4714622 346 15626670 974 63 33 5309
1.191648 -2.0400426 0.73744619 224 15724410 137 0 60 2475
1.4017913 -2.2027094 0.78366381 250 15724410 186 1 80 2726
1.6384158 -2.372853 0.83496499 257 15724410 231 2 45 3002
1.7733556 -2.3720088 0.8272903 332 15724410 314 3 35 3075
1.323159 -2.2625527 0.70804751 279 15724410 206 4 80 2715
1.4795589 -2.3271508 0.71559507 338 15724410 274 5 51 2849
1.6652402 -2.4136834 0.73047382 318 15724410 291 6 77 3022
1.840705 -2.4672983 0.73584634 313 15724410 313 7 53 3165
1.3744048 -2.3491461 0.62719584 313 15724410 244 8 75 2793
1.5346674 -2.4117832 0.62882966 310 15724410 266 9 87 2927
1.6954174 -2.4602706 0.6272471 316 15724410 294 10 44 3053
1.891644 -2.5401995 0.63401169 289 15724410 301 11 41 3230
1.4321647 -2.4469879 0.54398876 308 15724410 257 12 106 2887
1.5799887 -2.4851134 0.53469247 316 15724410 283 13 54 2993
1.7639341 -2.5607493 0.53397208 303 15724410 302 14 90 3155
1.9454635 -2.6138043 0.52896208 318 15724410 346 15 51 3301
