# .PCD v0.7 - Point Cloud Data file format
VERSION 0.7
FIELDS x y z intensity t reflectivity ring noise range
SIZE 4 4 4 4 4 2 1 2 4
TYPE F F F F U U U U U
COUNT 1 1 1 1 1 1 1 1 1
WIDTH 764
HEIGHT 1
VIEWPOINT 0 0 0 1 0 0 0
POINTS 764
DATA ascii
-0.38311642 -1.5399805 0.12706737 259 27997110 66 24 16 1592
-0.3273018 -1.5549824 0.11203732 250 27997110 63 25 51 1593
-0.27479017 -1.5914553 0.098410107 206 27997110 54 26 110 1618
-0.19883433 -1.4635998 0.076038614 253 27997110 55 27 94 1479
-0.38425091 -1.5413252 0.069049858 267 27997110 67 28 20 1590
-0.33259374 -1.5773921 0.054632895 226 27997110 59 29 1 1613
-0.26560163 -1.52964 0.038295433 220 27997110 53 30 30 1553
-0.2010971 -1.4761995 0.022259802 315 27997110 70 31 51 1490
-0.39484665 -1.5834742 0.011393418 227 27997110 61 32 70 1632
-0.32943532 -1.5595808 -0.0040339753 244 27997110 62 33 44 1594
-0.27030122 -1.5555781 -0.018849738 197 27997110 49 34 96 1579
-0.20717877 -1.5135347 -0.032773238 267 27997110 62 35 58 1528
-0.39569807 -1.5835917 -0.04847347 227 27997110 61 36 95 1633
-0.33944511 -1.6011629 -0.064021915 223 27997110 60 37 24 1638
-0.27048019 -1.5527517 -0.076727331 269 27997110 67 38 131 1578
-0.20427828 -1.4925392 -0.087626614 226 27997110 52 39 69 1509
-0.39770088 -1.5863086 -0.10853729 259 27997110 69 40 41 1639
-0.33034021 -1.5547372 -0.12043157 252 27997110 64 41 51 1594
-0.26922381 -1.5429903 -0.13372867 270 27997110 67 42 169 1572
-0.22104819 -1.6085883 -0.15408579 131 27997110 35 43 53 1631
-0.56658423 -2.2565935 -0.24018812 436 27997110 239 44 104 2339
-0.33106783 -1.5550909 -0.17912731 240 27997110 61 45 42 1600
-0.26627496 -1.5213847 -0.18873917 247 27997110 60 46 98 1556
-0.21295039 -1.5468574 -0.20617832 148 27997110 37 47 102 1575
-0.55941612 -2.2201679 -0.32132867 430 27997110 230 48 99 2312
-0.48573267 -2.2767038 -0.34928423 198 27997110 109 49 57 2354
-0.26961309 -1.535722 -0.24921456 261 27997110 65 50 99 1579
-0.21381707 -1.5499492 -0.26553592 159 27997110 40 51 76 1587
-0.57137507 -2.2591403 -0.41533709 450 27997110 252 52 113 2367
-0.47214884 -2.2075584 -0.42423064 401 27997110 212 53 107 2297
-0.37946254 -2.1574469 -0.43326652 350 27997110 175 54 91 2233
-0.20948613 -1.5187502 -0.31917059 348 27997110 85 55 90 1566
-0.57156104 -2.2545776 -0.50457692 466 27997110 264 56 127 2380
-0.48234528 -2.2494729 -0.52162915 374 27997110 208 57 80 2359
-0.38929003 -2.2108335 -0.53190023 398 27997110 212 58 53 2307
-0.21593899 -1.5645239 -0.39085105 238 27997110 63 59 85 1627
-0.57963341 -2.2752471 -0.60253745 445 27997110 261 60 56 2424
-0.47894067 -2.2245026 -0.60681868 445 27997110 247 61 49 2355
-0.38577873 -2.1884322 -0.61609656 399 27997110 212 62 60 2306
-0.29926816 -2.1749876 -0.63331914 375 27997110 196 63 52 2285
-0.40691537 -1.5896674 0.51218992 92 28094880 27 0 41 1719
-0.3446326 -1.5972278 0.4904367 103 28094880 30 1 72 1706
-0.28322417 -1.602319 0.4711628 75 28094880 21 2 32 1694
-0.21076547 -1.5255539 0.43019098 111 28094880 28 3 43 1599
-0.39924395 -1.5629907 0.43578172 113 28094880 32 4 73 1671
-0.34960443 -1.6168479 0.42925656 110 28094880 32 5 17 1709
-0.27590364 -1.5574147 0.39400145 100 28094880 27 6 90 1630
-0.21520123 -1.5461143 0.37315428 111 28094880 28 7 44 1605
-0.39835215 -1.5607489 0.37119755 112 28094880 31 8 58 1653
-0.35088685 -1.6258007 0.36586845 94 28094880 27 9 15 1703
-0.27826315 -1.5658008 0.33386064 94 28094880 25 10 45 1625
-0.21573569 -1.5401099 0.31131348 93 28094880 23 11 33 1586
-0.41530088 -1.6282216 0.3223986 94 28094880 28 12 75 1711
-0.35537294 -1.6435261 0.30530888 97 28094880 28 13 25 1709
-0.28778026 -1.6175513 0.28213358 90 28094880 25 14 99 1667
-0.21741433 -1.5493379 0.25398514 122 28094880 31 15 43 1585
-0.40258154 -1.5782394 0.25098363 92 28094880 25 16 39 1648
-0.34298965 -1.5845155 0.23390917 103 28094880 28 17 72 1638
-0.28451556 -1.5941989 0.21802904 84 28094880 23 18 75 1634
-0.21535543 -1.5278829 0.19292744 86 28094880 21 19 72 1555
-0.40338036 -1.5812558 0.1906932 272 28094880 73 20 34 1643
-0.3368206 -1.5548351 0.17041126 248 28094880 63 21 51 1600
-0.28770936 -1.6077138 0.15924989 105 28094880 28 22 58 1641
-0.22735116 -1.6066986 0.14308128 114 28094880 30 23 125 1629
-0.3984763 -1.5607806 0.12898296 262 28094880 68 24 31 1616
-0.33937418 -1.5646431 0.11288129 255 28094880 66 25 38 1605
-0.28032923 -1.5661585 0.096950382 219 28094880 56 26 129 1594
-0.22804418 -1.6047312 0.083441965 121 28094880 32 27 67 1623
-0.39370105 -1.5389385 0.069049858 293 28094880 74 28 9 1590
-0.34735882 -1.5987611 0.055445783 248 28094880 66 29 8 1637
-0.28135669 -1.5634016 0.039183158 208 28094880 52 30 37 1589
-0.20507362 -1.4393017 0.02172198 299 28094880 63 31 67 1454
-0.40752992 -1.5926468 0.011477192 230 28094880 62 32 38 1644
-0.33899853 -1.5575302 -0.0040339753 220 28094880 56 33 39 1594
-0.27771425 -1.542081 -0.018706484 213 28094880 52 34 66 1567
-0.22156163 -1.5478636 -0.033545382 218 28094880 53 35 76 1564
-0.40838647 -1.5927528 -0.048829671 203 28094880 55 36 88 1645
-0.34926328 -1.5990499 -0.064021915 248 28094880 66 37 36 1638
-0.28639051 -1.5864482 -0.078477763 248 28094880 65 38 113 1614
-0.22191887 -1.5505522 -0.091110781 231 28094880 57 39 61 1569
-0.47603557 -1.8505496 -0.12681447 258 28094880 95 40 75 1915
-0.34499097 -1.5760589 -0.12224484 232 28094880 61 41 44 1618
-0.28294113 -1.5648409 -0.13577034 282 28094880 72 42 168 1596
-0.21222582 -1.4771278 -0.14161533 259 28094880 58 43 75 1499
-0.58041972 -2.2530744 -0.24018812 448 28094880 245 44 107 2339
-0.34060347 -1.5530301 -0.17912731 251 28094880 64 45 33 1600
-0.29048339 -1.6017638 -0.19892818 147 28094880 40 46 88 1640
-0.22243772 -1.5455216 -0.20617832 294 28094880 73 47 136 1575
-0.57600254 -2.228199 -0.32299647 438 28094880 237 48 103 2324
-0.49205124 -2.238909 -0.34394258 387 28094880 208 49 80 2318
-0.29175442 -1.6039885 -0.26057836 114 28094880 31 50 63 1651
-0.2216347 -1.5368983 -0.26352808 68 28094880 17 51 72 1575
-0.5792923 -2.2327216 -0.41112581 467 28094880 256 52 103 2343
-0.49075991 -2.2276545 -0.42866313 405 28094880 218 53 76 2321
-0.39902416 -2.1898217 -0.44025159 388 28094880 200 54 100 2269
-0.21544778 -1.4941804 -0.31427908 318 28094880 76 55 107 1542
-0.58833563 -2.262378 -0.50712103 457 28094880 261 56 117 2392
-0.49361488 -2.2350433 -0.51897568 396 28094880 218 57 84 2347
-0.39865723 -2.1854289 -0.52636677 398 28094880 208 58 62 2283
-0.29706255 -2.0589259 -0.51480871 371 28094880 170 59 87 2143
-0.59358317 -2.2716477 -0.60253745 476 28094880 280 60 61 2424
-0.49509093 -2.232842 -0.60991079 437 28094880 245 61 50 2367
-0.4033542 -2.2087755 -0.6225087 406 28094880 220 62 52 2330
-0.31260797 -2.1731102 -0.63331914 389 28094880 203 63 59 2285
-0.43702215 -1.6646974 0.53721839 93 28191440 30 0 47 1803
-0.33448225 -1.5053246 0.46283889 112 28191440 29 1 50 1610
-0.2847468 -1.5551988 0.45781222 73 28191440 20 2 52 1646
-0.22507797 -1.5585487 0.43987632 100 28191440 27 3 30 1635
-0.42937818 -1.6389574 0.45768815 109 28191440 33 4 41 1755
-0.34942096 -1.5693216 0.41720021 100 28191440 28 5 27 1661
-0.2917591 -1.5900513 0.40270334 84 28191440 23 6 81 1666
-0.22636385 -1.5563145 0.37594423 126 28191440 33 7 65 1617
-0.4256891 -1.6261493 0.38736582 100 28191440 30 8 64 1725
-0.34305686 -1.5435326 0.3478221 97 28191440 25 9 27 1619
-0.28786549 -1.5640639 0.33386064 103 28191440 27 10 46 1625
-0.22688532 -1.5503997 0.31366894 118 28191440 30 11 23 1598
-0.42230093 -1.6142414 0.3201375 97 28191440 28 12 86 1699
-0.35262039 -1.5836909 0.29459 96 28191440 26 13 42 1649
-0.28698492 -1.5575997 0.27197883 111 28191440 29 14 102 1607
-0.22348085 -1.5245353 0.25013933 110 28191440 27 15 58 1561
-0.42426538 -1.6216348 0.25829384 107 28191440 31 16 26 1696
-0.34753773 -1.5591959 0.23048192 107 28191440 28 17 54 1614
-0.29861456 -1.6158127 0.22123143 93 28191440 26 18 68 1658
-0.22819473 -1.5500934 0.1959051 87 28191440 22 19 57 1579
-0.41005817 -1.5672201 0.18930042 256 28191440 68 20 1 1631
-0.34635457 -1.552739 0.17041126 262 28191440 67 21 44 1600
-0.28886467 -1.5589445 0.15459175 88 28191440 22 22 63 1593
-0.23021592 -1.5579726 0.13886526 107 28191440 27 23 125 1581
-0.41713569 -1.593021 0.13185634 240 28191440 65 24 17 1652
-0.3515774 -1.5742139 0.11372526 264 28191440 69 25 40 1617
-0.28993371 -1.564409 0.096950382 204 28191440 52 26 108 1594
-0.23612748 -1.5914475 0.08282502 80 28191440 21 27 88 1611
-0.40617895 -1.5480901 0.069570996 293 28191440 75 28 22 1602
-0.35978025 -1.6083034 0.055852227 188 28191440 51 29 23 1649
-0.29973298 -1.6088194 0.040366787 209 28191440 56 30 29 1637
-0.22096254 -1.4854885 0.022439074 306 28191440 69 31 55 1502
-0.42034051 -1.6017231 0.011560968 205 28191440 56 32 34 1656
-0.35642084 -1.5905495 -0.0041250815 228 28191440 61 33 27 1630
-0.30256504 -1.6229193 -0.019709256 197 28191440 54 34 90 1651
-0.23105496 -1.5464749 -0.033545382 236 28191440 58 35 62 1564
-0.43035311 -1.6366185 -0.05025449 248 28191440 71 36 85 1693
-0.35906827 -1.5968769 -0.064021915 251 28191440 67 37 28 1638
-0.29832101 -1.5964429 -0.07906124 250 28191440 66 38 104 1626
-0.22257864 -1.48992 -0.087626614 238 28191440 54 39 83 1509
-0.59122038 -2.2412326 -0.15383291 446 28191440 241 40 86 2323
-0.35728532 -1.5855855 -0.12315148 245 28191440 65 41 81 1630
-0.28373936 -1.5160656 -0.13168702 259 28191440 62 42 177 1548
-0.22482824 -1.4994264 -0.14388269 190 28191440 44 43 80 1523
-0.59423339 -2.2494707 -0.24018812 494 28191440 270 44 111 2339
-0.40527117 -1.7951796 -0.20733987 207 28191440 71 45 55 1852
-0.28712198 -1.5297095 -0.19019474 336 28191440 83 46 141 1568
-0.22661573 -1.5088333 -0.20146568 323 28191440 76 47 130 1539
-0.59879786 -2.2590835 -0.32799986 472 28191440 263 48 101 2360
-0.50577968 -2.2358477 -0.34394258 387 28191440 208 49 61 2318
-0.3015908 -1.6021682 -0.26057836 71 28191440 19 50 68 1651
-0.23986308 -1.594005 -0.27356726 94 28191440 25 51 66 1635
-0.59601814 -2.2405417 -0.41323143 450 28191440 250 52 92 2355
-0.50441927 -2.2246013 -0.42866313 401 28191440 216 53 92 2321
-0.42117849 -2.2336047 -0.44956499 402 28191440 216 54 93 2317
-0.22810777 -1.5160651 -0.31917059 337 28191440 83 55 95 1566
-0.59918511 -2.2473941 -0.50457692 439 28191440 249 56 116 2380
-0.50991344 -2.2433844 -0.52162915 387 28191440 216 57 78 2359
-0.4185569 -2.2173638 -0.53466696 416 28191440 224 58 68 2319
-0.32356349 -2.1492145 -0.53787059 452 28191440 227 59 75 2239
-0.60751057 -2.2679629 -0.60253745 462 28191440 272 60 69 2424
-0.51394081 -2.2523706 -0.61609489 428 28191440 244 61 43 2391
-0.42334077 -2.2403471 -0.63212687 397 28191440 222 62 62 2366
-0.32935944 -2.1939554 -0.63997108 409 28191440 218 63 55 2309
-0.42639238 -1.5845543 0.51218992 100 28289580 29 0 34 1719
-0.36420709 -1.5928783 0.4904367 124 28289580 36 1 54 1706
-0.30286574 -1.5987227 0.4711628 80 28289580 23 2 50 1694
-0.2329147 -1.5457097 0.43664786 118 28289580 31 3 45 1623
-0.43041268 -1.6027269 0.44829968 85 28289580 25 4 61 1719
-0.36423144 -1.5897919 0.42322835 96 28289580 27 5 22 1685
-0.3036817 -1.599671 0.40560395 92 28289580 26 6 79 1678
-0.23415823 -1.543357 0.37315428 128 28289580 33 7 70 1605
-0.43565893 -1.6235067 0.38736582 85 28289580 25 8 59 1725
-0.36819863 -1.6099476 0.3632904 93 28289580 27 9 30 1691
-0.30404681 -1.5968784 0.34125695 121 28289580 33 10 48 1661
-0.2310686 -1.5140827 0.30660254 101 28289580 25 11 43 1562
-0.41998735 -1.5660884 0.31109297 101 28289580 28 12 92 1651
-0.36496785 -1.5930063 0.2967338 89 28289580 24 13 38 1661
-0.30096543 -1.5790448 0.2760407 82 28289580 22 14 93 1631
-0.23641072 -1.5465531 0.25398514 94 28289580 24 15 59 1585
-0.44649643 -1.6648219 0.26560405 108 28289580 33 16 32 1744
-0.36771825 -1.6033399 0.2373364 124 28289580 34 17 48 1662
-0.29065952 -1.5205004 0.20842187 83 28289580 20 18 65 1562
-0.23589514 -1.5368946 0.19441627 75 28289580 18 19 80 1567
-0.41966674 -1.5646745 0.18930042 269 28289580 72 20 15 1631
-0.36655176 -1.5971023 0.17552359 225 28289580 61 21 44 1648
-0.30516881 -1.5923324 0.15808536 116 28289580 31 22 78 1629
-0.2434109 -1.5801591 0.14097327 80 28289580 21 23 110 1605
-0.42690244 -1.5904316 0.13185634 234 28289580 64 24 29 1652
-0.36122999 -1.572027 0.11372526 255 28289580 67 25 35 1617
-0.30403709 -1.5861276 0.098410107 214 28289580 56 26 102 1618
-0.24222484 -1.566282 0.081591129 95 28289580 24 27 97 1587
-0.42189747 -1.5687232 0.07061325 274 28289580 72 28 21 1626
-0.36426198 -1.5826905 0.055039342 209 28289580 55 29 21 1625
-0.30959886 -1.60695 0.040366787 213 28289580 57 30 41 1637
-0.23007317 -1.4841049 0.022439074 277 28289580 63 31 61 1502
-0.43639475 -1.6222892 0.011728518 212 28289580 60 32 49 1680
-0.3688693 -1.6000258 -0.00415545 258 28289580 70 33 32 1642
-0.29661706 -1.5385569 -0.018706484 239 28289580 59 34 101 1567
-0.24238518 -1.5568825 -0.033802763 265 28289580 66 35 80 1576
-0.43726563 -1.6223656 -0.049898285 222 28289580 63 36 100 1681
-0.37156203 -1.6063259 -0.064490944 222 28289580 60 37 29 1650
-0.30583709 -1.5828143 -0.078477763 244 28289580 64 38 118 1614
-0.24277249 -1.5595493 -0.091807611 229 28289580 57 39 55 1581
-0.60496116 -2.2375629 -0.15383291 451 28289580 243 40 111 2323
-0.36700755 -1.5833634 -0.12315148 267 28289580 71 41 66 1630
-0.29303643 -1.5142961 -0.13168702 267 28289580 64 42 150 1548
-0.25061959 -1.604247 -0.15408579 80 28289580 21 43 49 1631
-0.61426353 -2.2688255 -0.24265264 480 28289580 268 44 107 2363
-0.51607746 -2.2224326 -0.25704768 375 28289580 198 45 66 2296
-0.29423356 -1.5162257 -0.18873917 391 28289580 95 46 134 1556
-0.23770864 -1.5191683 -0.20303658 310 28289580 75 47 136 1551
-0.60953289 -2.2438986 -0.32633203 455 28289580 251 48 94 2348
-0.51948905 -2.2327023 -0.34394258 395 28289580 212 49 50 2318
-0.31820625 -1.6351818 -0.26626027 167 28289580 47 50 54 1687
-0.2496392 -1.5925032 -0.27356726 130 28289580 35 51 82 1635
-0.61907572 -2.2710361 -0.41954836 451 28289580 258 52 107 2391
-0.51805967 -2.2214642 -0.42866313 419 28289580 226 53 103 2321
-0.42811888 -2.1963148 -0.44257993 399 28289580 208 54 85 2281
-0.23376745 -1.491424 -0.31427908 356 28289580 85 55 96 1542
-0.62532592 -2.2889259 -0.51475328 443 28289580 261 56 130 2428
-0.5263328 -2.2516088 -0.52428263 409 28289580 230 57 77 2371
-0.43215451 -2.2147539 -0.53466696 415 28289580 223 58 67 2319
-0.33854955 -2.1586969 -0.54075336 424 28289580 215 59 78 2251
-0.63064402 -2.2978191 -0.61148602 445 28289580 269 60 53 2460
-0.52775139 -2.2491746 -0.61609489 422 28289580 241 61 52 2391
-0.43486249 -2.2263579 -0.62892079 374 28289580 207 62 73 2354
-0.34816 -2.2260673 -0.64994895 397 28289580 218 63 49 2345
-0.43001825 -1.5598222 0.50503892 87 28385060 25 0 51 1695
-0.37397397 -1.5906136 0.4904367 101 28385060 29 1 97 1706
-0.31931433 -1.6307694 0.48117569 71 28385060 21 2 40 1730
-0.24060242 -1.5328337 0.43341941 104 28385060 27 3 34 1611
-0.43101907 -1.5665468 0.4389112 81 28385060 23 4 68 1683
-0.36865264 -1.5649155 0.41720021 111 28385060 31 5 18 1661
-0.30900759 -1.5749248 0.39980268 105 28385060 29 6 72 1654
-0.24544518 -1.5534195 0.37594423 135 28385060 35 7 63 1617
-0.45181224 -1.6433533 0.39275527 86 28385060 26 8 73 1749
-0.3888019 -1.6532923 0.3736026 79 28385060 24 9 34 1739
-0.31157196 -1.5834596 0.33879149 96 28385060 26 10 44 1649
-0.24220102 -1.5242572 0.30895802 94 28385060 23 11 28 1574
-0.46393511 -1.6884848 0.33596537 95 28385060 30 12 85 1783
-0.37473547 -1.5907369 0.2967338 91 28385060 25 13 42 1661
-0.31064859 -1.5771683 0.2760407 96 28385060 26 14 95 1631
-0.25520411 -1.6035621 0.26359972 104 28385060 28 15 57 1645
-0.47241548 -1.7192315 0.2747418 104 28385060 34 16 30 1804
-0.35846734 -1.5201339 0.22534107 264 28385060 66 17 46 1578
-0.31381133 -1.5886919 0.21802904 77 28385060 21 18 65 1634
-0.24344227 -1.5236601 0.19292744 86 28385060 21 19 84 1555
-0.42925948 -1.56207 0.18930042 267 28385060 71 20 21 1631
-0.38182521 -1.6180485 0.17807975 261 28385060 73 21 42 1672
-0.31261349 -1.578714 0.15692084 206 28385060 54 22 76 1617
-0.25499436 -1.5904387 0.14202727 79 28385060 21 23 118 1617
-0.43665311 -1.5877821 0.13185634 231 28385060 63 24 24 1652
-0.36811665 -1.5581312 0.11288129 261 28385060 67 25 47 1605
-0.32074481 -1.619481 0.10059971 234 28385060 64 26 108 1654
-0.2556392 -1.5884299 0.08282502 142 28385060 37 27 96 1611
-0.43151504 -1.5661049 0.07061325 263 28385060 70 28 3 1626
-0.37120473 -1.5687548 0.054632895 217 28385060 56 29 2 1613
-0.31945309 -1.60502 0.040366787 203 28385060 54 30 41 1637
-0.25064024 -1.5537384 0.023514716 249 28385060 62 31 77 1574
-0.44315258 -1.6080126 0.011644742 205 28385060 57 32 46 1668
-0.37867993 -1.5977323 -0.00415545 225 28385060 61 33 34 1642
-0.3154268 -1.5837802 -0.019279499 210 28385060 55 34 81 1615
-0.25960657 -1.6027374 -0.034832288 229 28385060 60 35 61 1624
-0.45359698 -1.6427761 -0.050610691 204 28385060 59 36 100 1705
-0.38695905 -1.6273469 -0.065428987 249 28385060 70 37 26 1674
-0.30850515 -1.5456461 -0.076727331 258 28385060 64 38 118 1578
-0.25233713 -1.5580304 -0.091807611 228 28385060 57 39 60 1581
-0.62826699 -2.2684264 -0.1562169 466 28385060 259 40 104 2359
-0.36839586 -1.546162 -0.12043157 254 28385060 65 41 76 1594
-0.3116968 -1.5593678 -0.13577034 248 28385060 63 42 135 1596
-0.26045835 -1.602679 -0.15408579 146 28385060 39 43 49 1631
-0.62498313 -2.2535114 -0.24142037 465 28385060 257 44 116 2351
-0.53800982 -2.2540205 -0.26107806 425 28385060 231 45 70 2332
-0.31523567 -1.5727873 -0.19601703 340 28385060 89 46 112 1616
-0.24702561 -1.5176811 -0.20303658 318 28385060 76 47 129 1551
-0.62966067 -2.2630138 -0.32966766 448 28385060 252 48 102 2372
-0.5359391 -2.2410145 -0.34572315 397 28385060 215 49 53 2330
-0.43563423 -2.1675942 -0.35338277 373 28385060 187 50 87 2239
-0.27082929 -1.6610013 -0.28561425 81 28385060 24 51 58 1707
-0.62982202 -2.2558165 -0.41744274 458 28385060 259 52 104 2379
-0.53717834 -2.2411811 -0.43309566 427 28385060 235 53 93 2345
-0.44855654 -2.2282679 -0.44956499 400 28385060 215 54 92 2317
-0.25236619 -1.5479368 -0.32650784 356 28385060 91 55 100 1602
-0.63935876 -2.2850459 -0.51475328 434 28385060 256 56 125 2428
-0.54833972 -2.2824745 -0.53224307 397 28385060 230 57 75 2407
-0.44573584 -2.2120605 -0.53466696 432 28385060 233 58 64 2319
-0.35366404 -2.1680753 -0.54363608 426 28385060 218 59 70 2263
-0.64787638 -2.3050961 -0.61446893 483 28385060 295 60 42 2472
-0.546978 -2.2684376 -0.62227911 432 28385060 252 61 34 2415
-0.45080137 -2.2349834 -0.63212687 415 28385060 233 62 65 2366
-0.35810935 -2.2011287 -0.64329708 412 28385060 222 63 56 2321
-0.46136558 -1.634323 0.53006738 89 28482190 28 0 41 1779
-0.38642585 -1.599461 0.49388641 97 28482190 29 1 68 1718
-0.31560895 -1.560992 0.46114987 78 28482190 21 2 46 1658
-0.25558984 -1.5655482 0.44310477 110 28482190 30 3 47 1647
-0.44690651 -1.5861739 0.44517019 96 28482190 28 4 57 1707
-0.38644585 -1.5964918 0.42624244 101 28482190 29 5 27 1697
-0.32560122 -1.6072361 0.40850458 90 28482190 26 6 76 1690
-0.25118777 -1.5288506 0.37036434 111 28482190 28 7 58 1593
-0.46822524 -1.663062 0.39814472 93 28482190 29 8 52 1773
-0.38242167 -1.5825242 0.3581343 79 28482190 22 9 33 1667
-0.3353101 -1.6505716 0.35358408 92 28482190 27 10 52 1721
-0.25730246 -1.5575701 0.31602439 108 28482190 28 11 31 1610
-0.46790257 -1.6629173 0.3314431 75 28482190 23 12 80 1759
-0.39560005 -1.6343098 0.30530888 92 28482190 27 13 25 1709
-0.32267684 -1.5868224 0.27807167 78 28482190 21 14 64 1643
-0.25923833 -1.5669078 0.25783098 100 28482190 26 15 55 1609
-0.45404249 -1.6135508 0.25829384 96 28482190 28 16 36 1696
-0.37058482 -1.5294486 0.22705467 255 28482190 64 17 40 1590
-0.33305809 -1.6333481 0.22443379 94 28482190 27 18 76 1682
-0.26644203 -1.6043625 0.20334925 82 28482190 22 19 82 1639
-0.43560737 -1.5479335 0.18790767 243 28482190 64 20 47 1619
-0.37487674 -1.5461007 0.17041126 242 28482190 62 21 58 1600
-0.31751081 -1.5533633 0.15459175 260 28482190 66 22 83 1593
-0.25688937 -1.54168 0.13781126 82 28482190 20 23 121 1569
-0.44638732 -1.585073 0.13185634 263 28482190 72 24 14 1652
-0.37767023 -1.5558432 0.11288129 272 28482190 70 25 32 1605
-0.32107934 -1.5705422 0.097680248 218 28482190 56 26 127 1606
-0.26142731 -1.5631917 0.081591129 206 28482190 52 27 77 1587
-0.43460542 -1.5403514 0.069570996 264 28482190 68 28 14 1602
-0.39498922 -1.6247159 0.056665119 203 28482190 57 29 7 1673
-0.32929531 -1.6030297 0.040366787 204 28482190 55 30 45 1637
-0.2581856 -1.5403376 0.023335442 242 28482190 59 31 57 1562
-0.45626989 -1.6168119 0.011728518 227 28482190 64 32 48 1680
-0.39131534 -1.6070379 -0.0041858186 224 28482190 61 33 39 1654
-0.32997054 -1.6053218 -0.019566003 237 28482190 64 34 91 1639
-0.26147225 -1.5537908 -0.033802763 239 28482190 59 35 77 1576
-0.59420258 -2.1016524 -0.064858869 239 28482190 114 36 128 2185
-0.40262786 -1.6482387 -0.066367038 243 28482190 70 37 43 1698
-0.33249199 -1.6141601 -0.080228195 240 28482190 65 38 126 1650
-0.25990447 -1.5446391 -0.091110781 247 28482190 61 39 63 1569
-0.64217401 -2.2645288 -0.1562169 482 28482190 268 40 122 2359
-0.38925496 -1.590363 -0.12405812 209 28482190 56 41 81 1642
-0.32609001 -1.5808458 -0.137812 261 28482190 68 42 154 1620
-0.25835556 -1.5303729 -0.14728372 283 28482190 69 43 61 1559
-0.65184093 -2.2955647 -0.24634942 498 28482190 287 44 112 2399
-0.5433113 -2.2159321 -0.25704768 397 28482190 209 45 75 2296
-0.32729265 -1.5824879 -0.19747259 319 28482190 85 46 107 1628
-0.25236678 -1.4926763 -0.1998948 337 28482190 79 47 107 1527
-0.65004569 -2.2819655 -0.33300325 426 28482190 245 48 112 2396
-0.55251056 -2.2492082 -0.34750366 382 28482190 209 49 42 2342
-0.45614424 -2.1996887 -0.35906467 427 28482190 221 50 47 2275
-0.27706489 -1.6359788 -0.28159857 167 28482190 47 51 89 1683
-0.6533916 -2.2859862 -0.42375967 458 28482190 267 52 121 2415
-0.55655831 -2.2607462 -0.43752825 405 28482190 227 53 95 2369
-0.45982659 -2.2139478 -0.44723663 414 28482190 220 54 82 2305
-0.35208809 -2.0791869 -0.43901241 376 28482190 174 55 53 2154
-0.65336746 -2.2810798 -0.51475328 433 28482190 255 56 129 2428
-0.56513792 -2.2904294 -0.53489655 413 28482190 242 57 70 2419
-0.46405387 -2.2321486 -0.54020041 443 28482190 243 58 64 2343
-0.37085223 -2.1888344 -0.54940158 463 28482190 242 59 91 2287
-0.65879434 -2.2899072 -0.61148602 482 28482190 292 60 47 2460
-0.56367356 -2.2762935 -0.6253711 418 28482190 246 61 55 2427
-0.46686238 -2.2434964 -0.63533288 410 28482190 232 62 81 2378
-0.3696872 -2.1875212 -0.63997108 373 28482190 199 63 56 2309
-0.45866627 -1.5874422 0.51576543 91 28579980 27 0 50 1731
-0.39069745 -1.5747494 0.48698699 95 28579980 27 1 82 1694
-0.33459523 -1.6041608 0.47450042 83 28579980 24 2 30 1706
-0.2613267 -1.5411606 0.43664786 117 28579980 31 3 32 1623
-0.47910106 -1.6613196 0.46707663 97 28579980 31 4 65 1791
-0.40183827 -1.6166352 0.43227065 96 28579980 28 5 26 1721
-0.32592914 -1.5596163 0.39690208 88 28579980 24 6 94 1642
-0.26645234 -1.5617954 0.37873417 122 28579980 32 7 51 1629
-0.47194469 -1.6376852 0.39275527 95 28579980 29 8 35 1749
-0.40623835 -1.6370219 0.37102458 106 28579980 32 9 27 1727
-0.34543151 -1.6484832 0.35358408 87 28579980 26 10 52 1721
-0.2668547 -1.555962 0.31602439 104 28579980 27 11 28 1610
-0.46178922 -1.6033914 0.3201375 101 28579980 29 12 95 1699
-0.39707616 -1.5974767 0.29887757 76 28579980 21 13 38 1673
-0.33483511 -1.5963876 0.28010264 93 28579980 26 14 89 1655
-0.27686813 -1.6119835 0.26552263 86 28579980 23 15 56 1657
-0.45408684 -1.5765443 0.25281119 94 28579980 26 16 26 1660
-0.38569763 -1.5501972 0.23048192 261 28579980 68 17 30 1614
-0.33083579 -1.5730833 0.21642785 89 28579980 24 18 59 1622
-0.26414439 -1.5322921 0.19441627 70 28579980 17 19 82 1567
-0.45169523 -1.568138 0.1906932 191 28579980 51 20 44 1643
-0.38435638 -1.5437714 0.17041126 262 28579980 67 21 41 1600
-0.33689028 -1.5981319 0.15924989 265 28579980 71 22 78 1641
-0.27652934 -1.5989686 0.14308128 86 28579980 23 23 117 1629
-0.45279166 -1.5708106 0.13089855 243 28579980 65 24 42 1640
-0.39299968 -1.5767264 0.11456923 247 28579980 65 25 23 1629
-0.33070996 -1.5685426 0.097680248 227 28579980 59 26 121 1606
-0.26076767 -1.50252 0.078506395 213 28579980 50 27 103 1527
-0.4706583 -1.6297998 0.073740043 225 28579980 65 28 12 1698
-0.39914164 -1.5989896 0.055852227 211 28579980 57 29 2 1649
-0.34409702 -1.624451 0.040958606 218 28579980 60 30 51 1661
-0.26763207 -1.5387243 0.023335442 245 28579980 60 31 67 1562
-0.462852 -1.6024534 0.011644742 227 28579980 63 32 44 1668
-0.39825806 -1.592965 -0.00415545 232 28579980 62 33 47 1642
-0.33483848 -1.5797901 -0.019279499 223 28579980 58 34 78 1615
-0.27100122 -1.5521572 -0.033802763 199 28579980 50 35 62 1576
-0.65709853 -2.2707968 -0.070201926 374 28579980 209 36 137 2365
-0.39814946 -1.5875839 -0.064021915 222 28579980 59 37 51 1638
-0.34488013 -1.6238139 -0.080811672 247 28579980 68 38 105 1662
-0.27143756 -1.5548165 -0.091807611 226 28579980 57 39 64 1581
-0.65605676 -2.260546 -0.1562169 452 28579980 252 40 103 2359
-0.48356992 -1.9244883 -0.15035059 205 28579980 81 41 58 1990
-0.33080918 -1.5554253 -0.13577034 273 28579980 69 42 161 1596
-0.26980177 -1.540526 -0.14841741 260 28579980 64 43 67 1571
-0.665914 -2.2915218 -0.24634942 488 28579980 281 44 128 2399
-0.55980837 -2.2241206 -0.25839114 405 28579980 216 45 82 2308
-0.34196448 -1.603749 -0.20038374 237 28579980 65 46 115 1652
-0.26768646 -1.5262532 -0.20460744 296 28579980 72 47 121 1563
-0.65738392 -2.2551165 -0.32966766 453 28579980 255 48 116 2372
-0.56630105 -2.2457757 -0.34750366 387 28579980 212 49 65 2342
-0.47458705 -2.2200239 -0.3628526 417 28579980 221 50 73 2299
-0.26662743 -1.517724 -0.26152024 325 28579980 79 51 96 1563
-0.6640895 -2.2705953 -0.42165402 468 28579980 270 52 94 2403
-0.56175125 -2.2229865 -0.43087944 383 28579980 209 53 78 2333
-0.47833157 -2.2341065 -0.4518933 396 28579980 215 54 68 2329
-0.38516444 -2.192697 -0.46346995 428 28579980 221 55 53 2274
-0.67724645 -2.3107893 -0.52238554 423 28579980 257 56 105 2464
-0.57630789 -2.2755737 -0.53224307 421 28579980 244 57 67 2407
-0.48018813 -2.2406764 -0.54296708 404 28579980 224 58 76 2355
-0.38427567 -2.1865177 -0.54940158 449 28579980 235 59 73 2287
-0.68267888 -2.319273 -0.62043458 460 28579980 286 60 49 2496
-0.57477403 -2.2615547 -0.62227911 426 28579980 248 61 41 2415
-0.47576877 -2.2179763 -0.62892079 399 28579980 221 62 58 2354
-0.38111162 -2.1738553 -0.63664514 404 28579980 213 63 59 2297
-0.47489226 -1.6065681 0.52291644 85 28676620 26 0 56 1755
-0.41169667 -1.6168747 0.50078589 91 28676620 28 1 81 1742
-0.35654554 -1.6584225 0.49118859 59 28676620 18 2 30 1766
-0.27077815 -1.5395281 0.43664786 98 28676620 26 3 38 1623
-0.47945082 -1.625015 0.45768815 105 28676620 32 4 63 1755
-0.4117502 -1.6141391 0.43227065 82 28676620 24 5 16 1721
-0.35265547 -1.6372688 0.41720644 89 28676620 27 6 72 1726
-0.27399698 -1.5486385 0.37594423 107 28676620 28 7 52 1617
-0.49521214 -1.6796232 0.40353414 85 28676620 28 8 61 1797
-0.39602795 -1.5549977 0.3529782 104 28676620 28 9 32 1643
-0.34562364 -1.6004151 0.34372237 96 28676620 27 10 56 1673
-0.27845696 -1.5658801 0.31837985 101 28676620 26 11 46 1622
-0.48161185 -1.6344413 0.32692087 87 28676620 26 12 82 1735
-0.40687063 -1.5950103 0.29887757 88 28676620 25 13 32 1673
-0.33462891 -1.5480634 0.27197883 81 28676620 21 14 97 1607
-0.28052387 -1.5752699 0.25975388 89 28676620 24 15 59 1621
-0.48721874 -1.6533629 0.26560405 119 28676620 36 16 4 1744
-0.38932559 -1.5247859 0.22705467 252 28676620 64 17 33 1590
-0.35055774 -1.6175151 0.22283261 97 28676620 27 18 71 1670
-0.28192046 -1.577529 0.20037159 77 28676620 20 19 70 1615
-0.48826277 -1.6567991 0.20183535 87 28676620 26 20 59 1739
-0.39382154 -1.541384 0.17041126 244 28676620 63 21 59 1600
-0.33147866 -1.5260077 0.1522627 240 28676620 59 22 66 1569
-0.2863352 -1.5972418 0.14308128 93 28676620 25 23 107 1629
-0.46580499 -1.5794758 0.13185634 262 28676620 71 24 20 1652
-0.40266687 -1.5742854 0.11456923 260 28676620 69 25 40 1629
-0.34287104 -1.5781885 0.098410107 227 28676620 59 26 115 1618
-0.28695536 -1.5952501 0.083441965 251 28676620 66 27 97 1623
-0.46706244 -1.5808917 0.071655519 274 28676620 75 28 21 1650
-0.42382511 -1.6546006 0.057884451 214 28676620 62 29 11 1709
-0.35150006 -1.6105886 0.040662695 230 28676620 62 30 28 1649
-0.28345415 -1.5724783 0.023873262 261 28676620 67 31 77 1598
-0.4760763 -1.6110909 0.011728518 219 28676620 62 32 62 1680
-0.41100672 -1.6021149 -0.0041858186 230 28676620 63 33 34 1654
-0.35476536 -1.6245974 -0.01985251 230 28676620 64 34 81 1663
-0.28265592 -1.5622706 -0.034060143 212 28676620 54 35 60 1588
-0.68123376 -2.3012261 -0.07127054 388 28676620 224 36 142 2401
-0.41087133 -1.5967236 -0.064490944 246 28676620 67 37 31 1650
-0.35227519 -1.6099584 -0.080228195 253 28676620 69 38 126 1650
-0.28523785 -1.5766984 -0.093201272 244 28676620 63 39 47 1605
-0.6699149 -2.2564778 -0.1562169 274 28676620 153 40 101 2359
-0.57303512 -2.2227428 -0.17392313 373 28676620 198 41 96 2302
-0.34546486 -1.5767251 -0.137812 260 28676620 68 42 161 1620
-0.27711612 -1.5270872 -0.14728372 272 28676620 66 43 52 1559
-0.68676442 -2.310276 -0.24881393 484 28676620 284 44 126 2423
-0.5853709 -2.2668273 -0.26376498 414 28676620 230 45 62 2356
-0.41312894 -1.8808377 -0.23531747 223 28676620 84 46 119 1940
-0.28980854 -1.5948123 -0.21403275 167 28676620 45 47 114 1635
-0.68479127 -2.2965925 -0.33633882 452 28676620 265 48 91 2420
-0.58601457 -2.2652366 -0.35106477 380 28676620 213 49 58 2366
-0.48819992 -2.2170701 -0.3628526 416 28676620 220 50 66 2299
-0.27805349 -1.527699 -0.26352808 241 28676620 60 51 87 1575
-0.67800909 -2.2664776 -0.42165402 439 28676620 254 52 111 2403
-0.58129972 -2.2423301 -0.43531194 414 28676620 230 53 90 2357
-0.4920308 -2.2311296 -0.4518933 406 28676620 220 54 92 2329
-0.4049218 -2.2249675 -0.47080719 406 28676620 217 55 65 2310
-0.69477969 -2.3178236 -0.52492964 439 28676620 269 56 125 2476
-0.57848889 -2.2266872 -0.52162915 397 28676620 221 57 87 2359
-0.49141082 -2.2262859 -0.54020041 408 28676620 224 58 68 2343
-0.40394467 -2.2184992 -0.5580498 461 28676620 249 59 91 2323
-0.70359778 -2.3373005 -0.62640035 479 28676620 304 60 50 2520
-0.58571494 -2.2467654 -0.619187 446 28676620 257 61 50 2403
-0.4868744 -2.2037237 -0.62571472 404 28676620 222 62 64 2342
-0.40474623 -2.2281971 -0.65327495 419 28676620 232 63 57 2357
-0.49799889 -1.6474838 0.53721839 93 28774410 30 0 48 1803
-0.43032283 -1.6476794 0.5111351 89 28774410 28 1 68 1778
-0.35425556 -1.599934 0.47450042 74 28774410 21 2 46 1706
-0.28021944 -1.5378377 0.43664786 95 28774410 25 3 43 1623
-0.50614476 -1.677497 0.47333559 94 28774410 31 4 59 1815
-0.42752665 -1.6340564 0.43829882 87 28774410 26 5 20 1745
-0.36017329 -1.6237063 0.41430584 77 28774410 23 6 87 1714
-0.28770176 -1.569888 0.38152409 121 28774410 32 7 48 1641
-0.49200606 -1.6317704 0.39275527 87 28774410 27 8 75 1749
-0.41444811 -1.5865563 0.36071238 83 28774410 23 9 27 1679
-0.35033816 -1.5753363 0.33879149 90 28774410 25 10 59 1649
-0.29232207 -1.5872858 0.32309076 108 28774410 29 11 30 1646
-0.49163154 -1.6314554 0.32692087 69 28774410 21 12 107 1735
-0.41366124 -1.5810614 0.2967338 92 28774410 25 13 45 1661
-0.35440004 -1.5921584 0.28010264 79 28774410 22 14 82 1655
-0.2966288 -1.6084646 0.26552263 88 28774410 24 15 40 1657
-0.49393225 -1.6389867 0.26377648 85 28774410 25 16 23 1732
-0.42575395 -1.6257745 0.24247727 130 28774410 38 17 58 1698
-0.35529551 -1.5921192 0.21963023 144 28774410 39 18 61 1646
-0.29592797 -1.5991863 0.20334925 81 28774410 22 19 70 1639
-0.47778338 -1.5853007 0.19347873 54 28774410 15 20 79 1667
-0.42141911 -1.6081908 0.17807975 230 28774410 64 21 45 1672
-0.3512629 -1.5705667 0.15692084 272 28774410 71 22 73 1617
-0.30049321 -1.6189605 0.1451893 118 28774410 32 23 116 1653
-0.48584944 -1.6109446 0.13472973 251 28774410 72 24 15 1688
-0.41535628 -1.5833635 0.1154132 242 28774410 65 25 43 1641
-0.35777757 -1.5994328 0.09986984 240 28774410 65 26 106 1642
-0.28796223 -1.5463331 0.080974184 221 28774410 55 27 97 1575
-0.51489413 -1.7042357 0.077387959 193 28774410 61 28 37 1782
-0.41568646 -1.5823716 0.055445783 191 28774410 51 29 21 1637
-0.34822693 -1.5498787 0.039183158 227 28774410 57 30 37 1589
-0.28869542 -1.5471194 0.023514716 231 28774410 57 31 62 1574
-0.5033083 -1.6655731 0.012147394 195 28774410 59 32 47 1740
-0.42693573 -1.6227729 -0.0042465562 213 28774410 60 33 30 1678
-0.35946333 -1.598976 -0.019566003 240 28774410 65 34 82 1639
-0.28781986 -1.5369226 -0.033545382 245 28774410 60 35 91 1564
-0.69534105 -2.297003 -0.07127054 383 28774410 221 36 125 2401
-0.42066091 -1.5941724 -0.064490944 222 28774410 60 37 39 1650
-0.36214709 -1.6077665 -0.080228195 219 28774410 60 38 96 1650
-0.29490691 -1.5749185 -0.093201272 258 28774410 67 39 72 1605
-0.70809484 -2.3325262 -0.16177951 140 28774410 84 40 115 2443
-0.59583741 -2.2538898 -0.17664304 419 28774410 229 41 107 2338
-0.35513297 -1.5745758 -0.137812 257 28774410 67 42 165 1620
-0.29530141 -1.5723224 -0.15181844 264 28774410 68 43 56 1607
-0.69745564 -2.2945981 -0.24758166 475 28774410 276 44 108 2411
-0.60232115 -2.27472 -0.26510841 433 28774410 243 45 74 2368
-0.50609177 -2.23843 -0.28044018 409 28774410 219 46 106 2312
-0.29079342 -1.546237 -0.20774922 236 28774410 59 47 128 1587
-0.70580095 -2.3150816 -0.33967441 457 28774410 273 48 95 2444
-0.60598803 -2.2845392 -0.35462588 389 28774410 222 49 92 2390
-0.50703287 -2.2371459 -0.36664057 431 28774410 233 50 68 2323
-0.30932084 -1.6422281 -0.28360641 195 28774410 56 51 73 1695
-0.705724 -2.3074639 -0.43007657 465 28774410 279 52 130 2451
-0.59504741 -2.2387209 -0.43531194 404 28774410 225 53 86 2357
-0.50831711 -2.2395484 -0.45422167 423 28774410 232 54 92 2341
-0.41639191 -2.2108958 -0.46836144 400 28774410 211 55 73 2298
-0.7055524 -2.3023045 -0.52238554 430 28774410 261 56 122 2464
-0.61021364 -2.2909477 -0.53755003 418 28774410 247 57 80 2431
-0.51023531 -2.2460017 -0.54573381 409 28774410 229 58 58 2367
-0.41754952 -2.2159789 -0.5580498 458 28774410 247 59 70 2323
-0.71450722 -2.32183 -0.6234175 507 28774410 319 60 49 2508
-0.61745203 -2.3103392 -0.63773942 452 28774410 277 61 58 2475
-0.51577038 -2.2683508 -0.64495105 384 28774410 224 62 72 2414
-0.42054081 -2.2370031 -0.65660095 427 28774410 239 63 53 2369
-0.51147997 -1.6553415 0.5407939 89 28871990 29 0 51 1815
-0.42258975 -1.5783935 0.4904367 106 28871990 31 1 64 1706
-0.37174842 -1.6314454 0.48451331 54 28871990 16 2 37 1742
-0.29821652 -1.5815191 0.44956169 99 28871990 28 3 45 1671
-0.49935615 -1.619009 0.45768815 86 28871990 27 4 64 1755
-0.42851827 -1.597746 0.42925656 90 28871990 26 5 33 1709
-0.35976404 -1.5760572 0.40270334 74 28871990 21 6 83 1666
-0.29732901 -1.5680931 0.38152409 101 28871990 27 7 66 1641
-0.4951205 -1.6063712 0.38736582 84 28871990 25 8 72 1725
-0.43023846 -1.6066252 0.36586845 86 28871990 25 9 39 1703
-0.36261743 -1.5846052 0.34125695 96 28871990 27 10 60 1661
-0.30205595 -1.5854623 0.32309076 105 28871990 28 11 31 1646
-0.50163269 -1.6284081 0.32692087 100 28871990 30 12 68 1735
-0.43864742 -1.6355129 0.30745265 88 28871990 26 13 52 1721
-0.36416265 -1.5899539 0.28010264 83 28871990 23 14 97 1655
-0.29983371 -1.5717089 0.25975388 100 28871990 26 15 63 1621
-0.5004878 -1.6245906 0.26194891 87 28871990 26 16 29 1720
-0.43572149 -1.6231315 0.24247727 81 28871990 23 17 52 1698
-0.36239648 -1.5783182 0.21802904 232 28871990 62 18 59 1634
-0.30797327 -1.6090354 0.20483807 56 28871990 15 19 85 1651
-0.51908541 -1.6848543 0.20601365 70 28871990 22 20 72 1775
-0.43127885 -1.6055747 0.17807975 241 28871990 67 21 40 1672
-0.36357135 -1.5800209 0.15808536 253 28871990 67 22 65 1629
-0.29013968 -1.5114328 0.13570325 195 28871990 47 23 123 1545
-0.5098213 -1.6536564 0.13856089 259 28871990 78 24 20 1736
-0.43128043 -1.6039045 0.11710115 254 28871990 70 25 35 1665
-0.36489841 -1.5855348 0.099139981 222 28871990 59 26 119 1630
-0.2997112 -1.5563051 0.081591129 213 28871990 54 27 100 1587
-0.49350253 -1.5979507 0.072697774 271 28871990 76 28 1 1674
-0.4316245 -1.6029525 0.056258675 209 28871990 58 29 1 1661
-0.37123799 -1.6061538 0.040662695 205 28871990 56 30 36 1649
-0.29818293 -1.5453188 0.023514716 230 28871990 57 31 55 1574
-0.69767696 -2.2586436 0.016503699 296 28871990 166 32 88 2364
-0.43376052 -1.6085367 -0.0042161876 227 28871990 63 33 34 1666
-0.3692677 -1.5967404 -0.019566003 232 28871990 62 34 95 1639
-0.30180609 -1.5586845 -0.034060143 243 28871990 61 35 67 1588
-0.70942205 -2.2926931 -0.07127054 418 28871990 241 36 143 2401
-0.43356508 -1.6031362 -0.064959966 188 28871990 52 37 36 1662
-0.36929986 -1.5938377 -0.079644717 246 28871990 66 38 113 1638
-0.30456489 -1.5730793 -0.093201272 257 28871990 66 39 60 1605
-0.71884525 -2.3167019 -0.16098486 425 28871990 251 40 92 2431
-0.61278498 -2.2617407 -0.17754968 395 28871990 218 41 102 2350
-0.36478767 -1.5723671 -0.137812 258 28871990 68 42 170 1620
-0.30722055 -1.582208 -0.15295212 256 28871990 67 43 64 1619
-0.71860474 -2.3130736 -0.25004619 454 28871990 269 44 106 2435
-0.6162672 -2.2709813 -0.26510841 388 28871990 218 45 80 2368
-0.51711899 -2.2236807 -0.27898464 417 28871990 221 46 106 2300
-0.2911934 -1.4977113 -0.20146568 257 28871990 61 47 149 1539
-0.71292245 -2.2880163 -0.33633882 442 28871990 259 48 115 2420
-0.61688131 -2.2693262 -0.35284531 382 28871990 216 49 73 2378
-0.52613026 -2.2570732 -0.37042847 410 28871990 226 50 65 2347
-0.42566696 -2.1860979 -0.37797454 362 28871990 185 51 75 2259
-0.72339344 -2.3143659 -0.43218219 453 28871990 275 52 87 2463
-0.61497152 -2.2577856 -0.43974447 408 28871990 231 53 76 2381
-0.53007728 -2.2707787 -0.4612067 400 28871990 226 54 86 2377
-0.43893057 -2.2544255 -0.47814447 409 28871990 225 55 71 2346
-0.72667551 -2.3203144 -0.52747375 444 28871990 275 56 130 2488
-0.62425917 -2.2871604 -0.53755003 406 28871990 240 57 92 2431
-0.52135032 -2.2314582 -0.54296708 410 28871990 228 58 70 2355
-0.42891151 -2.2019415 -0.55516702 438 28871990 234 59 78 2311
-0.7252534 -2.306314 -0.62043458 342 28871990 213 60 37 2496
-0.62549162 -2.2841411 -0.63155532 421 28871990 253 61 58 2451
-0.52704602 -2.2538834 -0.64174503 421 28871990 243 62 55 2402
-0.43645856 -2.2456985 -0.65992683 401 28871990 228 63 62 2381
-0.53197366 -1.6849422 0.55152035 81 28969630 28 0 60 1851
-0.44138831 -1.6090227 0.50078589 95 28969630 29 1 63 1742
-0.37123281 -1.5842438 0.4711628 51 28969630 15 2 46 1694
-0.30128121 -1.5456274 0.43987632 106 28969630 28 3 32 1635
-0.51624531 -1.6380125 0.46394712 84 28969630 26 4 57 1779
-0.44754684 -1.628687 0.43829882 85 28969630 26 5 28 1745
-0.3720887 -1.5851561 0.40560395 91 28969630 26 6 78 1678
-0.31367877 -1.6005992 0.38989392 110 28969630 31 7 58 1677
-0.52604461 -1.6702235 0.40353414 90 28969630 29 8 64 1797
-0.4369874 -1.5926529 0.3632904 79 28969630 23 9 17 1691
-0.3911632 -1.6623729 0.35851496 91 28969630 28 10 39 1745
-0.30495954 -1.5489444 0.31602439 105 28969630 27 11 41 1610
-0.51515353 -1.6365407 0.329182 88 28969630 27 12 82 1747
-0.45180294 -1.6441755 0.30959642 84 28969630 25 13 39 1733
-0.37120044 -1.5761776 0.27807167 82 28969630 22 14 83 1643
-0.31634483 -1.6047034 0.26552263 95 28969630 26 15 54 1657
-0.50688541 -1.6101764 0.26012138 91 28969630 26 16 30 1708
-0.45197192 -1.6433311 0.24590451 84 28969630 25 17 77 1722
-0.36387655 -1.5413413 0.21322545 248 28969630 63 18 75 1598
-0.32246065 -1.6304775 0.20781574 84 28969630 24 19 61 1675
-0.5294137 -1.6816375 0.20601365 62 28969630 20 20 79 1775
-0.42212665 -1.5338739 0.17041126 231 28969630 59 21 34 1600
-0.36776009 -1.5545152 0.15575629 244 28969630 63 22 96 1605
-0.30405921 -1.5330745 0.13781126 206 28969630 51 23 122 1569
-0.50917578 -1.6162701 0.13568752 242 28969630 70 24 13 1700
-0.4442929 -1.6127684 0.11794512 229 28969630 64 25 47 1677
-0.3746202 -1.583266 0.099139981 231 28969630 61 26 99 1630
-0.31393167 -1.5779443 0.08282502 220 28969630 57 27 82 1611
-0.4996902 -1.5834596 0.072176643 270 28969630 75 28 24 1662
-0.4446412 -1.6118351 0.056665119 224 28969630 63 29 11 1673
-0.3838594 -1.6155171 0.040958606 222 28969630 61 30 37 1661
-0.31469589 -1.5787617 0.024052536 212 28969630 55 31 46 1610
-0.73680514 -2.3344231 0.017090127 370 28969630 222 32 98 2448
-0.44681752 -1.6174116 -0.0042465562 221 28969630 62 33 35 1678
-0.3762829 -1.5827707 -0.019422751 225 28969630 60 34 99 1627
-0.30901146 -1.5450391 -0.033802763 249 28969630 62 35 69 1576
-0.72709233 -2.2997339 -0.071626745 394 28969630 229 36 137 2413
-0.60026205 -2.1666684 -0.08794219 278 28969630 141 37 57 2250
-0.38184959 -1.6032014 -0.080228195 224 28969630 61 38 86 1650
-0.3142114 -1.5711811 -0.093201272 239 28969630 62 39 66 1605
-0.73304671 -2.3122475 -0.16098486 452 28969630 267 40 125 2431
-0.62665123 -2.2579381 -0.17754968 411 28969630 227 41 86 2350
-0.37442869 -1.5700992 -0.137812 241 28969630 63 42 166 1620
-0.31457397 -1.5685802 -0.15181844 242 28969630 63 43 79 1607
-0.73639518 -2.319998 -0.25127846 471 28969630 282 44 125 2447
-0.63657719 -2.2901354 -0.26779535 404 28969630 231 45 69 2392
-0.54459924 -2.2783911 -0.28626248 416 28969630 232 46 103 2360
-0.32614112 -1.6241994 -0.2187454 85 28969630 24 47 115 1671
-0.73415738 -2.3062458 -0.33967441 445 28969630 266 48 88 2444
-0.63079399 -2.2654984 -0.35284531 377 28969630 213 49 64 2378
-0.53444791 -2.2307556 -0.36664057 423 28969630 228 50 57 2323
-0.44373736 -2.2066422 -0.38199019 407 28969630 212 51 69 2283
-0.73758054 -2.3098838 -0.43218219 450 28969630 273 52 110 2463
-0.6414901 -2.2994089 -0.44860956 402 28969630 237 53 99 2429
-0.54400057 -2.2674835 -0.4612067 376 28969630 213 54 83 2377
-0.44812343 -2.2286546 -0.47325292 445 28969630 240 55 64 2322
-0.7516194 -2.3493204 -0.535106 466 28969630 297 56 125 2524
-0.63828117 -2.283287 -0.53755003 413 28969630 244 57 83 2431
-0.5459376 -2.2736332 -0.55403394 387 28969630 224 58 66 2403
-0.44930607 -2.2335277 -0.56381524 463 28969630 255 59 65 2347
-0.74650061 -2.3239536 -0.62640035 314 28969630 199 60 45 2520
-0.64262599 -2.291424 -0.63464731 434 28969630 263 61 52 2463
-0.54356772 -2.2618506 -0.64495105 403 28969630 235 62 70 2414
-0.44796059 -2.231674 -0.65660095 435 28969630 244 63 51 2369
-0.51769209 -1.6053319 0.52649188 64 29068420 20 0 57 1767
-0.46057832 -1.6394795 0.5111351 94 29068420 30 1 62 1778
-0.38364509 -1.5931422 0.47450042 72 29068420 21 2 52 1706
-0.31988254 -1.5890707 0.45279011 108 29068420 31 3 32 1683
-0.53693622 -1.6678963 0.47333559 76 29068420 25 4 66 1815
-0.47326359 -1.6818154 0.45336926 89 29068420 29 5 25 1805
-0.37088624 -1.5375651 0.39400145 98 29068420 26 6 81 1630
-0.31886435 -1.5757657 0.38431406 121 29068420 33 7 57 1653
-0.54344541 -1.6892276 0.4089236 76 29068420 25 8 63 1821
-0.46894377 -1.6689216 0.38133678 86 29068420 27 9 39 1775
-0.39031577 -1.6142812 0.3486532 79 29068420 23 10 46 1697
-0.31211415 -1.5355132 0.31366894 107 29068420 27 11 45 1598
-0.52879286 -1.6445682 0.3314431 92 29068420 29 12 77 1759
-0.47147772 -1.675469 0.31602773 91 29068420 28 13 32 1769
-0.38642812 -1.5968604 0.28213358 98 29068420 27 14 92 1667
-0.32854736 -1.6143391 0.26744553 93 29068420 26 15 60 1669
-0.56395358 -1.7538145 0.28387955 63 29068420 22 16 36 1864
-0.46848634 -1.6633912 0.24933174 81 29068420 25 17 65 1746
-0.38454103 -1.5853097 0.21963023 256 29068420 69 18 71 1646
-0.3348408 -1.6401348 0.20930456 77 29068420 22 19 80 1687
-0.52147794 -1.6216242 0.1990498 69 29068420 20 20 77 1715
-0.43800336 -1.5542238 0.17296742 243 29068420 64 21 55 1624
-0.38011241 -1.5638349 0.15692084 246 29068420 64 22 86 1617
-0.32544726 -1.5897336 0.14308128 222 29068420 59 23 108 1629
-0.51541936 -1.6017288 0.13472973 241 29068420 69 24 17 1688
-0.4541803 -1.6100119 0.11794512 248 29068420 70 25 22 1677
-0.38432789 -1.5809376 0.099139981 228 29068420 61 26 130 1630
-0.31637639 -1.5407706 0.080974184 227 29068420 56 27 91 1575
-0.52043062 -1.6145955 0.073740043 258 29068420 74 28 1 1698
-0.46104318 -1.6321595 0.057478003 220 29068420 63 29 20 1697
-0.39092001 -1.6014773 0.040662695 192 29068420 52 30 29 1649
-0.32195935 -1.5650483 0.023873262 228 29068420 58 31 64 1598
-0.75111502 -2.3298581 0.017090127 357 29068420 214 32 93 2448
-0.46979842 -1.660827 -0.0043680309 231 29068420 69 33 41 1726
-0.38883436 -1.5920886 -0.019566003 218 29068420 59 34 78 1639
-0.32576087 -1.5783627 -0.034574907 230 29068420 60 35 70 1612
-0.75961941 -2.3523006 -0.073407769 391 29068420 239 36 137 2473
-0.63645089 -2.2436945 -0.091225371 384 29068420 209 37 67 2334
-0.39452803 -1.6124705 -0.080811672 262 29068420 72 38 125 1662
-0.31900352 -1.5457585 -0.091807611 236 29068420 59 39 67 1581
-0.74722064 -2.3077061 -0.16098486 458 29068420 271 40 103 2431
-0.64703506 -2.2770708 -0.17936295 393 29068420 221 41 126 2374
-0.5035395 -2.0555234 -0.18068683 274 29068420 123 42 141 2124
-0.3241927 -1.5666205 -0.15181844 287 29068420 74 43 55 1607
-0.74693561 -2.3040812 -0.25004619 444 29068420 263 44 113 2435
-0.64408922 -2.2632477 -0.26510841 411 29068420 231 45 72 2368
-0.55572873 -2.2634387 -0.28480691 427 29068420 235 46 116 2348
-0.35058275 -1.6920636 -0.22817068 66 29068420 20 47 110 1743
-0.7593168 -2.3356018 -0.34467781 456 29068420 281 48 86 2480
-0.65769595 -2.3072355 -0.35996753 407 29068420 240 49 64 2426
-0.55661988 -2.2619531 -0.37232247 417 29068420 232 50 70 2359
-0.46447927 -2.2386303 -0.38801369 426 29068420 229 51 67 2319
-0.7517398 -2.3053145 -0.43218219 474 29068420 288 52 93 2463
-0.65882576 -2.3067698 -0.45082584 410 29068420 244 53 87 2441
-0.55790329 -2.2641029 -0.4612067 384 29068420 217 54 90 2377
-0.46178976 -2.225863 -0.47325292 432 29068420 233 55 60 2322
-0.76602042 -2.3446643 -0.535106 442 29068420 281 56 142 2524
-0.65549886 -2.2905786 -0.54020345 394 29068420 235 57 78 2443
-0.55987811 -2.2702405 -0.55403394 396 29068420 229 58 61 2403
-0.46300226 -2.2307289 -0.56381524 455 29068420 251 59 81 2347
-0.7716139 -2.3524628 -0.63534892 283 29068420 185 60 58 2556
-0.65667379 -2.2874377 -0.63464731 442 29068420 268 61 48 2463
-0.55743593 -2.2584729 -0.64495105 403 29068420 235 62 54 2414
-0.46164545 -2.2288833 -0.65660095 416 29068420 233 63 50 2369
-0.55261046 -1.6782873 0.55152035 87 29164930 30 0 53 1851
-0.46110025 -1.6034851 0.50078589 75 29164930 23 1 59 1742
-0.40448228 -1.6355158 0.48785096 61 29164930 19 2 28 1754
-0.32962689 -1.587078 0.45279011 99 29164930 28 3 28 1683
-0.54716015 -1.6645703 0.47333559 97 29164930 32 4 56 1815
-0.47714433 -1.6565568 0.44734108 73 29164930 23 5 18 1781
-0.39991257 -1.6143782 0.41430584 80 29164930 24 6 99 1714
-0.31898725 -1.5280799 0.37315428 97 29164930 25 7 50 1605
-0.54285181 -1.6525329 0.40083945 91 29164930 29 8 58 1785
-0.46297777 -1.6096969 0.3684465 93 29164930 27 9 31 1715
-0.40021345 -1.6118559 0.3486532 100 29164930 29 10 49 1697
-0.33601695 -1.6026661 0.3278017 103 29164930 29 11 36 1670
-0.55357873 -1.6860807 0.3404876 89 29164930 29 12 112 1807
-0.47194549 -1.6385075 0.30959642 75 29164930 22 13 43 1733
-0.40477562 -1.6288927 0.28822646 77 29164930 22 14 93 1703
-0.32627955 -1.5543314 0.25783098 108 29164930 28 15 62 1609
-0.56360471 -1.7165166 0.27839687 71 29164930 24 16 47 1828
-0.47539398 -1.6490731 0.24761812 84 29164930 25 17 57 1734
-0.39426106 -1.5829203 0.21963023 245 29164930 66 18 61 1646
-0.33999151 -1.6147459 0.2063269 108 29164930 30 19 71 1663
