# .PCD v0.7 - Point Cloud Data file format
VERSION 0.7
FIELDS x y z intensity t reflectivity ring noise range
SIZE 4 4 4 4 4 2 1 2 4
TYPE F F F F U U U U U
COUNT 1 1 1 1 1 1 1 1 1
WIDTH 832
HEIGHT 1
VIEWPOINT 0 0 0 1 0 0 0
POINTS 832
DATA ascii
2.8668978 -2.1441236 -0.91872048 346 9282700 472 60 44 3696
3.1118679 -2.1507795 -1.0087878 352 9282700 539 61 42 3915
3.3956969 -2.163084 -1.1162409 309 9282700 539 62 57 4178
3.7458513 -2.19192 -1.2519486 326 9282700 664 63 40 4517
0 -0 0 6 9379800 0 0 59 0
0 -0 0 7 9379800 0 1 79 0
0 -0 0 3 9379800 0 2 26 0
0 -0 0 0 9379800 0 3 29 0
0 -0 0 8 9379800 0 4 50 0
0 -0 0 6 9379800 0 5 26 0
1.0682597 -0.68176287 0.31568462 74 9379800 13 6 79 1306
1.0340832 -0.60727543 0.28666618 88 9379800 13 7 47 1233
1.9728667 -1.4768597 0.56791198 171 9379800 109 8 53 2529
1.0304422 -0.71295339 0.27563667 29 9379800 5 9 18 1283
1.063028 -0.67923367 0.2648285 64 9379800 11 10 39 1289
1.0360841 -0.609667 0.24064963 64 9379800 10 11 26 1226
0.97736549 -0.73140228 0.23421477 24 9379800 4 12 91 1243
1.0038555 -0.69512844 0.22170176 61 9379800 9 13 29 1241
0.95580214 -0.61097896 0.19480249 52 9379800 7 14 76 1151
1.0419847 -0.613482 0.19629766 62 9379800 9 15 32 1225
1.0856465 -0.81246287 0.20894997 16 9379800 3 16 35 1372
1.0202299 -0.70680958 0.17907332 46 9379800 7 17 60 1254
1.0033599 -0.64214432 0.1603861 72 9379800 10 18 50 1202
1.0624787 -0.62642241 0.15421788 54 9379800 8 19 56 1243
2.5947559 -1.9419025 0.37871695 210 9379800 224 20 67 3263
1.1899021 -0.82463408 0.15507425 21 9379800 4 21 51 1456
1.0634795 -0.68132716 0.12314937 25 9379800 4 22 52 1269
1.0165194 -0.60006684 0.10408307 56 9379800 8 23 106 1185
2.610884 -1.9547547 0.26115856 337 9379800 361 24 73 3272
2.8403692 -1.9695532 0.24369699 366 9379800 440 25 80 3465
3.0339954 -1.9439042 0.21956767 377 9379800 491 26 110 3610
1.2199287 -0.72111905 0.07295388 42 9379800 9 27 70 1419
2.5950258 -1.9448615 0.14096594 393 9379800 415 28 64 3246
2.8713727 -1.9925361 0.11844466 316 9379800 386 29 51 3497
1.3266293 -0.85174626 0.038887247 69 9379800 17 30 34 1577
3.3269484 -1.9682572 0.057755966 416 9379800 622 31 66 3866
2.6501217 -1.9863702 0.023121936 343 9379800 376 32 90 3312
2.8566751 -1.9838886 -0.0088018607 391 9379800 474 33 66 3478
3.1155782 -2.0008569 -0.044205558 341 9379800 468 34 88 3703
3.3476462 -1.9834218 -0.083477378 381 9379800 577 35 85 3892
2.668036 -2.0018349 -0.099054478 353 9379800 393 36 119 3337
2.8989851 -2.0164232 -0.13812786 359 9379800 448 37 46 3534
3.1306021 -2.012358 -0.18116985 423 9379800 588 38 176 3726
3.3883219 -2.0074415 -0.22908349 402 9379800 626 39 77 3945
2.7048564 -2.0327835 -0.22455765 429 9379800 494 40 90 3391
1.2651461 -0.88083947 -0.11680502 112 9379800 27 41 76 1546
3.157583 -2.0309477 -0.32054049 400 9379800 568 42 118 3768
3.4411454 -2.0412536 -0.37968779 397 9379800 642 43 60 4019
2.7466471 -2.0656915 -0.35478833 410 9379800 490 44 99 3455
2.9383175 -2.0475123 -0.40348426 369 9379800 480 45 73 3604
3.1913462 -2.0550272 -0.46384224 363 9379800 531 46 107 3824
3.4604652 -2.0538571 -0.53135097 383 9379800 631 47 114 4059
2.7778058 -2.0927708 -0.48810825 238 9379800 293 48 46 3512
2.9800649 -2.0785353 -0.54514456 352 9379800 476 49 60 3674
3.2426035 -2.0904362 -0.61664426 366 9379800 559 50 71 3907
3.5322745 -2.0978115 -0.69722003 371 9379800 645 51 91 4167
1.2093139 -0.91277337 -0.27004805 105 9379800 25 52 163 1539
3.0209713 -2.1093407 -0.69239902 383 9379800 539 53 67 3749
3.265218 -2.106468 -0.76854849 363 9379800 570 54 93 3961
3.5808485 -2.1265748 -0.86701894 365 9379800 661 55 59 4254
2.8006463 -2.1163454 -0.76152956 382 9379800 493 56 131 3592
3.046222 -2.1293449 -0.84269971 348 9379800 505 57 54 3811
3.3185189 -2.1417558 -0.93584007 370 9379800 609 58 41 4059
3.6212699 -2.1510077 -1.0423496 367 9379800 692 59 75 4339
2.8444228 -2.1546557 -0.91573763 388 9379800 527 60 58 3684
3.0891147 -2.163182 -1.0056957 311 9379800 473 61 48 3903
3.3823605 -2.1838789 -1.1162409 303 9379800 528 62 57 4178
3.6827543 -2.1854427 -1.2353188 312 9379800 621 63 69 4457
0 -0 0 4 9477450 0 0 52 0
0 -0 0 5 9477450 0 1 58 0
0 -0 0 3 9477450 0 2 31 0
1.105378 -0.65678382 0.35916507 9 9477450 2 3 28 1335
1.0360643 -0.78586173 0.35128546 10 9477450 2 4 74 1347
1.0594146 -0.74325949 0.33581978 9 9477450 2 5 28 1337
0.98584092 -0.63770956 0.2924796 58 9477450 9 6 74 1210
1.0503929 -0.62555277 0.29224607 89 9477450 14 7 40 1257
1.9730856 -1.4960022 0.57060671 172 9477450 111 8 93 2541
0.99725807 -0.69908071 0.26790252 28 9477450 4 9 20 1247
1.0292684 -0.66659164 0.25743222 80 9477450 12 10 56 1253
1.0020107 -0.59792435 0.23358324 77 9477450 11 11 29 1190
1.0198195 -0.77297938 0.2455204 41 9477450 7 12 88 1303
0.95124406 -0.6673696 0.21098292 57 9477450 8 13 46 1181
0.96196097 -0.62326312 0.19683346 58 9477450 8 14 71 1163
0.97718006 -0.58343112 0.18476015 73 9477450 10 15 26 1153
1.3358359 -1.0125428 0.25829384 17 9477450 5 16 25 1696
0.99643123 -0.69940925 0.17564607 39 9477450 6 17 59 1230
0.99940085 -0.64828873 0.1603861 69 9477450 10 18 66 1202
1.0177352 -0.6084885 0.14826256 50 9477450 7 19 62 1195
2.1553607 -1.6337892 0.31604233 10 9477450 8 20 79 2723
1.0774049 -0.7564984 0.14101532 22 9477450 4 21 53 1324
1.0793127 -0.70084852 0.12547845 30 9477450 5 22 60 1293
0.97179276 -0.58173412 0.099867053 62 9477450 8 23 109 1137
2.5702469 -1.9490551 0.25828516 324 9477450 340 24 72 3236
2.7792573 -1.9525384 0.23947713 365 9477450 424 25 78 3405
2.9818289 -1.9363899 0.21664822 396 9477450 502 26 120 3562
1.2668756 -0.75939804 0.076038614 32 9477450 7 27 75 1479
2.6021419 -1.975245 0.1420082 381 9477450 407 28 46 3270
2.8002267 -1.9687304 0.11600599 319 9477450 374 29 31 3425
3.0508165 -1.9852808 0.089783438 59 9477450 78 30 38 3641
3.2324958 -1.9392525 0.056321777 444 9477450 632 31 79 3770
2.609211 -1.9808264 0.022870611 321 9477450 345 32 80 3276
2.8346345 -1.9944742 -0.0087714922 375 9477450 451 33 86 3466
3.0429041 -1.980661 -0.04334604 184 9477450 243 34 110 3631
3.325129 -1.9977466 -0.083219998 373 9477450 562 35 79 3880
2.6366026 -2.003653 -0.098342068 358 9477450 393 36 129 3313
2.8277488 -1.9927299 -0.13531372 394 9477450 472 37 51 3462
3.0780256 -2.0053582 -0.17883594 448 9477450 605 38 162 3678
3.3451335 -2.009686 -0.22699301 375 9477450 574 39 69 3909
2.6637497 -2.0275855 -0.22217368 415 9477450 467 40 105 3355
1.220606 -0.86099696 -0.11317848 63 9477450 14 41 76 1498
3.1250296 -2.037225 -0.31849882 401 9477450 562 42 120 3744
3.3671339 -2.0253832 -0.37288573 420 9477450 655 43 59 3947
2.7149296 -2.0680397 -0.35232383 381 9477450 449 44 121 3431
2.9062159 -2.0517483 -0.40079737 319 9477450 409 45 83 3580
3.148752 -2.0550396 -0.45947555 375 9477450 538 46 101 3788
3.4070256 -2.0505128 -0.52506745 394 9477450 634 47 102 4011
2.7176762 -2.0737317 -0.47976926 375 9477450 447 48 98 3452
2.9575634 -2.0899332 -0.54336399 351 9477450 471 49 62 3662
3.1999564 -2.0908484 -0.61096239 383 9477450 573 50 44 3871
3.4889312 -2.101135 -0.69119644 410 9477450 700 51 71 4131
1.1755339 -0.89865178 -0.26373115 143 9477450 32 52 68 1503
2.9598315 -2.0937827 -0.68131769 381 9477450 519 53 93 3689
3.2226732 -2.1071365 -0.76156348 360 9477450 555 54 79 3925
3.5274761 -2.124264 -0.85723597 339 9477450 600 55 69 4206
2.7969205 -2.1406174 -0.76407367 361 9477450 469 56 114 3604
3.0330994 -2.1479962 -0.84269971 336 9477450 489 57 69 3811
3.2564557 -2.1301177 -0.92200649 347 9477450 554 58 45 3999
3.5581119 -2.143136 -1.0279359 382 9477450 700 59 72 4279
2.8311484 -2.1720684 -0.91573763 387 9477450 525 60 43 3684
3.0474133 -2.1619689 -0.99641949 336 9477450 503 61 62 3867
3.3301926 -2.1792636 -1.1034167 313 9477450 535 62 65 4130
3.6297591 -2.1842194 -1.222015 302 9477450 586 63 54 4409
1.037433 -0.79781026 0.40850049 17 9576410 3 0 51 1371
0 -0 0 0 9576410 0 1 65 0
0 -0 0 0 9576410 0 2 32 0
0.84393841 -0.50847614 0.27522534 10 9576410 1 3 33 1023
0 -0 0 9 9576410 0 4 55 0
0 -0 0 0 9576410 0 5 29 0
1.0500751 -0.68843645 0.31278396 69 9576410 12 6 64 1294
0.95661771 -0.57768655 0.26713663 120 9576410 16 7 44 1149
1.9360459 -1.4867146 0.56252259 159 9576410 100 8 86 2505
1.0885023 -0.77304739 0.29368302 22 9576410 4 9 22 1367
1.0251589 -0.67289454 0.25743222 60 9576410 9 10 29 1253
1.0285244 -0.62233543 0.24064963 51 9576410 8 11 22 1226
1.1178875 -0.85816115 0.27039275 18 9576410 4 12 86 1435
0.94713128 -0.67319375 0.21098292 32 9576410 4 13 35 1181
0.96800458 -0.63564557 0.19886442 65 9576410 9 14 69 1175
1.0445106 -0.632357 0.19822058 67 9576410 10 15 35 1237
1.2637452 -0.97016579 0.24550098 9 9576410 2 16 41 1612
0.96308327 -0.684861 0.17050521 23 9576410 3 17 68 1194
0.98546678 -0.64787555 0.15878491 49 9576410 7 18 44 1190
0.99361795 -0.60237581 0.14528491 50 9576410 7 19 71 1171
2.3154695 -1.7776293 0.34111217 10 9576410 9 20 61 2939
2.7158864 -1.9319444 0.35701159 236 9576410 266 21 68 3352
1.1747593 -0.77311522 0.13712376 30 9576410 6 22 59 1413
1.0090791 -0.6124959 0.10408307 70 9576410 10 23 97 1185
2.5677261 -1.9720751 0.25924298 180 9576410 190 24 79 3248
2.757472 -1.9626137 0.23863316 337 9576410 388 25 69 3393
2.9298701 -1.9283096 0.21372876 368 9576410 455 26 94 3514
3.2489288 -1.9746906 0.19572617 63 9576410 92 27 63 3807
2.5614595 -1.9692531 0.14044482 398 9576410 416 28 56 3234
2.7978625 -1.9928331 0.11641244 307 9576410 362 29 53 3437
3.0185485 -1.9907534 0.089191616 336 9576410 439 30 28 3617
3.2102849 -1.9528145 0.056142502 453 9576410 640 31 78 3758
2.5779819 -1.9821702 0.022703059 344 9576410 364 32 96 3252
2.7930286 -1.9909335 -0.0086803855 371 9576410 437 33 65 3430
1.2478346 -0.82317424 -0.017846966 68 9576410 15 34 90 1495
3.2718256 -1.9931453 -0.082190469 394 9576410 579 35 61 3832
2.6147535 -2.0124774 -0.097985864 365 9576410 398 36 125 3301
2.8057091 -2.0030758 -0.13484469 380 9576410 453 37 77 3450
3.0256543 -1.9977897 -0.17650203 398 9576410 524 38 149 3630
3.3429706 -2.0364058 -0.22768985 381 9576410 586 39 74 3921
2.6228099 -2.0219603 -0.21978968 408 9576410 450 40 104 3319
2.8605795 -2.0442097 -0.26640007 284 9576410 354 41 62 3526
3.092519 -2.0431798 -0.31645718 400 9576410 553 42 151 3720
3.3138466 -2.0211236 -0.36835101 398 9576410 606 43 70 3899
2.6549342 -2.0482032 -0.3461625 415 9576410 472 44 89 3371
1.2059245 -0.8625018 -0.16703622 71 9576410 16 45 90 1492
3.1162136 -2.0611789 -0.4565644 367 9576410 520 46 91 3764
3.3842244 -2.0651822 -0.52349657 407 9576410 651 47 108 3999
2.6954978 -2.0831013 -0.47810146 386 9576410 457 48 107 3440
2.9157357 -2.0873175 -0.53802234 360 9576410 474 49 65 3626
3.1475475 -2.0842743 -0.60338646 393 9576410 575 50 59 3823
3.425487 -2.091675 -0.68115729 384 9576410 637 51 62 4071
2.7299948 -2.1136451 -0.61537272 103 9576410 127 52 105 3507
2.9181702 -2.091295 -0.67466885 348 9576410 465 53 81 3653
3.1900575 -2.1138659 -0.75690675 352 9576410 536 54 102 3901
3.4742682 -2.1213787 -0.84745288 370 9576410 640 55 69 4158
2.7373893 -2.1218164 -0.7513532 167 9576410 210 56 119 3544
2.9533002 -2.1188123 -0.82412541 352 9576410 489 57 71 3727
3.233592 -2.1436071 -0.91923982 351 9576410 559 58 64 3987
3.5051298 -2.1406426 -1.016405 365 9576410 654 59 62 4231
2.7626972 -2.1466095 -0.8978405 362 9576410 472 60 38 3612
2.9775984 -2.1400254 -0.97786707 346 9576410 498 61 49 3795
3.2589357 -2.1613088 -1.0841804 294 9576410 483 62 53 4058
3.5769184 -2.1824286 -1.208711 279 9576410 530 63 44 4361
0 -0 0 4 9674650 0 0 70 0
1.1025006 -0.79312277 0.40764317 9 9674650 2 1 61 1418
0 -0 0 3 9674650 0 2 29 0
0 -0 0 0 9674650 0 3 34 0
1.1543496 -0.89810896 0.39509833 12 9674650 3 4 48 1515
0 -0 0 8 9674650 0 5 37 0
1.0167353 -0.6755349 0.3040821 79 9674650 13 6 62 1258
1.0127765 -0.62011218 0.28387627 100 9674650 15 7 49 1221
1.97304 -1.5344598 0.57599616 171 9674650 113 8 79 2565
1.0171444 -0.73179966 0.27563667 32 9674650 5 9 25 1283
1.030789 -0.68567663 0.25989768 58 9674650 9 10 39 1265
0.99459779 -0.61017555 0.23358324 56 9674650 8 11 28 1190
1.0846889 -0.84330374 0.26360938 15 9674650 3 12 73 1399
1.0292165 -0.74108499 0.23027685 38 9674650 6 13 28 1289
1.033008 -0.68743879 0.21308109 47 9674650 8 14 59 1259
0.92956746 -0.57059276 0.1770685 60 9674650 7 15 33 1105
1.1454121 -0.89054573 0.22357036 15 9674650 3 16 41 1468
1.161236 -0.83654553 0.20649125 13 9674650 3 17 58 1446
1.0012674 -0.66709822 0.1619873 37 9674650 5 18 55 1214
1.0710567 -0.65834367 0.15719554 58 9674650 9 19 47 1267
0 -0 0 8 9674650 0 20 72 0
2.6555803 -1.9136933 0.35062116 223 9674650 242 21 86 3292
1.1004397 -0.73392105 0.12897204 43 9674650 8 22 65 1329
0.97476107 -0.59988075 0.10092105 65 9674650 9 23 112 1149
2.5933447 -2.0171697 0.26307416 27 9674650 30 24 58 3296
2.7065396 -1.9514929 0.23525727 366 9674650 410 25 73 3345
2.9179831 -1.9462507 0.21372876 363 9674650 448 26 113 3514
3.195941 -1.9694399 0.19325837 166 9674650 235 27 94 3759
2.5209498 -1.9628371 0.13888142 406 9674650 416 28 58 3198
2.7369537 -1.9748749 0.11438021 316 9674650 360 29 54 3377
2.9763553 -1.9892395 0.088303894 353 9674650 452 30 41 3581
3.1676044 -1.9535801 0.055604681 439 9674650 609 31 71 3722
2.5468354 -1.9832062 0.022535508 337 9674650 351 32 82 3228
2.7710314 -2.0010087 -0.0086500179 391 9674650 457 33 65 3418
1.3225628 -0.88416529 -0.01899299 48 9674650 12 34 74 1591
3.2391195 -2.0005746 -0.081675708 404 9674650 586 35 74 3808
2.5645151 -1.9989871 -0.096561052 332 9674650 351 36 122 3253
2.7739336 -2.0061998 -0.13390665 350 9674650 410 37 57 3426
3.0033779 -2.0096517 -0.17591856 351 9674650 459 38 159 3618
3.2692571 -2.0191097 -0.22350885 384 9674650 570 39 62 3849
2.5914781 -2.0232782 -0.21820036 418 9674650 454 40 86 3295
2.79952 -2.0266402 -0.2618669 385 9674650 463 41 89 3466
3.0103774 -2.0155525 -0.30931136 418 9674650 552 42 139 3636
3.3013828 -2.041419 -0.36835101 401 9674650 610 43 60 3899
2.6235046 -2.0497572 -0.34369799 387 9674650 434 44 101 3347
1.2488914 -0.90486693 -0.17375349 84 9674650 20 45 53 1552
3.0936134 -2.0736289 -0.45510882 390 9674650 549 46 112 3752
3.3411384 -2.0671308 -0.51878399 393 9674650 617 47 120 3963
2.6171584 -2.0483322 -0.46642691 429 9674650 483 48 83 3356
2.8644459 -2.077301 -0.53090012 331 9674650 424 49 92 3578
3.0953414 -2.0771368 -0.59581059 376 9674650 535 50 41 3775
3.3622923 -2.081517 -0.67111814 360 9674650 580 51 87 4011
2.6797874 -2.101198 -0.6069501 373 9674650 447 52 70 3459
2.8861959 -2.0953043 -0.67023635 344 9674650 453 53 84 3629
3.157481 -2.1202745 -0.75225008 347 9674650 522 54 95 3877
3.4212306 -2.1179216 -0.83766991 372 9674650 628 55 55 4110
1.1007969 -0.86411858 -0.3035942 143 9674650 29 56 94 1432
2.9118433 -2.1162527 -0.81616497 333 9674650 454 57 71 3691
3.1816075 -2.1373622 -0.90817297 345 9674650 535 58 52 3939
3.4523134 -2.1375804 -1.0048739 376 9674650 658 59 77 4183
2.7220705 -2.1419573 -0.88889194 364 9674650 465 60 47 3576
2.9550381 -2.1514308 -0.97477508 352 9674650 503 61 41 3783
3.21682 -2.1619139 -1.0745623 305 9674650 493 62 54 4022
3.5144327 -2.1740072 -1.1920812 307 9674650 567 63 44 4301
1.2344266 -0.9736414 0.49073693 11 9771310 3 0 39 1647
0 -0 0 6 9771310 0 1 63 0
0 -0 0 0 9771310 0 2 35 0
0 -0 0 0 9771310 0 3 26 0
0 -0 0 7 9771310 0 4 61 0
0 -0 0 6 9771310 0 5 36 0
1.0415478 -0.70127064 0.31278396 74 9771310 12 6 83 1294
1.0089525 -0.62631482 0.28387627 92 9771310 14 7 40 1221
1.9452149 -1.5320667 0.57060671 170 9771310 110 8 65 2541
2.603806 -1.8977015 0.70874929 102 9771310 111 9 15 3299
1.0168242 -0.68542415 0.25743222 53 9771310 8 10 29 1253
1.02081 -0.63491017 0.24064963 77 9771310 12 11 27 1226
1.2554231 -0.98846173 0.30657074 21 9771310 6 12 78 1627
0.99603289 -0.72651273 0.22384553 52 9771310 8 13 48 1253
1.0091593 -0.68053919 0.20901918 63 9771310 10 14 70 1235
0.99644536 -0.62009388 0.1905289 55 9771310 8 15 39 1189
1.0281079 -0.80951339 0.20163977 9 9771310 2 16 31 1324
0 -0 0 7 9771310 0 17 64 0
0.98729867 -0.6665746 0.1603861 53 9771310 8 18 71 1202
1.0063626 -0.62711859 0.14826256 80 9771310 11 19 53 1195
2.4714031 -1.9460075 0.36757475 160 9771310 161 20 68 3167
2.6341512 -1.9229167 0.34934309 11 9771310 12 21 79 3280
1.1157064 -0.75403476 0.13130111 40 9771310 7 22 47 1353
1.1434698 -0.71341664 0.11883915 36 9771310 7 23 105 1353
2.6279013 -2.0700533 0.26786312 18 9771310 21 24 60 3356
2.6655152 -1.9468821 0.23272535 358 9771310 392 25 78 3309
2.8662915 -1.9372891 0.21080929 335 9771310 403 26 96 3466
1.3848119 -0.86513329 0.084058918 81 9771310 22 27 78 1635
2.4900305 -1.9634222 0.13783915 353 9771310 356 28 69 3174
2.7151024 -1.9845542 0.11397377 330 9771310 373 29 40 3365
2.9243627 -1.9805565 0.087120265 352 9771310 439 30 41 3533
3.1352105 -1.9602574 0.055246137 429 9771310 587 31 75 3698
2.5346189 -1.9987959 0.022535508 360 9771310 375 32 84 3228
2.7296453 -1.9967195 -0.0085589113 353 9771310 404 33 69 3382
2.9860625 -2.0228758 -0.043059532 289 9771310 376 34 88 3607
3.1657727 -1.9822108 -0.080131419 398 9771310 556 35 72 3736
2.5427864 -2.0072529 -0.096204847 362 9771310 380 36 114 3241
2.7422261 -2.0090096 -0.13296859 368 9771310 426 37 65 3402
1.2450058 -0.84417677 -0.073226459 76 9771310 17 38 118 1506
3.2466528 -2.032774 -0.22281201 400 9771310 590 39 59 3837
2.5602298 -2.0242887 -0.21661104 409 9771310 438 40 96 3271
2.748435 -2.0154757 -0.25824034 392 9771310 458 41 77 3418
2.988059 -2.0272729 -0.30829051 384 9771310 504 42 155 3624
3.2584288 -2.0426021 -0.36494997 380 9771310 566 43 55 3863
2.6015177 -2.0584097 -0.34246576 385 9771310 428 44 95 3335
2.8391178 -2.0837281 -0.39676699 155 9771310 194 45 51 3544
3.0414181 -2.0658014 -0.44928655 372 9771310 511 46 102 3704
3.2880781 -2.0623076 -0.51250041 367 9771310 562 47 147 3915
2.6417928 -2.093878 -0.47309807 409 9771310 474 48 99 3404
2.8516457 -2.0948379 -0.53090012 109 9771310 140 49 96 3578
3.0629406 -2.0827641 -0.59202266 354 9771310 497 50 55 3751
3.349457 -2.1021085 -0.67111814 376 9771310 604 51 53 4011
2.6668441 -2.1176014 -0.6069501 372 9771310 445 52 95 3459
2.882786 -2.119961 -0.67245263 377 9771310 500 53 72 3641
3.0957491 -2.1064963 -0.74060833 352 9771310 513 54 68 3817
3.3584166 -2.1076498 -0.82544118 362 9771310 594 55 71 4050
1.113834 -0.88545203 -0.30868238 105 9771310 22 56 89 1456
2.9082279 -2.1410177 -0.81881845 324 9771310 445 57 74 3703
3.1298232 -2.1305611 -0.89710617 315 9771310 476 58 57 3891
3.4095347 -2.1401448 -0.99622577 352 9771310 606 59 79 4147
2.6816058 -2.1368883 -0.87994331 237 9771310 298 60 65 3540
2.9324498 -2.1626403 -0.97168297 366 9771310 520 61 57 3771
3.1843781 -2.1685929 -1.06815 326 9771310 520 62 49 3998
3.4619551 -2.1710279 -1.1787775 297 9771310 538 63 64 4253
0 -0 0 5 9868980 0 0 45 0
0 -0 0 7 9868980 0 1 55 0
0 -0 0 3 9868980 0 2 35 0
0 -0 0 0 9868980 0 3 36 0
0 -0 0 9 9868980 0 4 47 0
0 -0 0 0 9868980 0 5 39 0
1.0083688 -0.68796098 0.3040821 45 9868980 7 6 74 1258
1.0248466 -0.64492607 0.28945613 94 9868980 15 7 37 1245
1.9814867 -1.580431 0.58408034 182 9868980 123 8 79 2601
2.5449693 -1.8788383 0.69585901 269 9868980 283 9 58 3239
0.98350632 -0.6717785 0.25003591 26 9868980 4 10 43 1217
1.0268483 -0.64743739 0.24300508 66 9868980 10 11 18 1238
0 -0 0 7 9868980 0 12 71 0
1.0580294 -0.78172415 0.23885193 55 9868980 10 13 31 1337
0.97567004 -0.66670072 0.20292631 80 9868980 12 14 71 1199
1.0928023 -0.68939525 0.20975806 53 9868980 9 15 52 1309
1.2271274 -0.9784748 0.24184588 9 9868980 2 16 30 1588
0 -0 0 4 9868980 0 17 67 0
1.0322678 -0.70619506 0.16839208 38 9868980 6 18 58 1262
1.0024958 -0.63328171 0.14826256 75 9868980 11 19 64 1195
2.4221406 -1.9314116 0.36200371 355 9868980 345 20 55 3119
2.1618009 -1.5985284 0.28799504 14 9868980 11 21 63 2704
1.1701838 -0.80135596 0.1382883 24 9868980 5 22 40 1425
1.0986603 -0.69486129 0.11462313 28 9868980 5 23 119 1305
2.5590446 -2.0413826 0.26211634 42 9868980 45 24 57 3284
2.6246505 -1.9418423 0.23019344 387 9868980 415 25 70 3273
2.8741152 -1.9683762 0.21226904 355 9868980 432 26 120 3490
1.1871099 -0.75178891 0.072336935 49 9868980 10 27 103 1407
2.4779363 -1.9786637 0.13783915 94 9868980 95 28 68 3174
2.6546803 -1.9654942 0.11194155 280 9868980 305 29 35 3305
2.8824813 -1.9780991 0.086232536 332 9868980 407 30 59 3497
3.1231234 -1.9794577 0.055246137 307 9868980 420 31 100 3698
2.4941769 -1.991846 0.022284184 341 9868980 348 32 95 3192
2.6884172 -1.9919986 -0.0084678056 345 9868980 387 33 72 3346
2.9142377 -2.0004158 -0.042200014 309 9868980 387 34 81 3535
3.1535504 -2.0015984 -0.080131419 404 9868980 564 35 79 3736
2.5210531 -2.0153277 -0.095848635 343 9868980 357 36 127 3229
2.6913311 -1.9972152 -0.13109249 341 9868980 383 37 50 3354
1.2595605 -0.86537462 -0.074393421 65 9868980 15 38 76 1530
3.1633172 -2.00772 -0.21793419 404 9868980 570 39 70 3753
2.5197208 -2.0175085 -0.21422707 416 9868980 436 40 92 3235
2.7360165 -2.0323019 -0.25824034 385 9868980 450 41 98 3418
2.9657111 -2.0387959 -0.30726972 364 9868980 475 42 135 3612
3.205503 -2.0369287 -0.36041528 397 9868980 578 43 63 3815
2.5608931 -2.0519419 -0.33876896 406 9868980 442 44 95 3299
2.77843 -2.0655375 -0.39004973 367 9868980 446 45 59 3484
3.0090609 -2.0709181 -0.4463754 368 9868980 499 46 103 3680
3.2452438 -2.0632951 -0.50778776 366 9868980 551 47 107 3879
2.5825577 -2.0728559 -0.46475911 398 9868980 445 48 73 3344
1.1535847 -0.85837853 -0.21574311 99 9868980 21 49 51 1454
3.0208302 -2.0813496 -0.58634079 339 9868980 468 50 61 3715
3.2766035 -2.0845184 -0.65907115 360 9868980 559 51 58 3939
2.580148 -2.0747006 -0.59010506 427 9868980 483 52 81 3363
2.8129756 -2.0953388 -0.65915501 360 9868980 459 53 84 3569
3.0343072 -2.0920415 -0.72896659 346 9868980 489 54 63 3757
3.3156841 -2.1092994 -0.81810397 381 9868980 615 55 69 4014
2.670465 -2.1497817 -0.74372095 315 9868980 388 56 117 3508
2.8387461 -2.1168466 -0.80289763 320 9868980 422 57 63 3631
3.1070793 -2.1430953 -0.89433944 315 9868980 473 58 48 3879
3.376683 -2.1485183 -0.99046028 355 9868980 604 59 79 4123
1.1306965 -0.9124161 -0.37285736 135 9868980 30 60 63 1500
2.872679 -2.1458976 -0.95622259 321 9868980 441 61 57 3711
3.1234231 -2.1552534 -1.0521199 295 9868980 457 62 57 3938
3.4485688 -2.192229 -1.1787775 294 9868980 533 63 58 4253
0 -0 0 6 9966670 0 0 56 0
0 -0 0 8 9966670 0 1 63 0
0 -0 0 2 9966670 0 2 30 0
0 -0 0 8 9966670 0 3 32 0
0 -0 0 7 9966670 0 4 47 0
0 -0 0 5 9966670 0 5 37 0
1.0807554 -0.74710584 0.32728711 43 9966670 8 6 73 1354
1.0208701 -0.65120232 0.28945613 93 9966670 14 7 38 1245
1.9444613 -1.5705171 0.57599616 187 9966670 123 8 77 2565
2.4864638 -1.8593259 0.6829688 302 9966670 306 9 68 3179
1.0083364 -0.69785053 0.25743222 23 9966670 4 10 47 1253
0.98319799 -0.62837946 0.23358324 66 9966670 9 11 28 1190
1.2431986 -1.0037932 0.30657074 14 9966670 4 12 77 1627
1.0626658 -0.79527581 0.24099572 56 9966670 10 13 29 1349
1.0104558 -0.69960427 0.21105015 60 9966670 9 14 62 1247
0.98876083 -0.6322751 0.1905289 72 9966670 10 15 32 1189
1.2580104 -1.015789 0.24915607 10 9966670 3 16 26 1636
0 -0 0 8 9966670 0 17 51 0
0.91062534 -0.63121432 0.14917776 15 9966670 2 18 42 1118
0.96850801 -0.62015808 0.14379607 56 9966670 8 19 60 1159
2.3731513 -1.9162855 0.35643262 384 9966670 362 20 88 3071
2.295203 -1.7190547 0.30716628 17 9966670 14 21 82 2884
2.8431973 -1.9727912 0.33742344 102 9966670 123 22 49 3477
1.2553877 -0.80481184 0.13148722 30 9966670 7 23 92 1497
2.4441156 -1.9743634 0.25158063 135 9966670 134 24 40 3152
2.603107 -1.9507319 0.22934946 364 9966670 387 25 77 3261
2.8226209 -1.95866 0.20934957 367 9966670 435 26 112 3442
3.0280428 -1.943773 0.18523808 372 9966670 483 27 89 3603
2.4937155 -2.0164449 0.13940254 17 9966670 18 28 69 3210
2.6617601 -1.9961369 0.11275444 288 9966670 319 29 36 3329
2.8505907 -1.9820515 0.085640714 333 9966670 401 30 31 3473
1.3644972 -0.87660968 0.02423181 83 9966670 22 31 81 1622
2.4539168 -1.9844759 0.022032859 342 9966670 341 32 82 3156
2.6569488 -1.9940507 -0.0084070684 397 9966670 438 33 52 3322
2.8526542 -1.9840034 -0.041483749 331 9966670 400 34 83 3475
3.1109409 -2.0014372 -0.079359278 399 9966670 546 35 98 3700
2.4993169 -2.023212 -0.095492437 340 9966670 352 36 121 3217
2.6790257 -2.0136912 -0.13109249 352 9966670 397 37 67 3354
2.9166925 -2.0303547 -0.17300116 228 9966670 289 38 100 3558
3.1610134 -2.0335734 -0.21863101 379 9966670 538 39 83 3765
2.5258954 -2.0480132 -0.21581638 424 9966670 450 40 97 3259
2.6852481 -2.0202758 -0.25461379 393 9966670 446 41 97 3370
1.2362003 -0.86105084 -0.12862453 69 9966670 16 42 198 1512
3.1728575 -2.0436211 -0.35814792 432 9966670 620 43 47 3791
2.538985 -2.0600958 -0.33753669 421 9966670 455 44 87 3287
2.7275999 -2.0538549 -0.38467589 342 9966670 404 45 70 3436
2.9474447 -2.0552771 -0.43909752 381 9966670 500 46 99 3620
3.2125225 -2.0702798 -0.504646 349 9966670 519 47 122 3855
2.5513468 -2.0736728 -0.46142352 415 9966670 458 48 60 3320
2.7972932 -2.1082466 -0.52555847 46 9966670 57 49 49 3542
2.998286 -2.0930631 -0.58444679 383 9966670 525 50 50 3703
3.2538087 -2.0981727 -0.65706336 389 9966670 600 51 75 3927
2.5490472 -2.0755744 -0.58589375 414 9966670 462 52 94 3339
2.7624075 -2.0841472 -0.65028995 204 9966670 253 53 105 3521
3.0407145 -2.1241031 -0.73362327 357 9966670 511 54 68 3781
3.2928057 -2.1232378 -0.81565821 386 9966670 618 55 47 4002
2.5663269 -2.0920291 -0.71828014 384 9966670 441 56 118 3388
2.8070266 -2.1201181 -0.79759061 335 9966670 436 57 71 3607
3.0364442 -2.1219876 -0.87773913 324 9966670 470 58 58 3807
3.3047006 -2.1313162 -0.97316384 361 9966670 593 59 63 4051
1.1430779 -0.93404609 -0.37882304 139 9966670 32 60 22 1524
2.8502114 -2.1564877 -0.95313054 328 9966670 448 61 46 3699
3.1006625 -2.167752 -1.0489137 297 9966670 458 62 67 3926
3.3865919 -2.1821227 -1.1621476 288 9966670 505 63 54 4193
0 -0 0 5 10063580 0 0 48 0
0 -0 0 7 10063580 0 1 62 0
0 -0 0 7 10063580 0 2 24 0
0 -0 0 3 10063580 0 3 33 0
0 -0 0 0 10063580 0 4 72 0
0 -0 0 6 10063580 0 5 29 0
1.9059156 -1.3348804 0.5796414 114 10063580 66 6 62 2398
1.0658603 -0.68913853 0.30340582 92 10063580 16 7 52 1305
1.9890981 -1.6268373 0.59216446 168 10063580 117 8 64 2637
2.4750085 -1.8745476 0.6829688 302 10063580 306 9 86 3179
0.99441987 -0.69728202 0.2549668 35 10063580 5 10 40 1241
1.0089505 -0.65359235 0.24064963 67 10063580 10 11 27 1226
1.4377365 -1.1755145 0.35631546 13 10063580 5 12 72 1891
1.0859941 -0.82317793 0.24742703 32 10063580 6 13 24 1385
1.0255085 -0.7193749 0.21511205 65 10063580 11 14 76 1271
0.96498322 -0.62544543 0.18668309 65 10063580 9 15 49 1165
1.2333908 -1.0084743 0.24550098 8 10063580 2 16 18 1612
2.569351 -1.9484726 0.4652479 26 10063580 28 17 75 3258
1.0040592 -0.70513946 0.16518968 21 10063580 3 18 62 1238
0.99464887 -0.64553618 0.14826256 38 10063580 5 19 63 1195
2.3613486 -1.9308108 0.35643262 364 10063580 343 20 99 3071
2.5888042 -1.9638656 0.34806499 93 10063580 100 21 71 3268
2.2936544 -1.6124223 0.27337414 14 10063580 11 22 61 2817
1.1702381 -0.76039541 0.12305517 41 10063580 8 23 115 1401
2.3949203 -1.9590288 0.24774943 281 10063580 270 24 53 3104
2.5720189 -1.9521935 0.22766152 340 10063580 356 25 88 3237
2.7909527 -1.9621649 0.20788984 346 10063580 404 26 138 3418
2.9758782 -1.9361737 0.1827703 380 10063580 481 27 76 3555
2.4163649 -1.9785421 0.13575463 24 10063580 23 28 45 3126
2.6017094 -1.9761605 0.11072221 318 10063580 339 29 39 3269
2.8089538 -1.978779 0.084752999 331 10063580 391 30 47 3437
1.3289279 -0.86532396 0.023693988 57 10063580 14 31 69 1586
2.43241 -1.9918927 0.021949083 263 10063580 260 32 87 3144
2.6255567 -1.9957922 -0.0083463304 341 10063580 372 33 59 3298
2.8698528 -2.0222042 -0.041913506 312 10063580 385 34 71 3511
3.0584037 -1.994276 -0.078329749 390 10063580 520 35 90 3652
2.4775794 -2.0309052 -0.095136233 358 10063580 368 36 108 3205
2.6284568 -2.0010383 -0.1292164 357 10063580 391 37 66 3306
2.865 -2.0205812 -0.17066726 383 10063580 472 38 135 3510
3.1183712 -2.0333011 -0.21654052 409 10063580 569 39 69 3729
2.4762647 -2.0330815 -0.21263775 398 10063580 411 40 94 3211
2.6728015 -2.0367143 -0.25461379 374 10063580 425 41 84 3370
1.2699698 -0.89619505 -0.13270785 75 10063580 18 42 106 1560
3.1102412 -2.0303991 -0.35247952 427 10063580 595 43 60 3731
2.4894052 -2.0453253 -0.33260766 398 10063580 418 44 98 3239
2.6770194 -2.0416276 -0.37930208 394 10063580 453 45 64 3388
2.92505 -2.0664506 -0.43764198 368 10063580 479 46 98 3608
3.1897986 -2.0834467 -0.50307512 357 10063580 527 47 124 3843
2.5202239 -2.0741854 -0.45808795 399 10063580 434 48 75 3296
2.7371397 -2.0893679 -0.51665574 320 10063580 388 49 41 3482
2.9370143 -2.0772092 -0.57497698 401 10063580 533 50 66 3643
3.1814532 -2.0792637 -0.64501637 387 10063580 576 51 67 3855
2.5362637 -2.091176 -0.58589375 395 10063580 441 52 97 3339
1.1284081 -0.86226314 -0.26687559 144 10063580 30 53 81 1445
2.9795792 -2.1087182 -0.72198159 351 10063580 486 54 89 3721
3.2403789 -2.1176941 -0.80587518 366 10063580 573 55 62 3954
2.5624862 -2.1152017 -0.72082418 394 10063580 455 56 126 3400
2.7846699 -2.1301916 -0.79493719 358 10063580 463 57 67 3595
3.0424266 -2.1540735 -0.88327253 326 10063580 478 58 57 3831
3.2915609 -2.1515534 -0.97316384 364 10063580 598 59 76 4051
2.6059971 -2.1562467 -0.86801189 240 10063580 292 60 35 3492
2.8001127 -2.1457257 -0.94076228 367 10063580 489 61 46 3651
3.0495572 -2.160001 -1.0360897 298 10063580 449 62 68 3878
3.3345242 -2.1776435 -1.1488436 297 10063580 509 63 56 4145
1.5275795 -1.2668929 0.6194548 10 10162860 4 0 53 2079
0 -0 0 7 10162860 0 1 71 0
0 -0 0 5 10162860 0 2 32 0
0.99877083 -0.6530422 0.33333749 9 10162860 1 3 28 1239
0 -0 0 5 10162860 0 4 43 0
1.0357368 -0.79513657 0.33883387 9 10162860 2 5 41 1349
1.897689 -1.3465497 0.5796414 165 10162860 95 6 81 2398
1.0323259 -0.67647481 0.29503602 97 10162860 16 7 54 1269
1.9790785 -1.6390115 0.59216446 172 10162860 120 8 73 2637
2.46346 -1.8896986 0.6829688 291 10162860 294 9 78 3179
1.1050121 -0.7849865 0.28455198 28 10162860 5 10 32 1385
1.0442654 -0.68560201 0.25007147 75 10162860 12 11 20 1274
0 -0 0 6 10162860 0 12 99 0
1.2869614 -0.98800212 0.29459 11 10162860 3 13 34 1649
1.0017945 -0.71195143 0.21105015 65 10162860 10 14 85 1247
1.0403275 -0.68338048 0.20206641 61 10162860 10 15 43 1261
0 -0 0 8 10162860 0 16 37 0
2.5667663 -1.9714359 0.46696153 64 10162860 69 17 68 3270
1.0287844 -0.73197061 0.16999327 20 10162860 3 18 52 1274
0.97077292 -0.63853997 0.14528491 38 10162860 5 19 53 1171
2.0556791 -1.7020262 0.31186402 340 10162860 246 20 89 2687
2.5199358 -1.9360967 0.34039649 143 10162860 146 21 93 3196
2.1961629 -1.564109 0.26289332 24 10162860 17 22 53 2709
1.115634 -0.73468953 0.11778515 50 10162860 9 23 117 1341
2.3275824 -1.9279054 0.24200267 336 10162860 308 24 57 3032
2.5505018 -1.9606428 0.22681755 314 10162860 327 25 65 3225
2.7300801 -1.9445088 0.20424052 344 10162860 388 26 121 3358
2.9439325 -1.9412026 0.18153641 386 10162860 482 27 71 3531
2.4318664 -2.0162873 0.13731803 126 10162860 126 28 47 3162
2.5705233 -1.9774619 0.10990933 332 10162860 349 29 41 3245
2.7869947 -1.9890083 0.084457092 330 10162860 387 30 57 3425
2.9960277 -1.9771298 0.053632673 314 10162860 404 31 38 3590
2.5032768 -2.0757155 0.022703059 47 10162860 50 32 106 3252
2.5942445 -1.9972241 -0.0082855932 351 10162860 377 33 70 3274
2.8183265 -2.0118887 -0.041340493 301 10162860 361 34 84 3463
1.2544767 -0.82901388 -0.032258473 69 10162860 16 35 130 1504
2.4281528 -2.0154259 -0.093711413 353 10162860 352 36 131 3157
2.6066334 -2.0098069 -0.12874737 367 10162860 399 37 64 3294
2.8427958 -2.0311546 -0.17008378 391 10162860 478 38 149 3498
3.0458684 -2.0127687 -0.21235953 384 10162860 514 39 75 3657
2.4361212 -2.0252736 -0.21025378 421 10162860 425 40 88 3175
2.660254 -2.053076 -0.25461379 348 10162860 395 41 85 3370
2.8887749 -2.0652251 -0.30318639 114 10162860 145 42 116 3564
3.0877609 -2.0428534 -0.35134584 397 10162860 548 43 54 3719
2.4676323 -2.0529275 -0.33137539 427 10162860 445 44 97 3227
2.6738789 -2.0653043 -0.38064554 361 10162860 417 45 57 3400
2.8929429 -2.0704947 -0.43473083 151 10162860 194 46 121 3584
3.107513 -2.057013 -0.49207893 359 10162860 507 47 108 3759
2.4618039 -2.0515709 -0.44974893 399 10162860 418 48 90 3236
2.6867137 -2.07709 -0.50953358 341 10162860 402 49 51 3434
2.9145813 -2.08829 -0.57308304 372 10162860 490 50 47 3631
3.1587715 -2.0922124 -0.64300853 355 10162860 525 51 71 3843
2.5143161 -2.0991275 -0.5837881 406 10162860 450 52 95 3327
1.1417496 -0.88360679 -0.27130812 87 10162860 19 53 52 1469
2.9570172 -2.1201015 -0.71965319 354 10162860 487 54 89 3709
3.1881454 -2.111588 -0.79609215 379 10162860 579 55 61 3906
2.5494592 -2.1308851 -0.72082418 400 10162860 462 56 125 3400
2.7715468 -2.1472378 -0.79493719 273 10162860 353 57 82 3595
2.9722221 -2.1318669 -0.86667228 312 10162860 441 58 68 3759
3.2394531 -2.145977 -0.96163291 356 10162860 571 59 68 4003
2.5659885 -2.1498022 -0.85906333 366 10162860 437 60 46 3456
2.777734 -2.1557574 -0.93767017 351 10162860 464 61 40 3639
3.0362463 -2.1786721 -1.0360897 329 10162860 495 62 62 3878
3.3018703 -2.1853361 -1.1421918 280 10162860 476 63 58 4121
1.3355619 -1.1215461 0.5443694 12 10259670 4 0 48 1827
1.0090241 -0.78381002 0.38349506 13 10259670 2 1 70 1334
0 -0 0 0 10259670 0 2 29 0
0 -0 0 0 10259670 0 3 34 0
0.92525321 -0.77618873 0.32624951 9 10259670 1 4 59 1251
0 -0 0 6 10259670 0 5 36 0
1.9083009 -1.3717616 0.58544266 179 10259670 105 6 83 2422
1.0281557 -0.6827963 0.29503602 77 10259670 12 7 46 1269
1.9689845 -1.651124 0.59216446 160 10259670 112 8 73 2637
2.4240534 -1.8832083 0.67523462 296 10259670 293 9 64 3143
1.0620458 -0.76431209 0.27469024 33 10259670 6 10 33 1337
0.98126125 -0.65288848 0.2359387 68 10259670 10 11 24 1202
1.2245114 -1.0265064 0.30657074 14 10259670 4 12 85 1627
0 -0 0 8 10259670 0 13 36 0
1.054996 -0.7595461 0.22323586 32 10259670 6 14 61 1319
0.99667507 -0.66349554 0.19437474 53 10259670 8 15 37 1213
0 -0 0 5 10259670 0 16 22 0
2.4889982 -1.936102 0.45496616 144 10259670 146 17 56 3186
0.99533039 -0.71740776 0.16518968 13 10259670 2 18 44 1238
0.97674447 -0.65108901 0.14677374 40 10259670 6 19 48 1183
2.0269296 -1.699293 0.30907851 362 10259670 257 20 81 2663
2.5080087 -1.9515222 0.34039649 144 10259670 147 21 82 3196
2.1090395 -1.5216506 0.25357708 14 10259670 9 22 54 2613
1.2602465 -0.84105408 0.13359523 24 10259670 6 23 102 1521
2.3065441 -1.9344645 0.24104489 408 10259670 373 24 70 3020
2.5384235 -1.9762555 0.22681755 77 10259670 80 25 72 3225
2.6986706 -1.9472065 0.20278078 312 10259670 347 26 108 3334
2.9319661 -1.9592298 0.18153641 389 10259670 485 27 72 3531
2.3827212 -2.0003371 0.13523349 303 10259670 294 28 64 3114
2.5583415 -1.9931971 0.10990933 307 10259670 323 29 50 3245
2.7552946 -1.9920144 0.083865277 279 10259670 322 30 40 3401
2.9539185 -1.9754655 0.053094853 364 10259670 460 31 63 3554
2.352643 -1.9752961 0.021446431 22 10259670 21 32 81 3072
2.5724773 -2.0057259 -0.0082552247 355 10259670 378 33 72 3262
2.7670364 -2.0010183 -0.040767483 312 10259670 364 34 100 3415
1.269303 -0.85004717 -0.032773238 67 10259670 16 35 74 1528
2.4065583 -2.0225697 -0.093355209 353 10259670 349 36 115 3145
2.5658998 -2.0036235 -0.12734029 363 10259670 386 37 74 3258
2.8011513 -2.0274765 -0.16833334 390 10259670 467 38 142 3462
3.0235071 -2.0247543 -0.21166271 402 10259670 535 39 81 3645
2.4144881 -2.0324721 -0.2094591 415 10259670 415 40 88 3163
2.6193235 -2.0472543 -0.25189388 364 10259670 405 41 79 3334
2.7985792 -2.0268061 -0.29501975 350 10259670 421 42 125 3468
3.0454004 -2.0418031 -0.3479448 401 10259670 545 43 58 3683
2.4458601 -2.0603397 -0.33014312 397 10259670 411 44 92 3215
2.6611562 -2.081672 -0.38064554 333 10259670 385 45 74 3400
1.2407936 -0.89960676 -0.18728359 92 10259670 22 46 103 1544
3.0651939 -2.0561595 -0.48736632 382 10259670 529 47 139 3723
2.431005 -2.0513103 -0.44641334 429 10259670 443 48 87 3212
2.6739182 -2.0935364 -0.50953358 318 10259670 374 49 56 3434
2.8633537 -2.0782921 -0.56550711 344 10259670 442 50 65 3583
3.1262283 -2.0983679 -0.63899285 387 10259670 564 51 53 3819
2.4653001 -2.0840085 -0.57536554 424 10259670 456 52 71 3279
2.6957302 -2.1128156 -0.64364111 265 10259670 322 53 79 3485
2.9153786 -2.1174517 -0.71266818 372 10259670 502 54 61 3673
3.145865 -2.1114688 -0.78875488 370 10259670 554 55 46 3870
2.509481 -2.1237605 -0.71319193 373 10259670 422 56 88 3364
1.1470619 -0.89999551 -0.33057889 104 10259670 23 57 111 1495
2.9496388 -2.1432004 -0.86390561 338 10259670 474 58 56 3747
3.168196 -2.1268582 -0.94433647 353 10259670 546 59 79 3931
2.5350218 -2.1504683 -0.85309762 374 10259670 440 60 54 3432
2.7462223 -2.1584311 -0.93148607 360 10259670 470 61 51 3615
2.9573448 -2.149667 -1.0136472 329 10259670 474 62 85 3794
3.2213705 -2.160598 -1.1189101 289 10259670 470 63 52 4037
1.4508302 -1.2336022 0.59442633 20 10358010 8 0 45 1995
1.1125946 -0.87526238 0.4248918 9 10358010 2 1 67 1478
0 -0 0 7 10358010 0 2 32 0
0 -0 0 5 10358010 0 3 33 0
0 -0 0 4 10358010 0 4 69 0
0 -0 0 5 10358010 0 5 39 0
1.8621961 -1.3560271 0.57384014 183 10358010 103 6 80 2374
1.0433122 -0.7021246 0.30061591 78 10358010 13 7 52 1293
2.0033855 -1.7010168 0.60563803 189 10358010 138 8 74 2697
2.394031 -1.883553 0.67007852 337 10358010 328 9 84 3119
1.0193764 -0.74314111 0.2648285 20 10358010 3 10 47 1289
1.0455295 -0.70494312 0.25242692 65 10358010 11 11 25 1286
1.3260075 -1.1255163 0.33370423 16 10358010 5 12 83 1771
1.311846 -1.0329375 0.30316508 9 10358010 2 13 41 1697
0.98342669 -0.71722239 0.20901918 17 10358010 3 14 79 1235
0.93366832 -0.62985319 0.18283725 67 10358010 9 15 44 1141
0 -0 0 7 10358010 0 16 37 0
2.4677417 -1.9439882 0.45325258 254 10358010 256 17 63 3174
0 -0 0 6 10358010 0 18 51 0
1.0319337 -0.6970607 0.15570672 38 10358010 6 19 50 1255
2.0164647 -1.7116981 0.30907851 316 10358010 224 20 77 2663
2.4678721 -1.9447193 0.33656222 267 10358010 267 21 83 3160
2.630003 -1.9221675 0.31762639 123 10358010 131 22 40 3273
0 -0 0 9 10358010 0 23 100 0
2.3128664 -1.964066 0.24296047 362 10358010 336 24 76 3044
2.3758497 -1.8732127 0.213314 22 10358010 21 25 70 3033
2.6479919 -1.9354566 0.19986133 347 10358010 375 26 104 3286
2.8801968 -1.9503056 0.17906862 357 10358010 433 27 100 3483
2.3155954 -1.9683318 0.13210671 421 10358010 389 28 43 3042
2.5178173 -1.9865711 0.10868999 303 10358010 312 29 53 3209
2.7236629 -1.9947069 0.083273456 332 10358010 378 30 44 3377
2.8920779 -1.9598973 0.052198485 362 10358010 442 31 78 3494
2.3953335 -2.0363281 0.021949083 70 10358010 70 32 58 3144
2.5224502 -1.991727 -0.0081337495 369 10358010 382 33 68 3214
2.7547061 -2.0179589 -0.040767483 276 10358010 322 34 75 3415
2.9715414 -2.0165493 -0.07704284 173 10358010 224 35 64 3592
2.3941028 -2.037298 -0.093355209 377 10358010 373 36 149 3145
2.5535574 -2.01933 -0.12734029 364 10358010 386 37 37 3258
2.75966 -2.0233645 -0.16658291 355 10358010 416 38 162 3426
2.981288 -2.0230875 -0.20957221 101 10358010 132 39 97 3609
2.3837461 -2.0317152 -0.20786978 430 10358010 424 40 98 3139
2.5785656 -2.0410087 -0.24917397 349 10358010 380 41 89 3298
2.7764499 -2.0368671 -0.29399893 389 10358010 465 42 115 3456
2.9834073 -2.0268841 -0.34227642 399 10358010 524 43 73 3623
2.3968446 -2.0443239 -0.32521409 387 10358010 388 44 130 3167
2.5922506 -2.0535338 -0.37258479 356 10358010 395 45 65 3328
1.1488469 -0.84374601 -0.17418344 70 10358010 14 46 112 1436
3.0426807 -2.0682404 -0.48579541 366 10358010 504 47 90 3711
2.4183726 -2.0661881 -0.44641334 410 10358010 423 48 97 3212
2.6238267 -2.0804117 -0.50241137 326 10358010 373 49 51 3386
2.8410006 -2.0888028 -0.56361318 265 10358010 338 50 100 3571
3.0643811 -2.0842426 -0.62895364 353 10358010 499 51 78 3759
2.4345162 -2.0837321 -0.5711543 426 10358010 452 52 85 3255
2.6550031 -2.1073208 -0.63699234 334 10358010 398 53 77 3449
2.8833668 -2.1213479 -0.70801145 360 10358010 480 54 68 3649
3.1134214 -2.1175179 -0.78386337 395 10358010 585 55 58 3846
2.4785924 -2.1238573 -0.70810378 407 10358010 454 56 111 3340
1.1506807 -0.91429716 -0.33323237 128 10358010 29 57 39 1507
2.8988166 -2.1335723 -0.85283875 302 10358010 414 58 67 3699
3.1358235 -2.1331542 -0.93857104 351 10358010 536 59 67 3907
2.5041444 -2.1508358 -0.84713191 408 10358010 473 60 46 3408
2.7057106 -2.1535788 -0.92220986 345 10358010 442 61 68 3579
2.9440989 -2.1677725 -1.0136472 323 10358010 466 62 58 3794
3.1985166 -2.1738422 -1.115584 284 10358010 459 63 45 4025
1.5647691 -1.3471111 0.64448327 19 10455630 9 0 58 2163
0 -0 0 4 10455630 0 1 74 0
0 -0 0 6 10455630 0 2 38 0
0 -0 0 6 10455630 0 3 29 0
0 -0 0 0 10455630 0 4 64 0
0 -0 0 7 10455630 0 5 26 0
1.8819528 -1.3881639 0.582542 201 10455630 117 6 74 2410
1.0293418 -0.70193744 0.29782593 76 10455630 12 7 43 1281
1.9574417 -1.6827853 0.59485918 165 10455630 116 8 84 2649
2.3640964 -1.8836007 0.66492242 293 10455630 281 9 66 3095
2.6019437 -1.9214175 0.67902112 108 10455630 118 10 30 3305
0.97317541 -0.66488087 0.2359387 55 10455630 8 11 29 1202
1.3190764 -1.1336312 0.33370423 18 10455630 6 12 79 1771
1.434724 -1.1440214 0.33317792 15 10455630 5 13 41 1865
0.91241902 -0.67405087 0.19480249 16 10455630 2 14 73 1151
1.0862443 -0.7425198 0.2136039 58 10455630 10 15 39 1333
0 -0 0 8 10455630 0 16 34 0
2.3907752 -1.9072459 0.44125721 258 10455630 247 17 87 3090
2.6310692 -1.9459074 0.44059476 188 10455630 205 18 32 3302
1.0178111 -0.69665378 0.15421788 26 10455630 4 19 61 1243
1.9968848 -1.7162697 0.30768573 302 10455630 213 20 78 2651
2.4279146 -1.9374981 0.33272797 328 10455630 320 21 86 3124
2.6373575 -1.9524815 0.31995547 323 10455630 352 22 64 3297
1.999236 -1.3699917 0.21369967 15 10455630 9 23 94 2433
2.2554214 -1.9392281 0.2381715 356 10455630 317 24 64 2984
2.4672089 -1.9699128 0.22259769 27 10455630 27 25 64 3165
2.6456926 -1.9587951 0.20059119 329 10455630 358 26 97 3298
2.8385305 -1.947601 0.17721778 318 10455630 378 27 79 3447
2.3034744 -1.9825031 0.13210671 402 10455630 372 28 66 3042
2.4774718 -1.9795235 0.10747066 193 10455630 194 29 50 3173
2.6921029 -1.9970868 0.082681641 283 10455630 318 30 42 3353
2.8898892 -1.9843979 0.05237776 396 10455630 487 31 65 3506
2.3464153 -2.0196745 0.021613983 171 10455630 164 32 111 3096
2.5008094 -1.9996728 -0.0081033809 376 10455630 386 33 84 3202
2.694092 -1.9990726 -0.040051218 295 10455630 333 34 69 3355
2.9096837 -2.0007565 -0.075755931 377 10455630 471 35 72 3532
2.354296 -2.0284615 -0.092286594 387 10455630 374 36 110 3109
2.5130403 -2.0124745 -0.12593322 353 10455630 367 37 66 3222
2.7279482 -2.0259669 -0.16541596 362 10455630 419 38 156 3402
1.2413265 -0.85352886 -0.087626614 70 10455630 16 39 68 1509
2.3440402 -2.022835 -0.20548581 443 10455630 427 40 83 3103
2.5286477 -2.0268569 -0.24554744 398 10455630 420 41 115 3250
2.7351089 -2.0324702 -0.29093641 373 10455630 436 42 142 3420
2.9610741 -2.0383778 -0.34114274 388 10455630 506 43 78 3611
2.3661876 -2.0433891 -0.32274956 417 10455630 412 44 104 3143
2.5703003 -2.0619392 -0.37124136 356 10455630 392 45 63 3316
2.7969999 -2.0807359 -0.42599738 325 10455630 401 46 102 3512
3.0103378 -2.0733747 -0.48265368 347 10455630 471 47 133 3687
2.3876743 -2.065439 -0.44307777 441 10455630 448 48 98 3188
2.6387725 -2.1187618 -0.50775301 344 10455630 402 49 57 3422
1.2030048 -0.89591461 -0.23974472 109 10455630 25 50 56 1519
3.0223105 -2.0828655 -0.62293017 354 10455630 491 51 88 3723
2.4038291 -2.0831571 -0.56694305 424 10455630 443 52 106 3231
2.6144459 -2.1014066 -0.6303435 367 10455630 428 53 95 3413
2.8325396 -2.110863 -0.69869804 361 10455630 469 54 77 3601
3.081023 -2.1232488 -0.77897191 351 10455630 512 55 55 3822
2.4389396 -2.1159704 -0.70047152 411 10455630 449 56 87 3304
2.6586108 -2.1391971 -0.77370936 121 10455630 149 57 64 3499
2.8856707 -2.151319 -0.85283875 319 10455630 436 58 51 3699
3.0939026 -2.1325228 -0.92992282 374 10455630 561 59 75 3871
2.4645877 -2.1432784 -0.83818334 385 10455630 437 60 40 3372
2.6743906 -2.1555874 -0.9160257 142 10455630 180 61 68 3555
2.8936641 -2.1581428 -1.000823 324 10455630 455 62 67 3746
3.185118 -2.1934271 -1.115584 280 10455630 454 63 60 4025
1.3924074 -1.2136797 0.57654881 21 10551790 8 0 60 1935
0 -0 0 8 10551790 0 1 71 0
0 -0 0 7 10551790 0 2 31 0
0 -0 0 8 10551790 0 3 39 0
0 -0 0 4 10551790 0 4 62 0
0 -0 0 0 10551790 0 5 34 0
1.8454152 -1.378777 0.57384014 176 10551790 99 6 82 2374
1.0154134 -0.70160556 0.29503602 67 10551790 11 7 50 1269
1.691291 -1.4721224 0.51671237 127 10551790 67 8 86 2301
2.3616154 -1.9054304 0.66750044 308 10551790 298 9 76 3107
2.5336792 -1.8951411 0.66422856 292 10551790 305 10 39 3233
1.0174508 -0.70432585 0.24771601 28 10551790 4 11 19 1262
1.2676431 -1.1030238 0.3223986 13 10551790 4 12 75 1711
0 -0 0 8 10551790 0 13 34 0
0 -0 0 7 10551790 0 14 71 0
0.97455603 -0.67498446 0.19245183 46 10551790 7 15 41 1201
0 -0 0 8 10551790 0 16 36 0
2.1203372 -1.7128985 0.39327586 268 10551790 204 17 62 2754
2.5714891 -1.9263633 0.43258882 344 10551790 361 18 53 3242
1.023302 -0.70967162 0.15570672 32 10551790 5 19 67 1255
2.0312726 -1.767611 0.31464958 191 10551790 141 20 72 2711
2.3788595 -1.9223613 0.32761565 345 10551790 327 21 78 3076
2.5679955 -1.9256363 0.31296825 255 10551790 266 22 86 3225
2.5210156 -1.750374 0.27061597 21 10551790 20 23 108 3081
2.225436 -1.9373225 0.2362559 288 10551790 253 24 64 2960
2.4550753 -1.9850142 0.22259769 104 10551790 104 25 80 3165
2.6240413 -1.9678059 0.19986133 341 10551790 368 26 107 3286
2.8068469 -1.9512998 0.17598389 344 10551790 403 27 103 3423
2.2822282 -1.9887235 0.13158558 395 10551790 363 28 80 3030
2.4839261 -2.0097754 0.10828356 40 10551790 41 29 58 3197
2.6510262 -1.9919486 0.081793912 316 10551790 347 30 34 3317
2.8382611 -1.9746822 0.051660664 382 10551790 457 31 73 3458
2.343025 -2.0419176 0.021697758 242 10551790 234 32 78 3108
2.4698408 -1.999877 -0.0080426438 328 10551790 332 33 75 3178
2.6817751 -2.0155656 -0.040051218 295 10551790 332 34 83 3355
2.8875089 -2.0117142 -0.075498551 373 10551790 462 35 90 3520
2.3327663 -2.0349839 -0.091930389 380 10551790 364 36 129 3097
2.4727046 -2.0051987 -0.12452614 350 10551790 356 37 65 3186
2.7058873 -2.0354619 -0.16483247 341 10551790 392 38 148 3390
2.9464076 -2.0526724 -0.20887537 66 10551790 86 39 59 3597
2.3225675 -2.0293014 -0.20469114 452 10551790 432 40 91 3091
2.5068729 -2.0347934 -0.2446408 362 10551790 380 41 92 3238
2.7321393 -2.0564046 -0.29195726 367 10551790 432 42 147 3432
2.9289143 -2.04284 -0.33887538 222 10551790 286 43 82 3587
2.344619 -2.0500121 -0.32151729 431 10551790 423 44 105 3131
2.5205781 -2.0475967 -0.36586753 361 10551790 385 45 55 3268
2.7461276 -2.0691867 -0.42017511 369 10551790 443 46 103 3464
2.987803 -2.0849986 -0.48108277 358 10551790 483 47 124 3675
2.3660164 -2.072221 -0.44140998 413 10551790 417 48 78 3176
2.5612686 -2.0825074 -0.49528918 357 10551790 398 49 62 3338
1.1691048 -0.8818717 -0.23406282 96 10551790 21 50 75 1483
3.0094733 -2.1013708 -0.62293017 381 10551790 529 51 59 3723
2.3732414 -2.0822847 -0.56273174 412 10551790 424 52 91 3207
2.592356 -2.1099641 -0.62812728 377 10551790 437 53 69 3401
2.7913468 -2.1069272 -0.69171304 310 10551790 394 54 101 3565
3.0390396 -2.1219368 -0.77163464 355 10551790 510 55 60 3786
2.4082887 -2.1154168 -0.69538337 407 10551790 438 56 112 3280
2.6182168 -2.1332929 -0.76574892 324 10551790 388 57 56 3463
2.8351421 -2.1408389 -0.8417719 322 10551790 429 58 56 3651
3.0903096 -2.1581359 -0.93280554 398 10551790 601 59 81 3883
