# .PCD v0.7 - Point Cloud Data file format
VERSION 0.7
FIELDS x y z intensity t reflectivity ring noise range
SIZE 4 4 4 4 4 2 1 2 4
TYPE F F F F U U U U U
COUNT 1 1 1 1 1 1 1 1 1
WIDTH 763
HEIGHT 1
VIEWPOINT 0 0 0 1 0 0 0
POINTS 763
DATA ascii
-0.83767843 6.4064279 0.45553401 803 72818250 3370 25 84 6477
-1.0715953 6.3765922 0.39400536 780 72818250 3273 26 105 6478
-1.3042185 6.3539391 0.33392212 838 72818250 3534 27 120 6495
-0.5905059 6.3204808 0.27593887 780 72818250 3151 28 73 6354
-0.82411236 6.3198357 0.2159913 767 72818250 3117 29 55 6377
-1.0545514 6.3115621 0.15784229 810 72818250 3317 30 50 6401
-1.2864096 6.2788601 0.095761962 886 72818250 3642 31 70 6410
-0.58346641 6.2486663 0.043814395 805 72818250 3171 32 105 6276
-0.81053132 6.2335052 -0.015908137 861 72818250 3403 33 89 6286
-1.0424989 6.2441211 -0.075578019 835 72818250 3349 34 74 6331
-1.2682005 6.2103767 -0.13598318 924 72818250 3715 35 69 6340
-0.57138896 6.1517978 -0.1834749 865 72818250 3304 36 119 6181
-0.7956115 6.1540389 -0.24272045 837 72818250 3229 37 89 6210
-1.0228126 6.1420465 -0.30311671 829 72818250 3223 38 189 6234
-1.2482822 6.1122923 -0.36287522 906 72818250 3539 39 91 6249
-0.55622977 6.0400991 -0.40256149 871 72818250 3219 40 112 6079
-0.77790767 6.0386486 -0.46132696 885 72818250 3300 41 107 6106
-1.0038952 6.0388536 -0.52266473 886 72818250 3343 42 154 6144
-1.2275946 6.0276275 -0.58374995 937 72818250 3578 43 93 6179
-0.55385846 6.0374279 -0.62588567 539 72818250 2003 44 109 6095
-0.76750135 5.9768004 -0.67889249 688 72818250 2528 45 49 6064
-0.99046725 5.9774241 -0.74040091 810 72818250 3019 46 98 6104
-1.2147082 5.9718156 -0.80468458 862 72818250 3256 47 141 6147
-0.55362338 6.0909524 -0.85835892 181 72818250 691 48 87 6176
-0.77150542 6.0288033 -0.91193753 238 72818250 897 49 49 6146
-0.98205382 5.9459524 -0.96324033 396 72818250 1473 50 46 6103
-1.2039658 5.9274769 -1.0265046 566 72818250 2132 51 66 6135
-0.53924948 5.9919705 -1.0722961 310 72818250 1159 52 72 6111
-0.76256943 5.9830241 -1.1334363 260 72818250 981 53 66 6137
-0.99003774 6.0060272 -1.2039493 234 72818250 902 54 78 6205
-1.210268 5.9579711 -1.2656765 159 72818250 611 55 52 6210
-0.53101689 5.9376383 -1.2932434 402 72818250 1495 56 133 6100
-0.76268864 6.0090446 -1.373395 178 72818250 685 57 37 6211
-0.97930247 5.9480176 -1.4283147 68 72818250 260 58 37 6195
-1.2066467 5.9428024 -1.5007046 99 72818250 388 59 60 6247
-0.5078513 5.7544451 -1.4824808 895 72818250 3182 60 48 5964
-0.7269634 5.7662435 -1.5499001 815 72818250 2950 61 64 6015
-0.947905 5.7642212 -1.6195912 703 72818250 2585 62 60 6062
-1.1711402 5.7555666 -1.694302 677 72818250 2528 63 56 6113
-0.61154026 7.0210743 2.1998243 722 72916180 3937 0 83 7383
-0.87551928 6.9696369 2.1083603 812 72916180 4369 1 99 7334
-1.14548 6.9859028 2.0498641 750 72916180 4076 2 68 7370
-1.4094101 6.946125 1.979847 802 72916180 4341 3 51 7359
-0.60285306 6.8810458 1.8659594 809 72916180 4142 4 92 7155
-0.86044848 6.8739166 1.7976532 803 72916180 4111 5 47 7157
-1.1218808 6.8584704 1.7311891 733 72916180 3761 6 82 7162
-1.3780607 6.8270779 1.6648959 846 72916180 4339 7 89 7161
-0.5950166 6.7766352 1.5676527 770 72916180 3754 8 89 6981
-0.85406071 6.8016944 1.5079453 685 72916180 3375 9 118 7019
-1.0986272 6.7391982 1.4334434 780 72916180 3799 10 78 6977
-1.3495107 6.7158499 1.3712711 798 72916180 3892 11 48 6986
-0.58611721 6.6632676 1.2833763 849 72916180 3940 12 94 6811
-0.83211744 6.6475868 1.2164121 812 72916180 3767 13 68 6809
-1.08322 6.6527295 1.1574755 629 72916180 2942 14 95 6839
-1.3286853 6.6205878 1.0962223 763 72916180 3568 15 53 6841
-0.58635211 6.6672707 1.0313478 329 72916180 1508 16 36 6772
-0.83418787 6.6764178 0.97076589 51 72916180 237 17 71 6798
-1.0651503 6.5641403 0.89533347 758 72916180 3414 18 78 6710
-1.3094233 6.5453315 0.83461279 770 72916180 3485 19 101 6727
-0.56991976 6.481719 0.76033545 751 72916180 3225 20 79 6551
-0.80866021 6.4803815 0.69953823 788 72916180 3401 21 81 6568
-1.0467123 6.4697957 0.63903755 777 72916180 3372 22 63 6585
-1.2903064 6.4679637 0.58154768 771 72916180 3381 23 105 6621
-0.55895704 6.371058 0.51210064 792 72916180 3262 24 73 6416
-0.79391623 6.3758116 0.45300213 766 72916180 3179 25 89 6441
-1.0305365 6.3712234 0.3932755 785 72916180 3281 26 121 6466
-1.2675445 6.3735757 0.33453906 825 72916180 3493 27 103 6507
-0.55171299 6.3239851 0.27593887 860 72916180 3474 28 59 6354
-0.78384125 6.3128715 0.21558486 721 72916180 2920 29 33 6365
-1.0119958 6.2942252 0.15725046 803 72916180 3264 30 52 6377
-1.2431868 6.2630968 0.09540341 872 72916180 3557 31 82 6386
-0.54511434 6.2521286 0.043814395 806 72916180 3175 32 110 6276
-0.77079374 6.2264519 -0.015877767 836 72916180 3292 33 86 6274
-1.0003594 6.2267056 -0.075291507 796 72916180 3168 34 89 6307
-1.2277423 6.2062721 -0.1357258 908 72916180 3637 35 78 6328
-0.53259546 6.1432381 -0.18311869 903 72916180 3436 36 129 6169
-0.75344276 6.1231012 -0.24131337 857 72916180 3269 37 66 6174
-0.98321015 6.1363716 -0.30253321 889 72916180 3442 38 213 6222
-1.2130793 6.1315885 -0.36357206 882 72916180 3458 39 114 6261
-0.52018273 6.0553279 -0.40335611 846 72916180 3139 40 113 6091
-0.74229652 6.0551848 -0.4622336 855 72916180 3200 41 108 6118
-0.96682262 6.0448995 -0.52266473 921 72916180 3475 42 147 6144
-1.1905867 6.0350466 -0.58374995 935 72916180 3571 43 90 6179
-0.5178206 6.0526061 -0.62711793 501 72916180 1870 44 78 6107
-0.73370636 6.0050707 -0.68157941 647 72916180 2396 45 53 6088
-0.95189685 5.9716263 -0.73894536 785 72916180 2914 46 96 6092
-1.1757432 5.967484 -0.8031137 887 72916180 3338 47 119 6135
-0.51323038 6.0587115 -0.85335553 174 72916180 658 48 58 6140
-0.73736703 6.0569839 -0.91549855 193 72916180 733 49 44 6170
-0.94741088 5.9635692 -0.96513426 370 72916180 1385 50 63 6115
-1.1630052 5.9115357 -1.022489 499 72916180 1865 51 80 6111
-0.50247329 5.9951668 -1.0722961 294 72916180 1099 52 83 6111
-0.72300535 5.9641752 -1.1290039 263 72916180 984 53 87 6113
-0.94763672 5.9771085 -1.1969643 243 72916180 923 54 48 6169
-1.1736878 5.9652853 -1.2656765 178 72916180 685 55 47 6210
-0.49165544 5.905724 -1.2856112 456 72916180 1677 56 108 6064
-0.71458507 5.9206619 -1.3521671 263 72916180 985 57 64 6115
-0.94644016 5.9769807 -1.4338481 75 72916180 288 58 48 6219
-1.1521773 5.8586574 -1.4776428 95 72916180 358 59 54 6151
-0.47063157 5.7342839 -1.4765151 914 72916180 3224 60 54 5940
-0.69018906 5.7590828 -1.546808 798 72916180 2877 61 60 6003
-0.9089058 5.7470851 -1.6131791 762 72916180 2780 62 61 6038
-1.1335729 5.7513318 -1.690976 741 72916180 2760 63 67 6101
-0.56937218 7.0361123 2.2033999 711 73014690 3890 0 82 7395
-0.83410043 6.9862905 2.11181 811 73014690 4378 1 100 7346
-1.1043891 7.0041857 2.0532017 694 73014690 3784 2 62 7382
-1.366763 6.9546423 1.979847 800 73014690 4330 3 52 7359
-0.56062043 6.8846154 1.8659594 805 73014690 4122 4 95 7155
-0.81551075 6.8559985 1.7916249 825 73014690 4195 5 44 7133
-1.0761586 6.8422198 1.7253881 783 73014690 3990 6 107 7138
-1.3339056 6.8239508 1.6621059 840 73014690 4294 7 89 7149
-0.55437607 6.7918134 1.5703474 808 73014690 3952 8 89 6993
-0.80814391 6.7718949 1.500211 754 73014690 3677 9 115 6983
-1.0572556 6.7458124 1.4334434 794 73014690 3868 10 66 6977
-1.3082776 6.7240038 1.3712711 792 73014690 3863 11 54 6986
-0.54522115 6.6667385 1.2833763 831 73014690 3856 12 106 6811
-0.79131293 6.6525674 1.2164121 807 73014690 3743 13 93 6809
-1.0368922 6.624197 1.1513827 560 73014690 2593 14 83 6803
-1.2880372 6.6286159 1.0962223 827 73014690 3872 15 70 6841
-0.5376994 6.5761786 1.0167273 843 73014690 3756 16 51 6676
-0.78340507 6.5988512 0.95877051 362 73014690 1634 17 71 6714
-1.0211877 6.547051 0.89213103 778 73014690 3475 18 53 6686
-1.2624449 6.5181727 0.83014631 772 73014690 3458 19 84 6691
-0.53013796 6.4850941 0.76033545 793 73014690 3405 20 81 6551
-0.76747733 6.4733725 0.69826013 777 73014690 3341 21 85 6556
-1.0051595 6.4642949 0.63787299 798 73014690 3450 22 66 6573
-1.2437956 6.4405494 0.57838571 770 73014690 3339 23 115 6585
-0.52082676 6.3862901 0.51305848 796 73014690 3291 24 75 6428
-0.75618619 6.3924499 0.45384607 782 73014690 3257 25 90 6453
-0.98958415 6.3655915 0.39254567 775 73014690 3227 26 121 6454
-1.2238823 6.357697 0.33330515 819 73014690 3442 27 93 6483
-0.50999343 6.2914033 0.2743755 871 73014690 3479 28 75 6318
-0.74509144 6.3175621 0.21558486 803 73014690 3251 29 46 6365
-0.97335607 6.3003163 0.15725046 849 73014690 3455 30 58 6377
-1.2069976 6.2823901 0.095582686 893 73014690 3657 31 84 6398
-0.50577277 6.2433953 0.043730617 817 73014690 3205 32 129 6264
-0.72977215 6.2072287 -0.015817031 824 73014690 3220 33 77 6250
-0.9621343 6.2327266 -0.075291507 850 73014690 3383 34 85 6307
-1.1896383 6.2136884 -0.1357258 898 73014690 3596 35 95 6328
-0.49392855 6.1344342 -0.18276247 870 73014690 3297 36 133 6157
-0.71724933 6.1395192 -0.2417824 879 73014690 3366 37 64 6186
-0.94371605 6.1304431 -0.30194977 890 73014690 3433 38 211 6210
-1.1709281 6.1153846 -0.36217842 897 73014690 3491 39 74 6237
-0.48206654 6.0464702 -0.40256149 830 73014690 3066 40 133 6079
-0.70374554 6.04774 -0.46132696 861 73014690 3211 41 98 6106
-0.92971361 6.0507183 -0.52266473 929 73014690 3506 42 117 6144
-1.1512936 6.0305037 -0.58261627 872 73014690 3318 43 63 6167
-0.47878373 6.0318708 -0.6246534 454 73014690 1680 44 116 6083
-0.6954726 5.9976144 -0.68023598 601 73014690 2221 45 61 6076
-0.91343486 5.9655805 -0.73748982 738 73014690 2729 46 112 6080
-1.1368772 5.9628997 -0.80154276 853 73014690 3197 47 138 6123
-0.47511479 6.0498991 -0.85168773 237 73014690 891 48 91 6128
-0.70155001 6.0731831 -0.91727912 148 73014690 564 49 47 6182
-0.91616333 6.0044122 -0.9708162 330 73014690 1247 50 57 6151
-1.1267109 5.9185605 -1.022489 442 73014690 1649 51 53 6111
-0.46659261 6.0099154 -1.0744017 268 73014690 1005 52 94 6123
-0.68909109 5.9919319 -1.1334363 269 73014690 1014 53 74 6137
-0.90562814 5.947897 -1.1899793 263 73014690 991 54 68 6133
-1.1348661 5.9608335 -1.2632307 204 73014690 782 55 54 6198
-0.45540932 5.9086294 -1.2856112 513 73014690 1886 56 124 6064
-0.67824316 5.9249353 -1.3521671 319 73014690 1194 57 63 6115
-0.90799284 5.9711313 -1.4310814 98 73014690 376 58 36 6207
-1.1227405 5.8999462 -1.4862909 81 73014690 308 59 55 6187
-0.4363175 5.7486534 -1.4794979 907 73014690 3215 60 66 5952
-0.65352994 5.7516885 -1.5437158 817 73014690 2931 61 49 5991
-0.87188905 5.7411218 -1.6099732 787 73014690 2859 62 66 6026
-1.0982622 5.7581792 -1.690976 734 73014690 2733 63 81 6101
-0.52448094 7.0166273 2.1962488 737 73110680 4006 0 77 7371
-0.78863269 6.9684362 2.1049106 811 73110680 4350 1 83 7322
-1.0562153 6.9766402 2.0431888 749 73110680 4039 2 56 7346
-1.3175871 6.9288354 1.9701617 812 73110680 4353 3 49 7323
-0.51836663 6.8879256 1.8659594 834 73110680 4270 4 99 7155
-0.77472895 6.8724155 1.794639 829 73110680 4229 5 56 7145
-1.0341552 6.8486938 1.7253881 769 73110680 3920 6 79 7138
-1.2898408 6.8205395 1.6593161 816 73110680 4158 7 77 7137
-0.51181209 6.7834268 1.5676527 794 73110680 3870 8 92 6981
-0.76394248 6.7534351 1.495055 741 73110680 3589 9 113 6959
-1.014097 6.7405591 1.4309779 790 73110680 3835 10 66 6965
-1.2669952 6.731905 1.3712711 799 73110680 3901 11 65 6986
-0.50252753 6.6464553 1.2788541 820 73110680 3778 12 112 6787
-0.75312388 6.6807628 1.2206995 813 73110680 3798 13 69 6833
-1.0102855 6.7239995 1.1676302 238 73110680 1134 14 84 6899
-1.2451525 6.624753 1.0942994 800 73110680 3733 15 59 6829
-0.49555069 6.5557017 1.0130723 830 73110680 3671 16 54 6652
-0.73758936 6.5563235 0.95191604 494 73110680 2197 17 73 6666
-0.97923583 6.5414319 0.89052987 782 73110680 3484 18 80 6674
-1.2246188 6.5375004 0.83163518 786 73110680 3532 19 93 6703
-0.48943803 6.4763403 0.75894272 804 73110680 3439 20 86 6539
-0.72641093 6.4661026 0.69698203 792 73110680 3390 21 47 6544
-0.96723908 6.4821534 0.63903755 790 73110680 3428 22 68 6585
-1.2042538 6.4480596 0.57838571 810 73110680 3512 23 126 6585
-0.4816314 6.3893657 0.51305848 803 73110680 3319 24 83 6428
-0.71561545 6.3850741 0.45300213 813 73110680 3374 25 91 6441
-0.95050699 6.3715434 0.39254567 787 73110680 3277 26 123 6454
-1.182656 6.3533053 0.33268821 833 73110680 3488 27 91 6471
-0.47048521 6.2824588 0.27385435 895 73110680 3561 28 77 6306
-0.7036503 6.2981768 0.21477197 784 73110680 3151 29 47 6341
-0.93292087 6.2943029 0.15695456 834 73110680 3377 30 44 6365
-1.1662354 6.2778811 0.09540341 887 73110680 3618 31 89 6386
-0.46745452 6.2463808 0.043730617 779 73110680 3057 32 97 6264
-0.69299954 6.2235155 -0.015847398 841 73110680 3299 33 86 6262
-0.92387289 6.2385125 -0.075291507 773 73110680 3076 34 89 6307
-1.1493058 6.2090745 -0.13546842 883 73110680 3523 35 90 6316
-0.4553898 6.1253881 -0.18240629 851 73110680 3213 36 124 6145
-0.67692792 6.1199679 -0.24084434 851 73110680 3233 37 72 6162
-0.90433168 6.1242609 -0.30136627 898 73110680 3451 38 193 6198
-1.1333828 6.1224542 -0.36217842 905 73110680 3522 39 73 6237
-0.44583535 6.0612555 -0.40335611 761 73110680 2824 40 95 6091
-0.66531396 6.0400505 -0.46042031 840 73110680 3119 41 139 6094
-0.8925696 6.0563087 -0.52266473 879 73110680 3317 42 142 6144
-1.1099331 6.0139585 -0.58034885 934 73110680 3523 43 57 6143
-0.44176385 6.0346951 -0.6246534 416 73110680 1540 44 90 6083
-0.65605718 5.9780622 -0.67754906 557 73110680 2039 45 46 6052
-0.87681353 5.9710727 -0.73748982 719 73110680 2659 46 99 6080
-1.1024245 5.981463 -0.8031137 812 73110680 3056 47 107 6135
-0.43798438 6.0527005 -0.85168773 238 73110680 895 48 91 6128
-0.662983 6.0655766 -0.91549855 152 73110680 577 49 54 6170
-0.88444996 6.045095 -0.97649807 302 73110680 1154 50 56 6187
-1.0903741 5.9253626 -1.022489 386 73110680 1443 51 71 6111
-0.42886552 6.0008812 -1.0722961 232 73110680 867 52 94 6111
-0.65231228 5.996047 -1.1334363 258 73110680 970 53 52 6137
-0.87591761 5.9999356 -1.1992927 245 73110680 937 54 75 6181
-1.1003962 5.979239 -1.2656765 201 73110680 773 55 50 6210
-0.41665778 5.8762193 -1.2779789 571 73110680 2075 56 118 6028
-0.64061606 5.9173503 -1.3495136 400 73110680 1488 57 56 6103
-0.8629148 5.9188175 -1.4172479 185 73110680 698 58 39 6147
-1.0928401 5.9410934 -1.4949392 76 73110680 296 59 71 6223
-0.40184477 5.7628179 -1.4824808 936 73110680 3328 60 56 5964
-0.61698765 5.7440619 -1.5406238 843 73110680 3012 61 50 5979
-0.83831179 5.7578063 -1.6131791 770 73110680 2808 62 84 6038
-1.0608193 5.7534704 -1.68765 740 73110680 2745 63 62 6089
-0.48141786 7.0197134 2.1962488 718 73208410 3903 0 80 7371
-0.74586034 6.9731441 2.1049106 817 73208410 4382 1 83 7322
-1.0133876 6.9829898 2.0431888 719 73208410 3882 2 62 7346
-1.2771372 6.9481568 1.9733901 770 73208410 4141 3 54 7335
-0.47609338 6.8909764 1.8659594 807 73208410 4133 4 77 7155
-0.73131573 6.86549 1.7916249 752 73208410 3828 5 62 7133
-0.99211299 6.8549104 1.7253881 770 73208410 3924 6 90 7138
-1.2458682 6.8168445 1.6565261 796 73208410 4043 7 70 7125
-0.46937189 6.7747741 1.564958 830 73208410 4031 8 109 6969
-0.72373563 6.769649 1.497633 787 73208410 3825 9 100 6971
-0.97104275 6.7350311 1.4285126 819 73208410 3962 10 66 6953
-1.2193491 6.7048221 1.3642046 843 73208410 4074 11 63 6950
-0.46336895 6.6729274 1.2833763 827 73208410 3837 12 95 6811
-0.71086669 6.6735172 1.2185557 825 73208410 3841 13 70 6821
-0.95552504 6.6364226 1.1513827 481 73208410 2226 14 99 6803
-1.2065969 6.6439228 1.0962223 661 73208410 3094 15 82 6841
-0.45531633 6.558619 1.0130723 819 73208410 3622 16 52 6652
-0.70738941 6.6552095 0.96562499 184 73208410 842 17 107 6762
-0.9373914 6.5355449 0.88892865 762 73208410 3383 18 69 6662
-1.1823618 6.533174 0.83014631 762 73208410 3413 19 70 6691
-0.44886547 6.4673309 0.75754994 840 73208410 3580 20 96 6527
-0.68672198 6.470438 0.69698203 797 73208410 3415 21 77 6544
-0.9206866 6.4406734 0.63437939 776 73208410 3318 22 81 6537
-1.1667889 6.4670906 0.57943964 821 73208410 3573 23 132 6597
-0.44159201 6.3802671 0.51210064 824 73208410 3393 24 99 6416
-0.67642391 6.3893447 0.45300213 790 73208410 3278 25 86 6441
-0.91139406 6.3772559 0.39254567 724 73208410 3015 26 126 6454
-1.1436507 6.3604422 0.33268821 825 73208410 3454 27 114 6471
-0.43274987 6.2971878 0.2743755 918 73208410 3663 28 56 6318
-0.66499221 6.3023758 0.21477197 755 73208410 3034 29 45 6341
-0.89259619 6.2880316 0.15665865 862 73208410 3478 30 47 6353
-1.1255741 6.2731085 0.095224135 907 73208410 3687 31 71 6374
-0.42829657 6.2371602 0.043646842 793 73208410 3099 32 123 6252
-0.65354496 6.2157168 -0.015817031 838 73208410 3274 33 106 6250
-0.88220686 6.220304 -0.075005002 789 73208410 3116 34 73 6283
-1.1090748 6.2041993 -0.13521105 825 73208410 3280 35 76 6304
-0.41779655 6.128067 -0.18240629 897 73208410 3387 36 128 6145
-0.63936377 6.1240063 -0.24084434 889 73208410 3377 37 81 6162
-0.86673689 6.1296945 -0.30136627 906 73208410 3482 38 185 6198
-1.0894698 6.0939145 -0.3600879 898 73208410 3455 39 73 6201
-0.4086358 6.0638766 -0.40335611 740 73208410 2745 40 111 6091
-0.6294775 6.0559206 -0.46132696 837 73208410 3121 41 108 6106
-0.85205066 6.0379934 -0.52062309 884 73208410 3310 42 136 6120
-1.0730113 6.0206556 -0.58034885 925 73208410 3492 43 70 6143
-0.40712258 6.0730219 -0.6283502 357 73208410 1338 44 81 6119
-0.62182027 6.0056973 -0.68023598 505 73208410 1866 45 72 6076
-0.84181744 5.9881358 -0.73894536 671 73208410 2491 46 90 6092
-1.0636177 5.9764018 -0.80154276 778 73208410 2917 47 118 6123
-0.40162238 6.067132 -0.85335553 298 73208410 1124 48 85 6140
-0.61966771 6.0105071 -0.90659583 148 73208410 551 49 41 6110
-0.84569782 6.0386729 -0.97460413 257 73208410 978 50 48 6175
-1.0581356 5.9552383 -1.0265046 380 73208410 1429 51 51 6135
-0.39203674 6.0033998 -1.0722961 186 73208410 695 52 96 6111
-0.6131019 5.9764729 -1.1290039 235 73208410 879 53 78 6113
-0.83094108 5.9469042 -1.1876509 241 73208410 904 54 71 6121
-1.061632 5.9743114 -1.2632307 267 73208410 1025 55 35 6198
-0.37907881 5.8552599 -1.2728907 622 73208410 2242 56 130 6004
-0.60548401 5.9328122 -1.3521671 419 73208410 1568 57 65 6115
-0.82174045 5.8893065 -1.4089477 276 73208410 1029 58 53 6111
-1.0502545 5.9132795 -1.4862909 89 73208410 343 59 58 6187
-0.36500245 5.7419748 -1.4765151 930 73208410 3283 60 60 5940
-0.5805636 5.7362041 -1.5375319 899 73208410 3199 61 55 5967
-0.79977518 5.7399354 -1.6067671 815 73208410 2949 62 78 6014
-1.0214547 5.7371683 -1.6809981 714 73208410 2627 63 89 6065
-0.43762305 7.0111022 2.1926734 747 73306300 4047 0 67 7359
-0.70305991 6.9775891 2.1049106 809 73306300 4339 1 85 7322
-0.9689362 6.9776592 2.0398512 708 73306300 3806 2 44 7334
-1.2304409 6.9331031 1.9669333 798 73306300 4268 3 58 7311
-0.43380219 6.8937683 1.8659594 799 73306300 4092 4 86 7155
-0.68801665 6.8582907 1.7886108 775 73306300 3927 5 48 7121
-0.94683909 6.8378005 1.7195867 789 73306300 3995 6 73 7114
-1.2019895 6.8128667 1.6537361 824 73306300 4171 7 71 7113
-0.42779383 6.7775264 1.564958 806 73306300 3916 8 87 6969
-0.67983562 6.7506409 1.4924769 758 73306300 3659 9 105 6947
-0.92969912 6.7408624 1.4285126 790 73306300 3822 10 66 6953
-1.1802205 6.7237668 1.3665601 816 73306300 3953 11 54 6962
-0.42167169 6.6638832 1.2811152 852 73306300 3939 12 104 6799
-0.66872686 6.6660056 1.2164121 809 73306300 3753 13 76 6809
-0.91640037 6.6538773 1.1534137 521 73306300 2420 14 93 6815
-1.1883025 6.7795391 1.1173744 88 73306300 425 15 57 6973
-0.41656235 6.5849614 1.0167273 795 73306300 3546 16 60 6676
-0.65826052 6.5766993 0.95362967 544 73306300 2428 17 79 6678
-0.89888865 6.5529561 0.89052987 790 73306300 3520 18 75 6674
-1.1422528 6.5403061 0.83014631 763 73306300 3417 19 81 6691
-0.41143104 6.5056486 0.76172823 612 73306300 2637 20 85 6563
-0.64819366 6.4864025 0.69826013 843 73306300 3625 21 68 6556
-0.88438517 6.4698677 0.63670844 790 73306300 3403 22 76 6561
-1.1209351 6.4387989 0.57627767 811 73306300 3491 23 127 6561
-0.40243509 6.3828568 0.51210064 820 73306300 3377 24 87 6416
-0.63483256 6.3695521 0.45131415 820 73306300 3378 25 69 6417
-0.87386853 6.3945951 0.3932755 769 73306300 3214 26 130 6466
-1.1025537 6.3555322 0.33207124 822 73306300 3430 27 94 6459
-0.3941029 6.2997246 0.2743755 913 73306300 3646 28 73 6318
-0.62749428 6.3182721 0.21517842 793 73306300 3199 29 49 6353
-0.85560983 6.3052773 0.15695456 835 73306300 3382 30 39 6365
-1.0870618 6.2798967 0.095224135 898 73306300 3650 31 80 6374
-0.38926941 6.227694 0.043563064 818 73306300 3185 32 105 6240
-0.61303061 6.1957264 -0.015756292 822 73306300 3188 33 90 6226
-0.84563512 6.2374897 -0.075148255 849 73306300 3366 34 87 6295
-1.0709857 6.2108879 -0.13521105 826 73306300 3283 35 101 6304
-0.38092998 6.1424866 -0.18276247 886 73306300 3358 36 142 6157
-0.59943169 6.1039476 -0.23990631 867 73306300 3268 37 73 6138
-0.82750422 6.1230192 -0.3007828 903 73306300 3456 38 200 6186
-1.0561296 6.1240959 -0.36148158 860 73306300 3334 39 76 6225
-0.37142086 6.0662699 -0.40335611 720 73306300 2672 40 86 6091
-0.59114319 6.04776 -0.46042031 811 73306300 3012 41 101 6094
-0.81658423 6.0549574 -0.52164394 857 73306300 3221 42 140 6132
-1.0380729 6.0388999 -0.58148259 947 73306300 3589 43 84 6155
-0.36985156 6.0754056 -0.6283502 327 73306300 1226 44 80 6119
-0.58495826 6.0093994 -0.68023598 446 73306300 1648 45 58 6076
-0.80188745 5.9695778 -0.73603421 620 73306300 2284 46 92 6068
-1.0269271 5.9828153 -0.80154276 773 73306300 2898 47 122 6123
-0.36225113 6.033895 -0.84835213 323 73306300 1204 48 83 6104
-0.58964372 6.0850673 -0.91727912 196 73306300 747 49 55 6182
-0.81020075 6.0554934 -0.97649807 187 73306300 714 50 52 6187
-1.0255715 5.984941 -1.0305203 317 73306300 1204 51 70 6159
-0.35379824 5.9821062 -1.0680848 178 73306300 661 52 85 6087
-0.57528788 5.9683833 -1.1267875 226 73306300 843 53 59 6101
-0.79599339 5.9635592 -1.1899793 236 73306300 889 54 72 6133
-1.0190011 5.9459748 -1.2558935 245 73306300 932 55 61 6162
-0.34314448 5.8574753 -1.2728907 709 73306300 2556 56 106 6004
-0.56571937 5.9014673 -1.3442067 511 73306300 1890 57 68 6079
-0.7902168 5.9289608 -1.4172479 327 73306300 1234 58 51 6147
-1.0100182 5.8966498 -1.4805255 175 73306300 663 59 49 6163
-0.3290973 5.7325025 -1.4735323 942 73306300 3312 60 69 5928
-0.54535598 5.7396584 -1.5375319 884 73306300 3149 61 58 5967
-0.76148945 5.7218094 -1.6003549 796 73306300 2858 62 61 5990
-0.98623282 5.7433281 -1.6809981 786 73306300 2892 63 73 6065
-0.3945955 7.0136552 2.1926734 735 73403570 3982 0 76 7359
-0.6591509 6.9703293 2.1014609 822 73403570 4395 1 78 7310
-0.92913449 7.0063262 2.0465264 744 73403570 4030 2 62 7358
-1.1839774 6.9177384 1.9604763 804 73403570 4272 3 63 7287
-0.39083806 6.8847342 1.8628298 786 73403570 4011 4 105 7143
-0.64701051 6.8739471 1.7916249 839 73403570 4267 5 30 7133
-0.90486532 6.8434815 1.7195867 757 73403570 3833 6 80 7114
-1.160164 6.8201137 1.6537361 834 73403570 4221 7 85 7113
-0.38619965 6.7800236 1.564958 801 73403570 3890 8 112 6969
-0.63950437 6.7663527 1.495055 754 73403570 3652 9 109 6959
-0.89138669 6.7697268 1.4334434 747 73403570 3639 10 64 6977
-1.138942 6.7308822 1.3665601 827 73403570 4006 11 52 6962
-0.38077492 6.6663451 1.2811152 837 73403570 3869 12 118 6799
-0.62559956 6.6464734 1.2121245 814 73403570 3750 13 75 6785
-0.87247229 6.6359224 1.1493516 761 73403570 3511 14 77 6791
-1.1308949 6.6932673 1.1019911 360 73403570 1704 15 64 6877
-0.37412158 6.5518718 1.0112448 848 73403570 3741 16 59 6640
-0.60901171 6.4860144 0.93992072 930 73403570 4031 17 72 6582
-0.85711962 6.546556 0.88892865 761 73403570 3379 18 74 6662
-1.096171 6.5119653 0.82567984 787 73403570 3487 19 85 6655
-0.37897739 6.6389456 0.77704865 95 73403570 427 20 90 6695
-0.6072681 6.4783778 0.69698203 774 73403570 3316 21 74 6544
-0.84158033 6.4514866 0.63437939 772 73403570 3301 22 73 6537
-1.0794284 6.4337668 0.57522362 788 73403570 3380 23 122 6549
-0.36258364 6.3732634 0.51114285 834 73403570 3422 24 72 6404
-0.59573776 6.3733277 0.45131415 820 73403570 3377 25 85 6417
-0.82996881 6.3642054 0.39108592 826 73403570 3415 26 115 6430
-1.0595844 6.3385377 0.33083737 828 73403570 3428 27 108 6435
-0.35476598 6.2900543 0.27385435 879 73403570 3497 28 79 6306
-0.58760226 6.3100619 0.21477197 791 73403570 3179 29 53 6341
-0.81690526 6.3104086 0.15695456 764 73403570 3094 30 44 6365
-1.0465347 6.2746139 0.095044866 873 73403570 3535 31 89 6362
-0.35104969 6.2299652 0.043563064 825 73403570 3213 32 97 6240
-0.57832754 6.2352171 -0.015847398 852 73403570 3342 33 96 6262
-0.8073467 6.2425613 -0.075148255 813 73403570 3223 34 97 6295
-1.028924 6.1936722 -0.13469627 887 73403570 3499 35 89 6280
-0.34323323 6.1447082 -0.18276247 816 73403570 3093 36 117 6157
-0.56306595 6.1194506 -0.24037531 857 73403570 3243 37 74 6150
-0.78991854 6.1279817 -0.3007828 883 73403570 3381 38 175 6186
-1.0146061 6.1068254 -0.3600879 917 73403570 3528 39 76 6201
-0.33353356 6.0564799 -0.40256149 733 73403570 2709 40 101 6079
-0.55293274 6.0393577 -0.45951369 764 73403570 2827 41 88 6082
-0.77789104 6.0479946 -0.52062309 857 73403570 3210 42 111 6120
-0.99904776 6.0333695 -0.58034885 932 73403570 3518 43 78 6143
-0.3345232 6.1133165 -0.63204694 289 73403570 1095 44 107 6155
-0.55132163 6.048502 -0.68426633 393 73403570 1467 45 46 6112
-0.76675707 5.9862003 -0.73748982 591 73403570 2186 46 86 6080
-0.99019796 5.9890041 -0.80154276 670 73403570 2512 47 109 6123
-0.32522103 6.0360041 -0.84835213 346 73403570 1291 48 72 6104
-0.55229533 6.0885711 -0.91727912 222 73403570 847 49 35 6182
-0.77302969 6.0603504 -0.97649807 162 73403570 619 50 41 6187
-0.98882926 5.9911208 -1.0305203 322 73403570 1220 51 54 6159
-0.31896138 6.019556 -1.0744017 150 73403570 563 52 108 6123
-0.54183418 6.0070381 -1.1334363 203 73403570 766 53 81 6137
-0.75492913 5.9332972 -1.1829942 250 73403570 931 54 66 6097
-0.98441148 5.9637065 -1.2583392 245 73403570 932 55 56 6174
-0.3078112 5.871182 -1.2754349 729 73403570 2638 56 120 6016
-0.52740753 5.881515 -1.3388997 548 73403570 2010 57 83 6055
-0.75087935 5.9105306 -1.4117144 396 73403570 1486 58 64 6123
-0.97571427 5.9142294 -1.4834082 322 73403570 1226 59 51 6175
-0.29391712 5.7344141 -1.4735323 914 73403570 3211 60 55 5928
-0.50910193 5.7313471 -1.5344397 885 73403570 3137 61 52 5955
-0.72782195 5.7378459 -1.603561 837 73403570 3017 62 71 6002
-0.94721079 5.726521 -1.6743462 800 73403570 2921 63 65 6041
-0.3509798 7.0045037 2.1890979 747 73502380 4034 0 75 7347
-0.618393 6.9971399 2.1083603 753 73502380 4052 1 92 7334
-0.88034636 6.9661531 2.0331759 728 73502380 3887 2 55 7310
-1.1415087 6.9248729 1.9604763 805 73502380 4273 3 47 7287
-0.34800115 6.875433 1.8597004 799 73502380 4064 4 82 7131
-0.60278559 6.8546467 1.7855967 794 73502380 4014 5 64 7109
-0.85994649 6.825799 1.7137854 799 73502380 4018 6 77 7090
-1.116408 6.8155861 1.6509461 851 73502380 4293 7 70 7101
-0.34459093 6.7822657 1.564958 820 73502380 3983 8 102 6969
-0.59797478 6.7701492 1.495055 639 73502380 3096 9 88 6959
-0.84544671 6.7401109 1.4260472 813 73502380 3919 10 67 6941
-1.0919448 6.7029033 1.3594937 822 73502380 3944 11 83 6926
-0.33986384 6.6685562 1.2811152 814 73502380 3764 12 102 6799
-0.58377147 6.6384254 1.2099807 812 73502380 3727 13 75 6773
-0.83173859 6.641151 1.1493516 769 73502380 3547 14 94 6791
-1.0688863 6.571476 1.0808389 494 73502380 2249 15 70 6745
-0.33451647 6.5658884 1.0130723 835 73502380 3697 16 66 6652
-0.56090087 6.3949766 0.92621177 1243 73502380 5230 17 97 6486
-0.81399161 6.52809 0.88572627 796 73502380 3509 18 75 6638
-1.0600027 6.5420766 0.82865751 796 73502380 3552 19 90 6679
-0.33823445 6.6411462 0.77704865 90 73502380 404 20 96 6695
-0.56854671 6.4938684 0.69826013 748 73502380 3216 21 81 6556
-0.80492336 6.4802337 0.63670844 809 73502380 3485 22 63 6561
-1.0399312 6.440269 0.57522362 811 73502380 3479 23 121 6549
-0.32347119 6.3753681 0.51114285 830 73502380 3405 24 81 6404
-0.55557966 6.3649378 0.45047018 810 73502380 3324 25 80 6405
-0.7894271 6.3572912 0.39035603 799 73502380 3291 26 116 6418
-1.0225753 6.3567519 0.33145434 842 73502380 3499 27 111 6447
-0.31556261 6.280139 0.27333322 866 73502380 3433 28 72 6294
-0.54679596 6.2896523 0.21395908 769 73502380 3067 29 40 6317
-0.77523577 6.2914896 0.15636274 854 73502380 3432 30 47 6341
-1.0061134 6.2690701 0.09486559 910 73502380 3671 31 78 6350
-0.3134183 6.2439871 0.043646842 813 73502380 3177 32 145 6252
-0.53798825 6.2147379 -0.015786661 828 73502380 3223 33 97 6238
-0.76756191 6.2354884 -0.075005002 824 73502380 3254 34 94 6283
-0.98900753 6.1880221 -0.1344389 878 73502380 3450 35 90 6268
-0.30433264 6.1227388 -0.18205008 837 73502380 3147 36 141 6133
-0.52550709 6.1227903 -0.24037531 881 73502380 3334 37 61 6150
-0.74938428 6.1089196 -0.29961583 858 73502380 3259 38 199 6162
-0.97522533 6.1011062 -0.35939106 864 73502380 3311 39 80 6189
-0.29578039 6.046453 -0.40176681 655 73502380 2412 40 94 6067
-0.5148477 6.030714 -0.45860705 742 73502380 2735 41 87 6070
-0.73640913 6.0170498 -0.5175606 817 73502380 3023 42 136 6084
-0.96012974 6.0275888 -0.57921523 915 73502380 3441 43 78 6131
-0.29758537 6.1271768 -0.6332792 242 73502380 921 44 110 6167
-0.51116967 6.0161252 -0.68023598 365 73502380 1349 45 64 6076
-0.730012 5.9907928 -0.73748982 514 73502380 1901 46 101 6080
-0.9496944 5.9714689 -0.79840106 614 73502380 2284 47 107 6099
-0.28817868 6.0378861 -0.84835213 344 73502380 1283 48 74 6104
-0.50992846 6.0327201 -0.9083764 251 73502380 940 49 32 6122
-0.73582953 6.0649796 -0.97649807 159 73502380 610 50 61 6187
-0.95575964 6.0204444 -1.0345359 256 73502380 981 51 60 6183
-0.28146735 6.0095987 -1.0722961 133 73502380 498 52 75 6111
-0.50694025 6.0337543 -1.1378689 201 73502380 764 53 76 6161
-0.72275138 5.972878 -1.1899793 224 73502380 844 54 74 6133
-0.95148468 5.9928403 -1.2632307 236 73502380 905 55 45 6198
-0.27123839 5.8612452 -1.2728907 795 73502380 2866 56 110 6004
-0.49033558 5.8729777 -1.3362463 610 73502380 2228 57 87 6043
-0.71319836 5.9034343 -1.4089477 469 73502380 1753 58 60 6111
-0.93758124 5.9086003 -1.4805255 335 73502380 1274 59 72 6163
-0.25820217 5.7244978 -1.4705493 917 73502380 3208 60 50 5916
-0.47488049 5.7459183 -1.5375319 903 73502380 3214 61 53 5967
-0.6926015 5.7422037 -1.603561 829 73502380 2988 62 69 6002
-0.90843219 5.7094517 -1.6676942 791 73502380 2865 63 58 6017
-0.30849743 7.0179696 2.1926734 732 73600110 3966 0 79 7359
-0.57638925 7.0122571 2.11181 724 73600110 3909 1 74 7346
-0.83896124 6.9828682 2.0365136 740 73600110 3970 2 61 7322
-1.1008068 6.9431615 1.9637047 817 73600110 4351 3 51 7299
-0.30580774 6.8774385 1.8597004 819 73600110 4166 4 76 7131
-0.5607149 6.8582158 1.7855967 809 73600110 4086 5 44 7109
-0.81943256 6.8425088 1.716686 784 73600110 3956 6 92 7102
-1.0727514 6.8107791 1.6481562 844 73600110 4243 7 78 7089
-0.30140421 6.749207 1.5568739 782 73600110 3760 8 78 6933
-0.55642265 6.7736907 1.495055 725 73600110 3511 9 115 6959
-0.80129397 6.7218485 1.4211162 818 73600110 3916 10 65 6917
-1.0526167 6.7211018 1.3618492 814 73600110 3920 11 68 6938
-0.29841232 6.6587424 1.2788541 810 73600110 3732 12 98 6787
-0.54398996 6.6536498 1.2121245 840 73600110 3868 13 97 6785
-0.7909736 6.6461296 1.1493516 782 73600110 3607 14 91 6791
-1.0505029 6.7183437 1.103914 119 73600110 567 15 67 6889
-0.29369187 6.5559692 1.0112448 834 73600110 3680 16 61 6640
-0.53998888 6.6232147 0.95877051 402 73600110 1814 17 79 6714
-0.7767188 6.5565815 0.88892865 820 73600110 3641 18 73 6662
-1.0161766 6.5249267 0.82567984 809 73600110 3584 19 85 6655
-0.28948084 6.4644918 0.75615716 551 73600110 2340 20 73 6515
-0.52481961 6.4496651 0.69314778 820 73600110 3474 21 92 6508
-0.76234728 6.461328 0.63437939 807 73600110 3451 22 69 6537
-0.99856186 6.4347162 0.57416964 800 73600110 3418 23 138 6537
-0.28434658 6.377233 0.51114285 820 73600110 3364 24 91 6404
-0.51554692 6.3562961 0.44962621 821 73600110 3355 25 114 6393
-0.74900156 6.3501201 0.38962618 813 73600110 3336 26 112 6406
-0.98172098 6.3510628 0.33083737 833 73600110 3450 27 97 6435
-0.27755064 6.2939343 0.27385435 905 73600110 3601 28 69 6306
-0.50915849 6.3048434 0.21436553 771 73600110 3087 29 46 6329
-0.73522335 6.2842131 0.15606683 847 73600110 3392 30 28 6329
-0.96762812 6.2751255 0.09486559 917 73600110 3699 31 74 6350
-0.27457199 6.2338042 0.043563064 793 73600110 3088 32 99 6240
-0.49888366 6.2059608 -0.015756292 821 73600110 3183 33 108 6226
-0.72928727 6.2400808 -0.075005002 799 73600110 3155 34 106 6283
-0.9583028 6.2414074 -0.13546842 841 73600110 3355 35 94 6316
-0.26780236 6.1484575 -0.18276247 854 73600110 3237 36 127 6157
-0.48697644 6.1139469 -0.23990631 867 73600110 3268 37 74 6138
-0.71465927 6.1372137 -0.3007828 833 73600110 3189 38 174 6186
-0.93777126 6.1069751 -0.35939106 898 73600110 3441 39 92 6189
-0.25969774 6.0720792 -0.40335611 611 73600110 2267 40 93 6091
-0.47783422 6.0337596 -0.45860705 688 73600110 2536 41 86 6070
-0.70085496 6.0333319 -0.51858139 827 73600110 3073 42 126 6096
-0.92493379 6.0451751 -0.58034885 879 73600110 3319 43 67 6143
-0.26150176 6.1646643 -0.63697594 198 73600110 762 44 100 6203
-0.4779923 6.066699 -0.68560976 315 73600110 1180 45 56 6124
-0.69187117 5.9833264 -0.73603421 474 73600110 1746 46 93 6068
-0.9112398 5.9654236 -0.79683018 650 73600110 2408 47 123 6087
-0.25112548 6.0395408 -0.84835213 366 73600110 1365 48 81 6104
-0.47475675 6.0593972 -0.91193753 291 73600110 1097 49 51 6146
-0.69995666 6.0811524 -0.97839206 161 73600110 621 50 58 6199
-0.92415059 6.0612826 -1.0405594 199 73600110 768 51 43 6219
-0.24506815 6.0230169 -1.0744017 145 73600110 544 52 114 6123
-0.46716255 6.0014772 -1.1312201 172 73600110 646 53 93 6125
-0.68877369 6.0005903 -1.1946359 197 73600110 749 54 63 6157
-0.90938252 5.9637237 -1.2558935 244 73600110 925 55 40 6162
-0.23479913 5.8510814 -1.2703466 823 73600110 2954 56 126 5992
-0.45248619 5.8525395 -1.3309393 700 73600110 2538 57 64 6019
-0.67430353 5.8844981 -1.4034142 517 73600110 1917 58 63 6087
-0.89779925 5.891211 -1.4747601 343 73600110 1295 59 58 6139
-0.22307244 5.7259746 -1.4705493 951 73600110 3330 60 60 5916
-0.43784705 5.7256017 -1.5313476 913 73600110 3223 61 49 5943
-0.65472639 5.7233672 -1.5971489 848 73600110 3032 62 72 5978
-0.87686622 5.7377133 -1.6743462 795 73600110 2902 63 80 6041
-0.26456454 6.9968371 2.1855226 724 73698250 3897 0 68 7335
-0.52986705 6.9698205 2.0980113 801 73698250 4268 1 80 7298
-0.79348993 6.9649796 2.0298383 731 73698250 3891 2 52 7298
-1.0564439 6.9383593 1.9604763 824 73698250 4378 3 69 7287
-0.26360282 6.8791857 1.8597004 811 73698250 4125 4 92 7131
-0.5177477 6.8499451 1.7825826 825 73698250 4153 5 49 7097
-0.77743226 6.8474078 1.716686 743 73698250 3749 6 87 7102
-1.0309411 6.8172331 1.6481562 840 73698250 4223 7 76 7089
-0.26088616 6.7742987 1.5622633 774 73698250 3747 8 102 6957
-0.51307404 6.7536054 1.4898989 773 73698250 3718 9 107 6935
-0.76135296 6.7383084 1.4235817 816 73698250 3920 10 64 6929
-1.0113569 6.7274342 1.3618492 852 73698250 4099 11 51 6938
-0.25709406 6.6486721 1.276593 848 73698250 3893 12 107 6775
-0.50315374 6.6568627 1.2121245 799 73698250 3681 13 59 6785
-0.75017881 6.6508579 1.1493516 785 73698250 3621 14 95 6791
-1.0004699 6.6660943 1.0942994 455 73698250 2124 15 62 6829
-0.2530016 6.5457969 1.0094172 810 73698250 3557 16 56 6628
-0.49666199 6.5908732 0.95362967 544 73698250 2427 17 87 6678
-0.73514712 6.5494051 0.88732743 709 73698250 3137 18 74 6650
-0.97612125 6.5310388 0.82567984 791 73698250 3504 19 92 6655
-0.25257078 6.5376067 0.76451373 251 73698250 1090 20 85 6587
-0.48613003 6.4646621 0.69442588 821 73698250 3491 21 99 6520
-0.72268701 6.4658842 0.63437939 800 73698250 3420 22 84 6537
-0.95729977 6.4288988 0.57311565 762 73698250 3244 23 125 6525
-0.24475178 6.3669047 0.51018506 827 73698250 3380 24 79 6392
-0.47743022 6.3712764 0.45047018 820 73698250 3365 25 83 6405
-0.71268398 6.3784041 0.39108592 738 73698250 3050 26 127 6430
-0.93921709 6.3332582 0.32960349 831 73698250 3416 27 89 6411
-0.23892656 6.2955189 0.27385435 882 73698250 3509 28 74 6306
-0.47224712 6.3317685 0.21517842 693 73698250 2795 29 43 6353
-0.69665027 6.2886062 0.15606683 834 73698250 3339 30 40 6329
-0.9273507 6.2690749 0.094686322 935 73698250 3758 31 73 6338
-0.23677137 6.2473626 0.043646842 767 73698250 2998 32 116 6252
-0.46079522 6.2089047 -0.015756292 855 73698250 3315 33 103 6226
-0.68834567 6.2205853 -0.074718498 802 73698250 3142 34 111 6259
-0.91124862 6.1878238 -0.13418153 893 73698250 3495 35 96 6256
-0.22962271 6.1379991 -0.18240629 859 73698250 3243 36 133 6145
-0.44945282 6.1168199 -0.23990631 867 73698250 3268 37 64 6138
-0.6769886 6.1414833 -0.3007828 844 73698250 3231 38 190 6186
-0.89853638 6.1007628 -0.35869426 903 73698250 3447 39 74 6177
-0.22155882 6.0496273 -0.40176681 560 73698250 2062 40 104 6067
-0.4416742 6.048512 -0.45951369 676 73698250 2501 41 99 6082
-0.66251516 6.0256338 -0.5175606 791 73698250 2927 42 134 6084
-0.88435531 6.0270972 -0.57808155 881 73698250 3300 43 71 6119
-0.22323848 6.1542249 -0.63574374 175 73698250 671 44 99 6191
-0.44334975 6.1051979 -0.68964016 282 73698250 1072 45 58 6160
-0.65773642 6.0111408 -0.73894536 435 73698250 1615 46 96 6092
-0.87806797 5.9944444 -0.79997188 622 73698250 2323 47 109 6111
-0.213642 6.0290923 -0.8466844 370 73698250 1374 48 79 6092
-0.43585935 6.0385237 -0.9083764 276 73698250 1033 49 44 6122
-0.65621668 6.026433 -0.96892226 245 73698250 922 50 36 6139
-0.88351899 6.043426 -1.0365437 174 73698250 666 51 56 6195
-0.20810699 6.0244074 -1.0744017 184 73698250 691 52 92 6123
-0.43117243 6.0159941 -1.1334363 155 73698250 585 53 75 6137
-0.65067124 5.993001 -1.1923077 186 73698250 704 54 60 6145
-0.87107301 5.9575667 -1.2534477 213 73698250 804 55 37 6150
-0.19809653 5.8289714 -1.2652586 847 73698250 3016 56 124 5968
-0.41656718 5.8552055 -1.3309393 707 73698250 2563 57 71 6019
-0.63566798 5.8653069 -1.3978808 603 73698250 2218 58 72 6063
-0.85826606 5.8735561 -1.4689945 497 73698250 1860 59 69 6115
-0.18869673 5.7504692 -1.4765151 939 73698250 3312 60 45 5940
-0.40189403 5.7166142 -1.5282556 880 73698250 3094 61 50 5931
-0.61959612 5.7272768 -1.5971489 853 73698250 3050 62 65 5978
-0.83495635 5.6973538 -1.6610423 785 73698250 2821 63 62 5993
-0.22199035 7.0097775 2.1890979 724 73795580 3910 0 68 7347
-0.48629013 6.9614749 2.0945613 797 73795580 4233 1 83 7286
-0.74950421 6.9582567 2.0265005 770 73795580 4085 2 56 7286
-1.0105119 6.9218388 1.9540194 855 73795580 4508 3 49 7263
-0.22101541 6.8690948 1.856571 781 73795580 3959 4 83 7119
-0.47570747 6.852993 1.7825826 821 73795580 4133 5 48 7097
-0.73788792 6.8752046 1.7224873 764 73795580 3880 6 98 7126
-0.98909193 6.8234305 1.6481562 760 73795580 3822 7 63 7089
-0.21931493 6.7757721 1.5622633 805 73795580 3897 8 97 6957
-0.47244111 6.7683182 1.4924769 721 73795580 3480 9 107 6947
-0.71874619 6.7311754 1.4211162 802 73795580 3835 10 55 6917
-0.96502572 6.6985745 1.3547828 852 73795580 4057 11 47 6902
-0.21667683 6.6619034 1.2788541 833 73795580 3838 12 98 6787
-0.46066323 6.6362672 1.2078369 825 73795580 3773 13 91 6761
-0.70684886 6.631815 1.1452897 776 73795580 3554 14 87 6767
-0.9460597 6.5783134 1.0789161 707 73795580 3207 15 64 6733
-0.21206191 6.5235181 1.0057621 836 73795580 3648 16 63 6604
-0.45293266 6.5464015 0.94677514 421 73795580 1852 17 83 6630
-0.70623332 6.6602306 0.90173823 180 73795580 824 18 67 6758
-0.93434137 6.5251179 0.82419097 807 73795580 3563 19 85 6643
-0.21206498 6.5271206 0.76312095 455 73795580 1968 20 85 6575
-0.44563276 6.4556198 0.69314778 833 73795580 3530 21 72 6508
-0.68299949 6.4701967 0.63437939 812 73795580 3472 22 80 6537
-0.91783482 6.4346519 0.57311565 804 73795580 3423 23 136 6525
-0.20568058 6.3682866 0.51018506 800 73795580 3270 24 87 6392
-0.43832782 6.3740859 0.45047018 828 73795580 3398 25 84 6405
-0.67101943 6.3588333 0.38962618 786 73795580 3224 26 130 6406
-0.90202451 6.3507667 0.33022043 837 73795580 3453 27 103 6423
-0.19991234 6.2848835 0.27333322 900 73795580 3567 28 69 6294
-0.43256861 6.3225818 0.21477197 766 73795580 3078 29 50 6341
-0.65680331 6.2808309 0.15577093 841 73795580 3355 30 44 6317
-0.88718396 6.2627673 0.094507046 874 73795580 3499 31 79 6326
-0.19805294 6.2367043 0.043563064 829 73795580 3228 32 112 6240
-0.42106003 6.1876707 -0.015695555 826 73795580 3178 33 103 6202
-0.65016389 6.2246919 -0.074718498 829 73795580 3249 34 89 6259
-0.87493873 6.2051778 -0.1344389 891 73795580 3501 35 95 6268
-0.19158147 6.1273036 -0.18205008 817 73795580 3072 36 139 6133
-0.41191226 6.1194625 -0.23990631 859 73795580 3238 37 60 6138
-0.63805228 6.1336002 -0.30019933 901 73795580 3435 38 201 6174
-0.85941309 6.0942988 -0.35799742 871 73795580 3312 39 89 6165
-0.18552923 6.0867767 -0.40415078 512 73795580 1908 40 84 6103
-0.40375471 6.0391693 -0.45860705 641 73795580 2363 41 68 6070
-0.62553012 6.0295854 -0.5175606 773 73795580 2861 42 123 6084
-0.84403354 6.00875 -0.57581419 838 73795580 3115 43 62 6095
-0.18691066 6.2032032 -0.6406728 180 73795580 702 44 91 6239
-0.4058806 6.1078033 -0.68964016 234 73795580 890 45 61 6160
-0.6196174 6.0032148 -0.73748982 378 73795580 1398 46 87 6080
-0.84127021 5.9997191 -0.79997188 563 73795580 2102 47 122 6111
-0.17699212 6.0421677 -0.84835213 347 73795580 1294 48 81 6104
-0.39801773 6.0292425 -0.90659583 329 73795580 1227 49 48 6110
-0.62285799 6.0657086 -0.97460413 218 73795580 830 50 45 6175
-0.83986241 6.0018668 -1.0285125 204 73795580 769 51 48 6147
-0.17180882 6.0491891 -1.078613 265 73795580 1003 52 77 6147
-0.39193818 5.9832215 -1.1267875 130 73795580 486 53 61 6101
-0.61508536 6.0085907 -1.1946359 138 73795580 525 54 59 6157
-0.8377583 5.9860692 -1.2583392 191 73795580 727 55 42 6174
-0.1623269 5.8300772 -1.2652586 871 73795580 3102 56 115 5968
-0.37835589 5.8226166 -1.3229789 756 73795580 2708 57 69 5983
-0.59729344 5.8458648 -1.3923475 677 73795580 2470 58 69 6039
-0.82059693 5.8671756 -1.4661118 551 73795580 2053 59 90 6103
-0.15340896 5.7515187 -1.4765151 953 73795580 3361 60 55 5940
-0.36680999 5.7189727 -1.5282556 903 73795580 3175 61 43 5931
-0.58326936 5.7194667 -1.5939428 832 73795580 2963 62 73 5966
-0.80158406 5.7137876 -1.6643683 793 73795580 2861 63 63 6005
-0.17897497 7.0110078 2.1890979 726 73893520 3921 0 76 7347
-0.44356614 6.9643278 2.0945613 851 73893520 4520 1 79 7286
-0.70679504 6.9627247 2.0265005 719 73893520 3815 2 49 7286
-0.96802127 6.9279089 1.9540194 823 73893520 4344 3 59 7263
-0.17886327 6.8703218 1.856571 808 73893520 4096 4 80 7119
-0.43291613 6.8441911 1.7795686 776 73893520 3892 5 57 7085
-0.68983096 6.8216777 1.7079842 798 73893520 3986 6 76 7066
-0.94720554 6.829371 1.6481562 806 73893520 4053 7 61 7089
-0.17804202 6.7886796 1.564958 701 73893520 3405 8 102 6969
-0.4309026 6.7710896 1.4924769 760 73893520 3668 9 117 6947
-0.6762557 6.723774 1.4186509 814 73893520 3879 10 53 6905
-0.92551219 6.7160258 1.3571383 779 73893520 3726 11 62 6914
-0.17579608 6.6631074 1.2788541 843 73893520 3884 12 101 6787
-0.4199352 6.6389689 1.2078369 829 73893520 3791 13 91 6761
-0.66732478 6.6477947 1.1473206 797 73893520 3663 14 88 6779
-0.89437896 6.501853 1.0654556 1024 73893520 4528 15 69 6649
-0.17296815 6.5602646 1.0112448 834 73893520 3676 16 50 6640
-0.41947979 6.6557388 0.96219778 434 73893520 1972 17 82 6738
-0.66653508 6.6762724 0.90333939 51 73893520 236 18 65 6770
-0.89267105 6.5189314 0.82270217 804 73893520 3536 19 87 6631
-0.16981377 6.4448953 0.7533716 713 73893520 3005 20 108 6491
-0.40601343 6.4582324 0.69314778 828 73893520 3508 21 96 6508
-0.64092451 6.4504962 0.63205034 797 73893520 3382 22 84 6513
-0.87671995 6.428319 0.57206166 828 73893520 3513 23 116 6513
-0.16722718 6.3933439 0.51210064 821 73893520 3381 24 98 6416
-0.39771307 6.3527622 0.44878227 824 73893520 3356 25 81 6381
-0.63198972 6.3628311 0.38962618 814 73893520 3339 26 132 6406
-0.86303997 6.3561821 0.33022043 829 73893520 3419 27 121 6423
-0.16134524 6.2859921 0.27333322 886 73893520 3512 28 61 6294
-0.39153033 6.2892075 0.21355264 794 73893520 3155 29 41 6305
-0.61942697 6.2966819 0.15606683 850 73893520 3407 30 58 6329
-0.85195965 6.2918735 0.09486559 862 73893520 3477 31 83 6350
-0.15947424 6.2258062 0.04347929 817 73893520 3169 32 112 6228
-0.38308528 6.1901379 -0.015695555 826 73893520 3178 33 101 6202
-0.61078435 6.2166224 -0.074575245 842 73893520 3287 34 83 6247
-0.83364373 6.1866503 -0.13392414 887 73893520 3459 35 93 6244
-0.15368015 6.1163726 -0.18169387 785 73893520 2940 36 139 6121
-0.37362429 6.1099062 -0.23943728 840 73893520 3151 37 57 6126
-0.59807122 6.1135416 -0.29903236 890 73893520 3367 38 197 6150
-0.82360297 6.11133 -0.35869426 909 73893520 3470 39 72 6177
-0.14817797 6.0878005 -0.40415078 500 73893520 1863 40 87 6103
-0.36741641 6.0534768 -0.45951369 588 73893520 2175 41 102 6082
-0.58852148 6.0333099 -0.5175606 707 73893520 2616 42 140 6084
-0.80873781 6.0256557 -0.57694787 821 73893520 3064 43 58 6107
-0.14741358 6.1445675 -0.63451147 209 73893520 799 44 99 6179
-0.36911386 6.1220818 -0.69098365 180 73893520 684 45 57 6172
-0.58852172 6.0661821 -0.74476767 335 73893520 1264 46 102 6140
-0.80128151 5.9811859 -0.79683018 501 73893520 1855 47 139 6087
-0.13991474 6.0431399 -0.84835213 356 73893520 1327 48 82 6104
-0.3610155 6.0315714 -0.90659583 329 73893520 1227 49 48 6110
-0.58335173 6.0458269 -0.9708162 281 73893520 1061 50 54 6151
-0.80772269 6.0420866 -1.0345359 241 73893520 920 51 53 6183
-0.13363671 6.0028858 -1.0701905 373 73893520 1388 52 90 6099
-0.36010921 6.0679235 -1.1423014 117 73893520 449 53 77 6185
-0.57482505 5.9770985 -1.1876509 133 73893520 497 54 54 6121
-0.79634207 5.9561634 -1.251002 175 73893520 658 55 42 6138
-0.12629671 5.8192387 -1.2627144 898 73893520 3184 56 148 5956
-0.34124747 5.8014631 -1.3176719 802 73893520 2849 57 74 5959
-0.55918145 5.8261728 -1.386814 724 73893520 2621 58 64 6015
-0.78458118 5.8720999 -1.4661118 618 73893520 2303 59 90 6103
-0.11835403 5.7639728 -1.4794979 955 73893520 3385 60 71 5952
-0.33036983 5.6979651 -1.5220714 873 73893520 3045 61 50 5907
-0.54926699 5.7344494 -1.5971489 775 73893520 2771 62 78 5978
-0.76497817 5.707171 -1.6610423 774 73893520 2781 63 70 5993
-0.13595288 7.0119739 2.1890979 753 73992230 4067 0 66 7347
-0.4008255 6.9669185 2.0945613 822 73992230 4366 1 82 7286
-0.66405928 6.9669304 2.0265005 745 73992230 3952 2 52 7286
-0.9239651 6.9222617 1.950791 828 73992230 4356 3 73 7251
-0.13693485 6.8828721 1.8597004 809 73992230 4115 4 95 7131
-0.39025071 6.8351221 1.7765545 808 73992230 4040 5 41 7073
-0.64796096 6.8257818 1.7079842 801 73992230 4000 6 91 7066
-0.90221864 6.8119144 1.6425765 864 73992230 4315 7 61 7065
-0.13614927 6.7779531 1.5622633 802 73992230 3883 8 93 6957
-0.38867533 6.7619052 1.4898989 776 73992230 3733 9 100 6935
-0.63498664 6.7277966 1.4186509 821 73992230 3917 10 62 6905
-0.88275123 6.7099123 1.3547828 839 73992230 3994 11 54 6902
-0.13467018 6.6522779 1.276593 848 73992230 3892 12 119 6775
-0.37919134 6.6414204 1.2078369 811 73992230 3709 13 76 6761
-0.624304 6.6282148 1.1432587 778 73992230 3550 14 111 6755
-0.86526239 6.5894275 1.0789161 576 73992230 2613 15 65 6733
-0.13247202 6.5493445 1.0094172 827 73992230 3632 16 50 6628
-0.37121549 6.527751 0.94334793 827 73992230 3610 17 93 6606
-0.61225188 6.538146 0.88412511 431 73992230 1894 18 59 6626
-0.85111177 6.5124793 0.82121336 802 73992230 3515 19 78 6619
