# .PCD v0.7 - Point Cloud Data file format
VERSION 0.7
FIELDS x y z intensity t reflectivity ring noise range
SIZE 4 4 4 4 4 2 1 2 4
TYPE F F F F U U U U U
COUNT 1 1 1 1 1 1 1 1 1
WIDTH 771
HEIGHT 1
VIEWPOINT 0 0 0 1 0 0 0
POINTS 771
DATA ascii
0.14279748 -1.0532887 -0.012689849 239 23173750 27 34 73 1063
0.21677946 -1.257153 -0.027368225 315 23173750 51 35 65 1276
0.069108143 -1.114367 -0.033156686 206 23173750 26 36 127 1117
0.10605782 -1.0799751 -0.042446766 259 23173750 31 37 41 1086
0.1436695 -1.0630654 -0.052221261 265 23173750 31 38 110 1074
0.20511819 -1.1894028 -0.070205823 312 23173750 46 39 79 1209
0.067015521 -1.0945381 -0.072777607 232 23173750 28 40 99 1099
0.10224235 -1.0460025 -0.079632916 235 23173750 26 41 101 1054
0.14382109 -1.0664308 -0.091874659 245 23173750 29 42 138 1080
0.21638466 -1.2587992 -0.12120912 348 23173750 57 43 58 1283
0.075372599 -1.2381158 -0.12805241 318 23173750 50 44 60 1247
0.11706868 -1.2026712 -0.13613676 252 23173750 37 45 49 1216
0.16756645 -1.2474331 -0.15380543 362 23173750 58 46 130 1268
0.21182573 -1.2340839 -0.16533537 311 23173750 50 47 159 1263
0.078812174 -1.3127478 -0.1845694 296 23173750 52 48 60 1328
0.12494876 -1.2894595 -0.19437653 369 23173750 63 49 37 1310
0.16591634 -1.2400695 -0.19997141 344 23173750 55 50 90 1267
0.21430597 -1.2506281 -0.21534008 305 23173750 51 51 76 1287
0.074107565 -1.2530286 -0.22372404 370 23173750 60 52 77 1275
0.12041348 -1.2492419 -0.23584785 351 23173750 57 53 69 1277
0.16210593 -1.2144929 -0.2423421 326 23173750 51 54 126 1249
0.20538777 -1.1984584 -0.25313529 522 23173750 81 55 96 1242
0.072240941 -1.2331527 -0.267977 339 23173750 54 56 89 1264
0.11232493 -1.1717504 -0.26689544 327 23173750 48 57 39 1207
0.15773484 -1.1834774 -0.28289625 283 23173750 43 58 106 1227
0.3079384 -1.7977941 -0.45138851 412 23173750 145 59 105 1879
0.068617456 -1.1952384 -0.30723447 299 23173750 46 60 36 1236
0.11323883 -1.1917943 -0.31925622 375 23173750 58 61 24 1239
0.24281217 -1.8244834 -0.51029682 311 23173750 114 62 85 1910
0.31302527 -1.822903 -0.53354019 159 23173750 59 63 69 1925
0.085739665 -1.5239619 0.47643495 86 23271840 22 0 58 1599
0.14625756 -1.5466312 0.4662886 72 23271840 19 1 52 1622
0.19118097 -1.4416387 0.42109826 34 23271840 8 2 37 1514
0.24615423 -1.4382288 0.40759182 86 23271840 20 3 36 1515
0.089461043 -1.5758841 0.42639324 66 23271840 18 4 56 1635
0.14413287 -1.5312915 0.39911565 75 23271840 19 5 25 1589
0.19053812 -1.4410367 0.36209458 80 23271840 18 6 97 1498
0.22263795 -1.3087944 0.31735551 388 23271840 72 7 40 1365
0.082958944 -1.4564064 0.3361662 68 23271840 15 8 65 1497
0.14216314 -1.5041741 0.33235377 67 23271840 16 9 15 1547
0.17848176 -1.3554978 0.28701741 372 23271840 73 10 34 1397
0.23001327 -1.3593249 0.27598155 376 23271840 74 11 27 1406
0.087759122 -1.5364263 0.29526511 65 23271840 16 12 96 1567
0.13655312 -1.450763 0.26457721 90 23271840 20 13 54 1481
0.18487521 -1.4061394 0.24354543 213 23271840 44 14 85 1439
0.22907321 -1.3557832 0.22321847 409 23271840 79 15 44 1393
0.081360176 -1.4248347 0.21991527 69 23271840 14 16 43 1444
0.12713188 -1.3539629 0.19620952 229 23271840 43 17 49 1374
0.18243706 -1.393428 0.18920757 357 23271840 72 18 63 1418
0.22648162 -1.3454474 0.17059501 561 23271840 106 19 79 1375
0.065153539 -1.1413631 0.13358968 212 23271840 28 20 63 1151
0.13065915 -1.3938808 0.14996192 337 23271840 67 21 25 1408
0.18036623 -1.3826728 0.13595922 421 23271840 83 22 92 1401
0.2289397 -1.3645598 0.12200117 374 23271840 72 23 105 1389
0.061600719 -1.0827781 0.086840011 183 23271840 22 24 34 1088
0.10778425 -1.1530985 0.08165431 252 23271840 34 25 78 1161
0.17477104 -1.3401452 0.082353085 291 23271840 53 26 104 1354
0.21982053 -1.3149879 0.068635255 267 23271840 48 27 80 1335
0.060421608 -1.0712842 0.046641223 221 23271840 25 28 39 1074
0.099431835 -1.0677648 0.0363429 259 23271840 30 29 32 1073
0.15773395 -1.2184591 0.030305916 289 23271840 44 30 45 1229
0.2115441 -1.2683359 0.019212149 361 23271840 60 31 74 1286
0.063458979 -1.126186 0.0078748614 196 23271840 25 32 80 1128
0.099558786 -1.0733894 -0.0027281214 275 23271840 32 33 61 1078
0.13787097 -1.066045 -0.012833102 245 23271840 28 34 82 1075
0.20709553 -1.2466245 -0.027110845 309 23271840 49 35 82 1264
0.058924399 -1.0548898 -0.031375661 230 23271840 26 36 141 1057
0.096133217 -1.0447843 -0.04103969 230 23271840 25 37 61 1050
0.13867629 -1.0758145 -0.052804742 263 23271840 31 38 111 1086
0.1879991 -1.1315501 -0.066721655 272 23271840 36 39 73 1149
0.061615095 -1.1188396 -0.07436692 194 23271840 24 40 78 1123
0.099095143 -1.0823578 -0.082352832 259 23271840 31 41 70 1090
0.13422433 -1.0435755 -0.089832999 253 23271840 28 42 136 1056
0.20280199 -1.2247456 -0.11780809 350 23271840 54 43 77 1247
0.068426438 -1.2504737 -0.12928466 289 23271840 46 44 60 1259
0.10968702 -1.2033669 -0.13613676 308 23271840 45 45 45 1216
0.15990919 -1.2484378 -0.15380543 334 23271840 54 46 109 1268
0.20424955 -1.2353604 -0.16533537 295 23271840 47 47 138 1263
0.072034545 -1.3369395 -0.187905 296 23271840 54 48 53 1352
0.11489029 -1.2665645 -0.19081542 389 23271840 64 49 19 1286
0.15980361 -1.2528186 -0.20186538 386 23271840 63 50 95 1279
0.19699521 -1.1935551 -0.20530093 306 23271840 46 51 100 1227
0.064542405 -1.218068 -0.21740712 325 23271840 50 52 81 1239
0.11380548 -1.2617031 -0.23806411 338 23271840 56 53 49 1289
0.15613674 -1.2271426 -0.24467045 311 23271840 49 54 103 1261
0.19420362 -1.1765136 -0.24824379 269 23271840 40 55 74 1218
0.064673096 -1.2335728 -0.267977 317 23271840 51 56 99 1264
0.10826879 -1.2073861 -0.27485588 307 23271840 47 57 46 1243
0.15782814 -1.2423409 -0.29672977 228 23271840 38 58 74 1287
0.22484881 -1.3629067 -0.34184453 220 23271840 45 59 93 1423
0.061877288 -1.207245 -0.31021729 300 23271840 47 60 20 1248
0.10797577 -1.2155652 -0.32544035 368 23271840 59 61 11 1263
0.2097854 -1.6538609 -0.46220604 259 23271840 78 62 92 1730
0.29430798 -1.7792882 -0.52023637 139 23271840 49 63 59 1877
0.078680247 -1.5702217 0.49073693 82 23368350 22 0 59 1647
0.13372938 -1.513153 0.45593941 79 23368350 20 1 52 1586
0.19822846 -1.5685756 0.45781222 58 23368350 16 2 35 1646
0.23920459 -1.4511158 0.41082028 83 23368350 19 3 36 1527
0.074519388 -1.4722739 0.39822781 67 23368350 16 4 69 1527
0.13371682 -1.5205764 0.39610156 83 23368350 21 5 29 1577
0.18023703 -1.4306259 0.35919395 59 23368350 13 6 93 1486
0.21460314 -1.3101358 0.31735551 372 23368350 69 7 68 1365
0.075207748 -1.4802448 0.34155563 72 23368350 17 8 58 1521
0.13293102 -1.5050181 0.33235377 69 23368350 16 9 14 1547
0.17308454 -1.3798729 0.29194829 333 23368350 67 10 47 1421
0.21977636 -1.3490973 0.27362609 384 23368350 75 11 10 1394
0.077130444 -1.5133964 0.29074287 83 23368350 20 12 76 1543
0.13592316 -1.5456661 0.28172737 70 23368350 17 13 38 1577
0.17771354 -1.4189825 0.2455764 75 23368350 16 14 84 1451
0.21694668 -1.3337808 0.21937266 407 23368350 76 15 41 1369
0.077443682 -1.5200644 0.23453568 89 23368350 21 16 32 1540
0.12608594 -1.4375386 0.20820487 96 23368350 20 17 54 1458
0.17094068 -1.3709185 0.18600519 367 23368350 71 18 74 1394
0.22393528 -1.3820736 0.17506148 394 23368350 78 19 47 1411
0.059361536 -1.1655484 0.13637523 216 23368350 30 20 62 1175
0.12418532 -1.4184288 0.15251808 342 23368350 70 21 35 1432
0.17040671 -1.3719013 0.1347947 399 23368350 77 22 90 1389
0.22056261 -1.3659389 0.12200117 394 23368350 76 23 109 1389
0.058592536 -1.1548138 0.092586778 179 23368350 24 24 50 1160
0.099666044 -1.1418133 0.080810346 270 23368350 36 25 62 1149
0.16654477 -1.3411924 0.082353085 292 23368350 53 26 116 1354
0.20794109 -1.292648 0.067401372 306 23368350 53 27 84 1311
0.05565213 -1.1075555 0.048204619 207 23368350 25 28 54 1110
0.09391699 -1.0803028 0.036749344 278 23368350 33 29 37 1085
0.13998501 -1.13606 0.02823456 247 23368350 32 30 53 1145
0.2094617 -1.3051512 0.019749969 332 23368350 58 31 56 1322
0.054141354 -1.0786158 0.0075397613 189 23368350 22 32 86 1080
0.095040567 -1.0978905 -0.0027888587 270 23368350 33 33 53 1102
0.13279322 -1.0787802 -0.012976355 272 23368350 32 34 78 1087
0.19376217 -1.2123311 -0.0263387 307 23368350 46 35 93 1228
0.05483247 -1.1031512 -0.032800477 228 23368350 28 36 128 1105
0.09279687 -1.0811952 -0.042446766 255 23368350 30 37 54 1086
0.12915386 -1.0528518 -0.051637784 297 23368350 33 38 109 1062
0.16970716 -1.0617049 -0.062540665 264 23368350 31 39 64 1077
0.054163836 -1.1072373 -0.073572263 208 23368350 26 40 89 1111
0.093469873 -1.0948677 -0.083259463 262 23368350 32 41 83 1102
0.12927103 -1.0562475 -0.090853833 238 23368350 27 42 104 1068
0.19340403 -1.2141693 -0.1166744 316 23368350 48 43 71 1235
0.060173333 -1.2389475 -0.12805241 242 23368350 38 44 74 1247
0.10734899 -1.2634259 -0.14285403 354 23368350 58 45 42 1276
0.15224591 -1.2493955 -0.15380543 381 23368350 61 46 147 1268
0.19853424 -1.2483395 -0.16690627 332 23368350 54 47 136 1275
0.062130269 -1.3017461 -0.18290162 253 23368350 44 48 55 1316
0.1061171 -1.2554207 -0.18903488 375 23368350 61 49 47 1274
0.15068628 -1.2420121 -0.19997141 391 23368350 63 50 91 1267
0.18966798 -1.1947414 -0.20530093 341 23368350 51 51 89 1227
0.057619978 -1.2302419 -0.21951276 355 23368350 56 52 47 1251
0.10507429 -1.2506256 -0.23584785 380 23368350 62 53 60 1277
0.14577588 -1.2047042 -0.24001376 350 23368350 54 54 131 1237
0.19250755 -1.2124914 -0.25558105 239 23368350 38 55 47 1254
0.057102822 -1.2339464 -0.267977 313 23368350 50 56 91 1264
0.10280576 -1.2313524 -0.28016284 322 23368350 52 57 50 1267
0.1502023 -1.2432859 -0.29672977 236 23368350 39 58 76 1287
0.20370297 -1.2837281 -0.32166538 292 23368350 52 59 100 1339
0.054992348 -1.2192136 -0.31320018 308 23368350 49 60 17 1260
0.10433523 -1.2624265 -0.33780864 234 23368350 40 61 29 1311
0.15809131 -1.3106997 -0.36602443 255 23368350 48 62 104 1370
0.27976146 -1.7582872 -0.51358443 130 23368350 44 63 56 1853
0.068037957 -1.547787 0.48358592 81 23466190 21 0 53 1623
0.13103323 -1.5941287 0.48008752 93 23466190 26 1 67 1670
0.17072552 -1.420988 0.41442302 52 23466190 11 2 45 1490
0.21762764 -1.3726513 0.38822111 99 23466190 21 3 47 1443
0.066513509 -1.4958502 0.40448681 83 23466190 20 4 68 1551
0.11775881 -1.4403315 0.37500292 59 23466190 13 5 33 1493
0.17560917 -1.4663895 0.36789584 67 23466190 16 6 102 1522
0.20837618 -1.3229572 0.32014546 387 23466190 73 7 53 1377
0.065602034 -1.4689965 0.3388609 80 23466190 18 8 87 1509
0.12753186 -1.5525272 0.34266597 58 23466190 15 9 21 1595
0.1632244 -1.3692474 0.28948283 326 23466190 65 10 41 1409
0.20967372 -1.3387955 0.27127063 386 23466190 74 11 21 1382
0.067842968 -1.5138413 0.29074287 94 23466190 22 12 84 1543
0.11970185 -1.4640971 0.26672098 79 23466190 18 13 54 1493
0.16900349 -1.4200462 0.2455764 80 23466190 17 14 89 1451
0.21058854 -1.3467895 0.22129557 350 23466190 67 15 51 1381
0.069176823 -1.5442073 0.23819079 90 23466190 22 16 12 1564
0.11340249 -1.3909342 0.20135038 84 23466190 17 17 67 1410
0.16252567 -1.3719416 0.18600519 372 23466190 72 18 75 1394
0.21911547 -1.4069526 0.17803915 276 23466190 57 19 92 1435
0.050075967 -1.1182629 0.13080417 208 23466190 26 20 67 1127
0.10870571 -1.3359171 0.14357148 301 23466190 55 21 53 1348
0.16198568 -1.372921 0.1347947 385 23466190 74 22 108 1389
0.2121772 -1.3672665 0.12200117 369 23466190 71 23 118 1389
0.049374364 -1.1073521 0.088755608 202 23466190 25 24 54 1112
0.092658132 -1.1424032 0.080810346 251 23466190 33 25 66 1149
0.1555061 -1.3183984 0.080893353 303 23466190 54 26 134 1330
0.20732848 -1.3412734 0.069869153 312 23466190 58 27 96 1359
0.048855249 -1.1078762 0.048204619 231 23466190 28 28 52 1110
0.08921738 -1.1047672 0.037562232 255 23466190 31 29 18 1109
0.12604161 -1.077322 0.026755018 243 23466190 29 30 37 1085
0.19779234 -1.2826949 0.019391423 324 23466190 55 31 68 1298
0.049106143 -1.1148919 0.007791087 181 23466190 23 32 63 1116
0.088302247 -1.0984529 -0.0027888587 270 23466190 33 33 76 1102
0.1233857 -1.0557387 -0.012689849 245 23466190 28 34 83 1063
0.17721623 -1.1542058 -0.025051793 287 23466190 39 35 80 1168
0.04858458 -1.1154503 -0.033156686 232 23466190 29 36 127 1117
0.085208975 -1.0697912 -0.041977737 272 23466190 31 37 60 1074
0.1240776 -1.0655298 -0.052221261 268 23466190 31 38 91 1074
0.15773466 -1.0272033 -0.06045017 269 23466190 29 39 62 1041
0.047368936 -1.1075488 -0.073572263 208 23466190 26 40 94 1111
0.084860839 -1.071564 -0.081446193 251 23466190 29 41 100 1078
0.12002831 -1.0332675 -0.088812172 236 23466190 26 42 143 1044
0.17330275 -1.1326708 -0.10873865 281 23466190 37 43 70 1151
0.051558387 -1.2154417 -0.12558788 255 23466190 38 44 78 1223
0.095848225 -1.2165099 -0.13748021 367 23466190 55 45 45 1228
0.14731337 -1.2739713 -0.15671659 380 23466190 63 46 113 1292
0.19087084 -1.2495342 -0.16690627 339 23466190 55 47 123 1275
0.053648036 -1.2902296 -0.18123381 232 23466190 39 48 55 1304
0.098411985 -1.2560482 -0.18903488 334 23466190 54 49 38 1274
0.14712752 -1.278229 -0.20565331 370 23466190 63 50 108 1303
0.18768325 -1.2309695 -0.21132441 307 23466190 49 51 81 1263
0.050550558 -1.2423763 -0.22161838 351 23466190 56 52 58 1263
0.099229135 -1.2747629 -0.24028039 368 23466190 62 53 60 1301
0.13972363 -1.2172711 -0.2423421 312 23466190 49 54 99 1249
0.17975137 -1.1788081 -0.24824379 274 23466190 41 55 64 1218
0.049530394 -1.2342736 -0.267977 308 23466190 49 56 81 1264
0.093444154 -1.2086238 -0.27485588 312 23466190 48 57 48 1243
0.13725351 -1.197781 -0.28566295 278 23466190 43 58 89 1239
0.19231243 -1.2619225 -0.31589988 269 23466190 47 59 91 1315
0.048415314 -1.2427571 -0.31916589 315 23466190 52 60 2 1284
0.095703065 -1.2514819 -0.33471656 248 23466190 42 61 26 1299
0.14478894 -1.2656895 -0.3532002 301 23466190 53 62 94 1322
0.27419305 -1.7941633 -0.52356231 152 23466190 54 63 51 1889
0.058972463 -1.5596222 0.48716143 84 23564280 22 0 42 1635
0.11950687 -1.5719819 0.47318804 91 23564280 25 1 81 1646
0.17505054 -1.536533 0.44779935 42 23564280 11 2 37 1610
0.22137915 -1.4539419 0.41082028 84 23564280 20 3 25 1527
0.061326187 -1.6004163 0.43265221 84 23564280 23 4 66 1659
0.11242063 -1.4873561 0.3870593 80 23564280 19 5 31 1541
0.16923547 -1.4905791 0.3736971 73 23564280 18 6 65 1546
0.20025475 -1.3242108 0.32014546 347 23564280 66 7 59 1377
0.058387198 -1.5161109 0.34963977 82 23564280 20 8 54 1557
0.11090093 -1.4597915 0.32204157 52 23564280 12 9 25 1499
0.15745689 -1.3935628 0.29441372 283 23564280 58 10 61 1433
0.20495357 -1.3633283 0.27598155 388 23564280 77 11 24 1406
0.059919044 -1.5495577 0.29752627 81 23564280 20 12 72 1579
0.10982618 -1.4530307 0.26457721 59 23564280 13 13 49 1481
0.16161266 -1.4328089 0.24760734 70 23564280 15 14 109 1463
0.20407887 -1.3597699 0.22321847 367 23564280 71 15 32 1393
0.054203723 -1.4023886 0.21626016 78 23564280 16 16 55 1420
0.10754316 -1.4271343 0.20649125 88 23564280 18 17 74 1446
0.15543111 -1.3847314 0.18760636 369 23564280 73 18 65 1406
0.20167796 -1.3493882 0.17059501 364 23564280 69 19 78 1375
0.045514118 -1.1780992 0.137768 227 23564280 32 20 67 1187
0.094243608 -1.2532719 0.1346249 254 23564280 41 21 80 1264
0.15488519 -1.3857585 0.13595922 386 23564280 76 22 73 1401
0.20202328 -1.3567195 0.12094717 403 23564280 76 23 150 1377
0.044416782 -1.1554458 0.092586778 163 23564280 22 24 64 1160
0.085646734 -1.1429503 0.080810346 271 23564280 36 25 62 1149
0.14741363 -1.3193277 0.080893353 265 23564280 47 26 109 1330
0.19206265 -1.2951025 0.067401372 312 23564280 54 27 89 1311
0.042056531 -1.108155 0.048204619 214 23564280 26 28 55 1110
0.081544951 -1.0933338 0.037155788 259 23564280 31 29 22 1097
0.11810803 -1.0661517 0.026459111 273 23564280 31 30 41 1073
0.18816234 -1.2720149 0.019212149 307 23564280 51 31 58 1286
0.042264372 -1.1151723 0.007791087 221 23564280 28 32 77 1116
0.080672465 -1.087007 -0.0027584899 275 23564280 33 33 75 1090
0.11558575 -1.0445495 -0.012546594 272 23564280 30 34 91 1051
0.15439954 -1.0484484 -0.022735361 240 23564280 27 35 70 1060
0.040394165 -1.0797684 -0.032088071 200 23564280 23 36 140 1081
0.080400646 -1.0942112 -0.042915791 260 23564280 31 37 49 1098
0.1175373 -1.0662711 -0.052221261 269 23564280 31 38 108 1074
0.15317449 -1.0400038 -0.061147004 259 23564280 29 39 65 1053
0.039695803 -1.0838873 -0.071982943 231 23564280 27 40 90 1087
0.080027126 -1.0959322 -0.083259463 243 23564280 30 41 64 1102
0.11368604 -1.0339845 -0.088812172 257 23564280 28 42 129 1044
0.15594368 -1.0627942 -0.10193658 219 23564280 26 43 68 1079
0.045397714 -1.2515213 -0.12928466 237 23564280 38 44 99 1259
0.091836728 -1.2646481 -0.14285403 368 23564280 60 45 32 1276
0.13301563 -1.2156477 -0.14943872 483 23564280 73 46 139 1232
0.17975177 -1.2271396 -0.16376451 374 23564280 58 47 139 1251
0.047834486 -1.3499149 -0.1895728 165 23564280 31 48 56 1364
0.09155751 -1.2684647 -0.19081542 318 23564280 53 49 43 1286
0.13799897 -1.2673277 -0.20375933 385 23564280 64 50 111 1291
0.18354948 -1.2555108 -0.21534008 334 23564280 55 51 88 1287
0.042926528 -1.2426631 -0.22161838 344 23564280 55 52 60 1263
0.090562373 -1.2635843 -0.23806411 353 23564280 59 53 68 1289
0.1335226 -1.2298086 -0.24467045 325 23564280 52 54 121 1261
0.18271288 -1.2496361 -0.26291829 298 23564280 50 55 67 1290
0.041159466 -1.2111133 -0.26288882 317 23564280 49 56 91 1240
0.091009445 -1.2792151 -0.29077673 322 23564280 56 57 27 1315
0.13115959 -1.2102094 -0.28842965 325 23564280 51 58 102 1251
0.1811973 -1.2400264 -0.31013441 228 23564280 38 59 84 1291
0.039264169 -1.1965624 -0.30723447 292 23564280 45 60 23 1236
0.085582897 -1.2173468 -0.32544035 297 23564280 47 61 13 1263
0.13950759 -1.2895476 -0.35961232 315 23564280 57 62 90 1346
0.27321029 -1.8642601 -0.54351813 270 23564280 104 63 69 1961
0.050852016 -1.6057515 0.50146341 99 23660770 28 0 51 1683
0.10825729 -1.5497547 0.4662886 99 23660770 26 1 68 1622
0.15450938 -1.4344362 0.41776064 41 23660770 9 2 42 1502
0.2091146 -1.4324002 0.40436336 88 23660770 20 3 42 1503
0.049642317 -1.5428687 0.41700476 83 23660770 21 4 48 1599
0.11053144 -1.5923046 0.41418609 66 23660770 18 5 29 1649
0.15387334 -1.4337012 0.35919395 61 23660770 14 6 85 1486
0.19212578 -1.3254145 0.32014546 336 23660770 64 7 38 1377
0.049840003 -1.5398154 0.35502923 75 23660770 19 8 60 1581
0.10520604 -1.5072099 0.33235377 62 23660770 15 9 30 1547
0.14516242 -1.3594698 0.28701741 234 23660770 46 10 46 1397
0.19322886 -1.3412677 0.27127063 372 23660770 71 11 23 1382
0.048494492 -1.4910021 0.28622061 90 23660770 21 12 104 1519
0.10499661 -1.5125704 0.27529606 70 23660770 17 13 57 1541
0.15657847 -1.4690543 0.2537002 56 23660770 13 14 2152 1499
0.18898712 -1.3140993 0.21552682 301 23660770 55 15 61 1345
0.049065813 -1.5093787 0.23270813 77 23660770 18 16 29 1528
0.093865685 -1.356675 0.19620952 67 23660770 13 17 65 1374
0.14943972 -1.4093119 0.19080876 355 23660770 73 18 72 1430
0.19845788 -1.3859614 0.17506148 302 23660770 60 19 68 1411
0.037123464 -1.1426183 0.13358968 189 23660770 25 20 66 1151
0.079978347 -1.1585993 0.12440022 224 23660770 31 21 69 1168
0.14637941 -1.3866829 0.13595922 374 23660770 74 22 81 1401
0.19031885 -1.3342657 0.11883915 365 23660770 67 23 119 1353
0.036553994 -1.1317856 0.090671189 191 23660770 25 24 77 1136
0.075347222 -1.0956861 0.077434458 241 23660770 29 25 78 1101
0.12800276 -1.2130026 0.074324571 274 23660770 41 26 102 1222
0.18411243 -1.2962565 0.067401372 280 23660770 48 27 82 1311
0.035256226 -1.1083922 0.048204619 206 23660770 25 28 48 1110
0.076472081 -1.117744 0.037968677 251 23660770 32 29 23 1121
0.11156403 -1.0668564 0.026459111 276 23660770 32 30 44 1073
0.18371972 -1.2969056 0.019570697 275 23660770 47 31 72 1310
0.035421006 -1.1154106 0.007791087 218 23660770 27 32 66 1116
0.074815892 -1.0994538 -0.0027888587 266 23660770 32 33 71 1102
0.11166739 -1.0691075 -0.012833102 291 23660770 34 34 76 1075
0.15298866 -1.0850152 -0.023507504 256 23660770 31 35 57 1096
0.035267483 -1.1279514 -0.033512887 211 23660770 27 36 122 1129
0.073685177 -1.0946839 -0.042915791 297 23660770 36 37 53 1098
0.10851229 -1.0431293 -0.051054306 290 23660770 32 38 116 1050
0.14344461 -1.0171993 -0.05975334 281 23660770 30 39 66 1029
0.032679655 -1.0721424 -0.071188286 262 23660770 30 40 79 1075
0.07090652 -1.0605856 -0.080539562 251 23660770 29 41 71 1066
0.10980707 -1.058448 -0.090853833 276 23660770 31 42 164 1068
0.1444343 -1.0282406 -0.09853556 242 23660770 26 43 71 1043
0.036639165 -1.2159829 -0.12558788 245 23660770 37 44 94 1223
0.083284594 -1.2532895 -0.14151058 323 23660770 52 45 52 1264
0.12555405 -1.2164409 -0.14943872 494 23660770 75 46 128 1232
0.17717473 -1.2635639 -0.16847715 376 23660770 62 47 122 1287
0.037810896 -1.2907907 -0.18123381 189 23660770 32 48 72 1304
0.083772637 -1.2690027 -0.19081542 289 23660770 48 49 29 1286
0.12900978 -1.256363 -0.20186538 417 23660770 68 50 114 1279
0.1742028 -1.2448968 -0.21333225 307 23660770 50 51 78 1275
0.035971686 -1.2665213 -0.22582968 323 23660770 53 52 41 1287
0.082807459 -1.264116 -0.23806411 346 23660770 58 53 79 1289
0.12837173 -1.2540263 -0.24932715 363 23660770 60 54 117 1285
0.17015693 -1.2158294 -0.25558105 333 23660770 52 55 103 1254
0.034706622 -1.2465111 -0.27052107 311 23660770 51 56 105 1276
0.080882028 -1.2447145 -0.28281632 334 23660770 55 57 47 1279
0.12254455 -1.1993752 -0.28566295 304 23660770 47 58 91 1239
0.17035824 -1.2180423 -0.30436894 190 23660770 31 59 83 1267
0.03409088 -1.2781154 -0.32811445 285 23660770 50 60 3 1320
0.078853942 -1.2294201 -0.32853243 327 23660770 53 61 19 1275
0.1280729 -1.2558669 -0.34999415 237 23660770 41 62 116 1310
0.26496994 -1.8887376 -0.55017006 287 23660770 113 63 56 1985
0.039536733 -1.5487771 0.48358592 99 23758420 26 0 45 1623
0.098015584 -1.5389196 0.46283889 91 23758420 24 1 79 1610
0.15268947 -1.5041627 0.43778646 56 23758420 14 2 33 1574
0.19872224 -1.4222101 0.40113491 69 23758420 15 3 41 1491
0.040777508 -1.5663059 0.42326373 67 23758420 18 4 72 1623
0.095626496 -1.5118078 0.39308748 73 23758420 18 5 23 1565
0.14741647 -1.4577885 0.36499521 65 23758420 15 6 94 1510
0.18559296 -1.3381289 0.3229354 282 23758420 54 7 54 1389
0.040697508 -1.5517817 0.35772392 57 23758420 15 8 62 1593
0.097444654 -1.5312195 0.3375099 71 23758420 17 9 34 1571
0.16149828 -1.605721 0.33879149 77 23758420 21 10 36 1649
0.18981433 -1.3773973 0.278337 371 23758420 75 11 25 1418
0.038101669 -1.4441478 0.27717614 86 23758420 19 12 99 1471
0.091241658 -1.4424857 0.26243344 83 23758420 18 13 40 1469
0.14047389 -1.3993809 0.24151447 68 23758420 14 14 81 1427
0.18737704 -1.3621719 0.22321847 194 23758420 38 15 58 1393
0.037615363 -1.4266599 0.21991527 89 23758420 19 16 24 1444
0.09151607 -1.4520534 0.20991847 65 23758420 14 17 77 1470
0.13842662 -1.3865346 0.18760636 344 23758420 68 18 70 1406
0.1883346 -1.3753558 0.17357266 351 23758420 69 19 80 1399
0.031053603 -1.178569 0.137768 184 23758420 26 20 62 1187
0.070621885 -1.1233435 0.12056597 240 23758420 31 21 74 1132
0.13550638 -1.3637853 0.13363017 387 23758420 73 22 94 1377
0.18535903 -1.3590964 0.12094717 392 23758420 74 23 131 1377
0.029921569 -1.1439462 0.091628976 185 23758420 24 24 52 1148
0.068622798 -1.0961277 0.077434458 240 23758420 29 25 72 1101
0.1134543 -1.1422504 0.069945388 237 23758420 31 26 128 1150
0.18099251 -1.3329873 0.069252208 289 23758420 52 27 80 1347
0.028454596 -1.1085877 0.048204619 229 23758420 28 28 47 1110
0.069612287 -1.1181921 0.037968677 235 23758420 29 29 32 1121
0.10619027 -1.0794595 0.026755018 305 23758420 36 30 38 1085
0.16126858 -1.1909971 0.017957235 273 23758420 40 31 68 1202
0.02888358 -1.1276027 0.0078748614 206 23758420 26 32 67 1128
0.068809576 -1.1118693 -0.0028192275 280 23758420 35 33 57 1114
0.1039321 -1.0578309 -0.012689849 294 23758420 33 34 78 1063
0.14312397 -1.0621539 -0.022992741 247 23758420 28 35 89 1072
0.026839416 -1.0681918 -0.031731866 230 23758420 26 36 114 1069
0.06550318 -1.0711784 -0.041977737 264 23758420 30 37 49 1074
0.10561064 -1.0795621 -0.052804742 276 23758420 33 38 91 1086
0.14200051 -1.0536776 -0.061843835 263 23758420 30 39 67 1065
0.026683206 -1.0962631 -0.072777607 232 23758420 28 40 78 1099
0.064397551 -1.0610007 -0.080539562 254 23758420 29 41 92 1066
0.10331049 -1.0591018 -0.090853833 266 23758420 30 42 151 1068
0.14130068 -1.0527877 -0.10080291 284 23758420 32 43 74 1067
0.029177343 -1.2161849 -0.12558788 221 23758420 33 44 75 1223
0.07415767 -1.2299711 -0.13882366 324 23758420 50 45 61 1240
0.12038816 -1.2408998 -0.15234986 502 23758420 79 46 132 1256
0.16625899 -1.2410444 -0.16533537 353 23758420 56 47 145 1263
0.029890042 -1.2909985 -0.18123381 242 23758420 41 48 71 1304
0.078111701 -1.3050307 -0.19615707 272 23758420 47 49 30 1322
0.11674621 -1.2099516 -0.19428951 424 23758420 64 50 123 1231
0.16812861 -1.2576687 -0.21534008 312 23758420 52 51 98 1287
0.02714804 -1.2194746 -0.21740712 334 23758420 51 52 75 1239
0.075748116 -1.2763733 -0.24028039 311 23758420 53 53 44 1301
0.11504013 -1.1962008 -0.2376854 360 23758420 54 54 147 1225
0.15957978 -1.1935616 -0.25068954 286 23758420 43 55 93 1230
0.0278209 -1.2818739 -0.27815333 321 23758420 55 56 56 1312
0.073930271 -1.25687 -0.28546977 301 23758420 50 57 61 1291
0.11629859 -1.2117277 -0.28842965 316 23758420 49 58 92 1251
0.17522269 -1.3114325 -0.32743084 247 23758420 46 59 91 1363
0.027679572 -1.3480259 -0.34601161 290 23758420 56 60 20 1392
0.069966592 -1.20673 -0.3223483 287 23758420 45 61 27 1251
0.12036463 -1.2566291 -0.34999415 211 23758420 36 62 106 1310
0.25490761 -1.9017555 -0.553496 318 23758420 127 63 44 1997
0.030921092 -1.5948018 0.49788794 104 23856560 29 0 66 1671
0.087910943 -1.5280175 0.45938912 90 23856560 23 1 76 1598
0.14455092 -1.5165457 0.44112408 44 23856560 11 2 51 1586
0.189992 -1.4234027 0.40113491 70 23856560 15 3 44 1491
0.030935638 -1.5549442 0.42013425 77 23856560 20 4 42 1611
0.087672614 -1.5355591 0.39911565 67 23856560 17 5 45 1589
0.13846888 -1.4586656 0.36499521 72 23856560 16 6 87 1510
0.19423559 -1.466514 0.3536247 122 23856560 28 7 59 1521
0.030235823 -1.5052376 0.34694505 68 23856560 16 8 73 1545
0.08804743 -1.5317885 0.3375099 81 23856560 20 9 24 1571
0.13950396 -1.4780692 0.31167173 68 23856560 16 10 46 1517
0.17982443 -1.3668699 0.27598155 341 23856560 67 11 17 1406
0.032817781 -1.6210939 0.31109297 80 23856560 22 12 101 1651
0.0884462 -1.5491081 0.28172737 84 23856560 21 13 34 1577
0.13853912 -1.4708651 0.2537002 74 23856560 17 14 89 1499
0.18364176 -1.3985283 0.22898722 126 23856560 26 15 45 1429
0.028381152 -1.4031487 0.21626016 73 23856560 15 16 33 1420
0.073838502 -1.2984354 0.18764141 93 23856560 16 17 59 1314
0.12880759 -1.3755169 0.18600519 340 23856560 66 18 68 1394
0.178349 -1.3646787 0.17208384 338 23856560 65 19 61 1387
0.023580633 -1.1668209 0.13637523 196 23856560 27 20 64 1175
0.063727848 -1.1237557 0.12056597 231 23856560 30 21 62 1132
0.1271358 -1.364591 0.13363017 373 23856560 71 22 80 1377
0.17701629 -1.3602082 0.12094717 394 23856560 75 23 127 1377
0.022901885 -1.1441082 0.091628976 174 23856560 23 24 57 1148
0.061221182 -1.084577 0.076590486 259 23856560 31 25 53 1089
0.1031113 -1.1071465 0.067755789 266 23856560 33 26 100 1114
0.17281005 -1.3340727 0.069252208 280 23856560 51 27 76 1347
0.022588193 -1.1566871 0.050289147 214 23856560 29 28 44 1158
0.061406437 -1.0946496 0.037155788 245 23856560 29 29 33 1097
0.10176719 -1.1039822 0.027346836 281 23856560 35 30 39 1109
0.1416616 -1.0967658 0.016523046 263 23856560 32 31 73 1106
0.020795891 -1.0677716 0.0074559865 209 23856560 24 32 86 1068
0.061318263 -1.1002892 -0.0027888587 294 23856560 36 33 72 1102
0.098539382 -1.0703973 -0.012833102 281 23856560 33 34 80 1075
0.13507488 -1.0511128 -0.022735361 250 23856560 28 35 67 1060
0.021423129 -1.1282992 -0.033512887 216 23856560 28 36 119 1129
0.060246177 -1.0955057 -0.042915791 275 23856560 33 37 42 1098
0.097890817 -1.0682539 -0.052221261 262 23856560 30 38 90 1074
0.13400547 -1.042647 -0.061147004 248 23856560 27 39 57 1053
0.020391962 -1.1203494 -0.07436692 245 23856560 31 40 78 1123
0.060492668 -1.1091677 -0.08416611 265 23856560 33 41 97 1114
0.095722258 -1.0478088 -0.089832999 268 23856560 30 42 132 1056
0.13635468 -1.0654845 -0.10193658 272 23856560 32 43 64 1079
0.021501364 -1.2044063 -0.12435563 188 23856560 28 44 82 1211
0.069187745 -1.2780315 -0.14419749 275 23856560 46 45 31 1288
0.11492676 -1.2653403 -0.15526101 464 23856560 76 46 124 1280
0.16014825 -1.2538421 -0.16690627 379 23856560 62 47 120 1275
0.022574542 -1.326803 -0.1862372 281 23856560 50 48 44 1340
0.069466382 -1.2936354 -0.19437653 261 23856560 45 49 27 1310
0.1157139 -1.2814547 -0.20565331 390 23856560 66 50 99 1303
0.15592158 -1.2234689 -0.20931658 345 23856560 54 51 100 1251
0.020807732 -1.2904919 -0.23004095 326 23856560 56 52 39 1311
0.067288578 -1.2650371 -0.23806411 315 23856560 52 53 44 1289
0.11086322 -1.2320579 -0.24467045 325 23856560 52 54 119 1261
0.15522403 -1.2178259 -0.25558105 295 23856560 46 55 74 1254
0.019589916 -1.258569 -0.27306518 290 23856560 48 56 77 1288
0.064370394 -1.2222399 -0.27750936 309 23856560 49 57 43 1255
0.11094984 -1.2356784 -0.29396307 297 23856560 48 58 100 1275
0.16128539 -1.2662619 -0.31589988 285 23856560 49 59 91 1315
0.019073103 -1.324926 -0.3400459 320 23856560 60 60 14 1368
0.061960816 -1.1955574 -0.31925622 290 23856560 44 61 30 1239
0.11781146 -1.3149322 -0.36602443 194 23856560 36 62 83 1370
0.24031067 -1.88041 -0.54684407 305 23856560 119 63 48 1973
0.021286767 -1.6064155 0.50146341 98 23954950 28 0 55 1683
0.079713032 -1.5514848 0.4662886 82 23954950 22 1 76 1622
0.12807992 -1.4370372 0.41776064 50 23954950 11 2 41 1502
0.18563095 -1.4589369 0.41082028 77 23954950 18 3 40 1527
0.021872178 -1.5898557 0.42952272 89 23954950 24 4 55 1647
0.075885229 -1.4896671 0.3870593 70 23954950 17 5 33 1541
0.12848678 -1.4478891 0.36209458 56 23954950 13 6 87 1498
0.18231077 -1.4445196 0.34804484 82 23954950 18 7 46 1497
0.022304099 -1.5989338 0.3685028 66 23954950 18 8 49 1641
0.078046151 -1.5205954 0.33493182 61 23954950 15 9 34 1559
0.13765441 -1.5607876 0.32892975 69 23954950 18 10 35 1601
0.17143409 -1.3679476 0.27598155 335 23954950 66 11 11 1406
0.022205405 -1.5741292 0.3020485 69 23954950 18 12 96 1603
0.072331905 -1.4199134 0.2581459 73 23954950 15 13 39 1445
0.13054824 -1.4834689 0.25573117 51 23954950 12 14 93 1511
0.18387733 -1.470149 0.24052472 87 23954950 20 15 44 1501
0.021107694 -1.4981672 0.23088057 75 23954950 17 16 27 1516
0.065268509 -1.2870023 0.18592779 152 23954950 26 17 71 1302
0.12036515 -1.3762814 0.18600519 237 23954950 46 18 55 1394
0.17291324 -1.3893795 0.17506148 369 23954950 74 19 74 1411
0.016756112 -1.190779 0.13916077 183 23954950 26 20 66 1199
0.058036316 -1.1479585 0.12312213 241 23954950 32 21 76 1156
0.11669052 -1.3415486 0.13130111 346 23954950 63 22 103 1353
0.16866687 -1.3612688 0.12094717 394 23954950 75 23 106 1377
0.015881337 -1.1442273 0.091628976 183 23954950 24 24 41 1148
0.056368992 -1.1207975 0.079122394 232 23954950 29 25 61 1125
0.099428587 -1.1435566 0.069945388 284 23954950 38 26 111 1150
0.15435515 -1.2518495 0.064933583 281 23954950 45 27 88 1263
0.014687854 -1.0968659 0.047683489 198 23954950 24 28 45 1098
0.05588511 -1.1189622 0.037968677 226 23954950 28 29 27 1121
0.091907792 -1.0687292 0.026459111 273 23954950 31 30 42 1073
0.12907343 -1.0499783 0.015805952 250 23954950 28 31 60 1058
0.015043987 -1.1278722 0.0078748614 176 23954950 22 32 91 1128
0.054565862 -1.1006447 -0.0027888587 240 23954950 29 33 68 1102
0.091969699 -1.0709817 -0.012833102 301 23954950 35 34 87 1075
0.13007893 -1.0638303 -0.022992741 269 23954950 31 35 59 1072
0.014499613 -1.1284094 -0.033512887 197 23954950 25 36 108 1129
0.053523146 -1.0958548 -0.042915791 267 23954950 32 37 53 1098
0.092354797 -1.0807768 -0.052804742 275 23954950 32 38 112 1086
0.12760539 -1.0434496 -0.061147004 260 23954950 29 39 67 1053
0.013517243 -1.1204535 -0.07436692 244 23954950 31 40 92 1123
0.053107496 -1.0975661 -0.083259463 274 23954950 33 41 73 1102
0.094364591 -1.1079433 -0.094937153 275 23954950 34 42 165 1116
0.126927 -1.0425837 -0.099669233 275 23954950 31 43 55 1055
0.013831207 -1.180644 -0.1218911 158 23954950 22 44 74 1187
0.06134459 -1.2784319 -0.14419749 257 23954950 43 45 46 1288
0.10515134 -1.2422837 -0.15234986 431 23954950 68 46 141 1256
0.1524518 -1.2548012 -0.16690627 457 23954950 74 47 141 1275
0.013657502 -1.2556195 -0.17623042 317 23954950 51 48 53 1268
0.062654704 -1.3177449 -0.19793762 270 23954950 48 49 31 1334
0.10586239 -1.2585248 -0.20186538 407 23954950 67 50 98 1279
0.15125881 -1.2478924 -0.21333225 329 23954950 54 51 88 1275
0.012771052 -1.278782 -0.2279353 326 23954950 55 52 68 1299
0.060079344 -1.2772068 -0.24028039 337 23954950 57 53 61 1301
0.10231833 -1.2209842 -0.2423421 322 23954950 50 54 110 1249
0.1505764 -1.2420809 -0.26047257 339 23954950 55 55 85 1278
0.011977676 -1.2703922 -0.27560925 266 23954950 45 56 83 1300
0.058500975 -1.2576827 -0.28546977 328 23954950 55 57 44 1291
0.10336578 -1.2363359 -0.29396307 312 23954950 51 58 106 1275
0.14790921 -1.2209716 -0.30436894 341 23954950 55 59 106 1267
0.010847157 -1.3133953 -0.33706304 357 23954950 66 60 14 1356
0.054094806 -1.1843324 -0.31616417 286 23954950 43 61 22 1227
0.1049348 -1.2580115 -0.34999415 303 23954950 52 62 98 1310
0.22876817 -1.8818491 -0.54684407 316 23954950 123 63 64 1973
0.011348092 -1.5950612 0.49788794 97 24052030 27 0 45 1671
0.069672503 -1.5404631 0.46283889 74 24052030 19 1 71 1610
0.12974092 -1.5641536 0.4544746 46 24052030 12 2 42 1634
0.18084083 -1.4944701 0.42050561 60 24052030 15 3 40 1563
0.011940031 -1.5667911 0.42326373 67 24052030 18 4 71 1623
0.068302594 -1.5249156 0.39610156 70 24052030 17 5 42 1577
0.12247453 -1.4834642 0.37079644 55 24052030 13 6 84 1534
0.17622459 -1.4687871 0.3536247 81 24052030 19 7 56 1521
0.012218742 -1.563961 0.36041865 53 24052030 14 8 79 1605
0.068185575 -1.5093379 0.33235377 68 24052030 16 9 31 1547
0.12231523 -1.4913745 0.31413716 69 24052030 16 10 49 1529
0.1560798 -1.3105539 0.26420423 306 24052030 55 11 26 1346
0.012076705 -1.5153126 0.29074287 54 24052030 13 12 87 1543
0.06467475 -1.4439207 0.26243344 67 24052030 14 13 54 1469
0.12240786 -1.4960295 0.25776213 57 24052030 13 14 100 1523
0.16926163 -1.424201 0.23283306 75 24052030 16 15 45 1453
0.012009028 -1.5101281 0.23270813 77 24052030 18 16 34 1528
0.052082788 -1.1687262 0.16879159 185 24052030 26 17 84 1182
0.11095475 -1.3651404 0.184404 152 24052030 29 18 86 1382
0.16438492 -1.3904144 0.17506148 356 24052030 71 19 74 1411
0.009165599 -1.1551039 0.13498247 197 24052030 27 20 71 1163
0.052579451 -1.1840531 0.12695639 218 24052030 31 21 72 1192
0.10172328 -1.2589073 0.12314937 269 24052030 43 22 72 1269
0.1603111 -1.362278 0.12094717 364 24052030 69 23 125 1377
0.0089528076 -1.1562645 0.092586778 183 24052030 25 24 55 1160
0.05160246 -1.168957 0.08249829 246 24052030 34 25 44 1173
0.087588586 -1.0844506 0.066296056 283 24052030 34 26 118 1090
0.1452775 -1.2408702 0.064316638 257 24052030 40 27 91 1251
0.0080443006 -1.1089237 0.048204619 210 24052030 26 28 42 1110
0.047968779 -1.0953207 0.037155788 216 24052030 26 29 27 1097
0.08725746 -1.0931896 0.027050925 299 24052030 36 30 34 1097
0.12680107 -1.0865039 0.016343774 268 24052030 32 31 79 1094
0.0078639584 -1.0919451 0.0076235365 196 24052030 23 32 81 1092
0.047811408 -1.1009588 -0.0027888587 298 24052030 36 33 64 1102
0.087303072 -1.0954484 -0.013119609 275 24052030 33 34 93 1099
0.12078293 -1.040774 -0.022477979 274 24052030 30 35 75 1048
0.0075755501 -1.1284771 -0.033512887 223 24052030 28 36 114 1129
0.046798099 -1.0961626 -0.042915791 276 24052030 33 37 58 1098
0.08477433 -1.0693747 -0.052221261 283 24052030 33 38 131 1074
0.12948769 -1.115612 -0.065327995 263 24052030 33 39 73 1125
0.0065710414 -1.1085418 -0.073572263 247 24052030 31 40 64 1111
0.04788683 -1.1337365 -0.085979372 267 24052030 35 41 91 1138
0.084739938 -1.0727433 -0.091874659 242 24052030 28 42 144 1080
0.11915651 -1.0314755 -0.09853556 268 24052030 29 43 61 1043
0.0063868868 -1.1448976 -0.11819432 199 24052030 26 44 102 1151
0.051505364 -1.2311276 -0.13882366 262 24052030 40 45 65 1240
0.098458633 -1.2547804 -0.15380543 450 24052030 72 46 113 1268
0.14474961 -1.255713 -0.16690627 503 24052030 82 47 102 1275
0.0061782557 -1.3032134 -0.18290162 298 24052030 52 48 63 1316
0.054567993 -1.3181044 -0.19793762 246 24052030 44 49 20 1334
0.099059001 -1.2709644 -0.20375933 404 24052030 67 50 136 1291
0.14089599 -1.2252902 -0.20931658 364 24052030 57 51 105 1251
0.0049698441 -1.2906501 -0.23004095 312 24052030 54 52 49 1311
0.051277701 -1.2539839 -0.23584785 342 24052030 56 53 71 1277
0.095735632 -1.2333256 -0.24467045 347 24052030 55 54 130 1261
0.14697911 -1.277995 -0.26780978 329 24052030 57 55 91 1314
0.0046071527 -1.3994404 -0.3035942 306 24052030 63 56 72 1432
0.050310846 -1.2463245 -0.28281632 331 24052030 54 57 43 1279
0.096679255 -1.2485887 -0.29672977 332 24052030 55 58 91 1287
0.14174457 -1.2334286 -0.30725166 284 24052030 46 59 90 1279
0.0028374586 -1.3366838 -0.34302875 364 24052030 69 60 1 1380
0.048658717 -1.2309849 -0.32853243 285 24052030 46 61 18 1275
0.093651779 -1.2125139 -0.33716995 347 24052030 55 62 90 1262
0.20532683 -1.7801321 -0.51691037 255 24052030 89 63 71 1865
0.0016056006 -1.6409205 0.51218992 108 24149650 32 0 46 1719
0.062014434 -1.5868002 0.47663778 91 24149650 25 1 73 1658
0.11572948 -1.5074568 0.43778646 45 24149650 11 2 42 1574
0.16639559 -1.449623 0.40759182 91 24149650 21 3 36 1515
0.0023777541 -1.6015891 0.43265221 78 24149650 21 4 48 1659
0.060290202 -1.5601258 0.40514383 58 24149650 15 5 31 1613
0.11070929 -1.4493568 0.36209458 62 24149650 14 6 106 1498
0.16325136 -1.4350516 0.3452549 73 24149650 16 7 71 1485
0.0026614377 -1.5873936 0.3658081 60 24149650 16 8 80 1629
0.059837297 -1.5331497 0.3375099 80 24149650 20 9 21 1571
0.10694514 -1.4101243 0.29687914 63 24149650 13 10 66 1445
0.15463436 -1.3699484 0.27598155 240 24149650 47 11 23 1406
0.002778695 -1.5153581 0.29074287 70 24149650 17 12 101 1543
0.057637535 -1.491483 0.27100852 74 24149650 17 13 38 1517
0.10787331 -1.4259933 0.2455764 66 24149650 14 14 99 1451
0.15919402 -1.4134423 0.23091015 95 24149650 20 15 58 1441
0.0028936141 -1.5931934 0.24550098 77 24149650 20 16 24 1612
0.044454694 -1.1571555 0.16707797 223 24149650 30 17 55 1170
0.10524835 -1.4013735 0.18920757 77 24149650 16 18 66 1418
0.15717585 -1.4032302 0.17655033 335 24149650 68 19 71 1423
0.0021421602 -1.190895 0.13916077 212 24149650 31 20 62 1199
0.04531325 -1.1843534 0.12695639 219 24149650 31 21 63 1192
0.085108273 -1.1404054 0.11150404 248 24149650 33 22 74 1149
0.14930095 -1.3394759 0.11883915 335 24149650 61 23 123 1353
0.0019155936 -1.1921829 0.095460162 163 24149650 23 24 61 1196
0.043065358 -1.1333666 0.079966374 262 24149650 34 25 67 1137
0.084496886 -1.132746 0.069215514 265 24149650 34 26 99 1138
0.13898142 -1.2536494 0.064933583 261 24149650 42 27 82 1263
0.0012399215 -1.1089522 0.048204619 179 24149650 22 28 69 1110
0.041698318 -1.1075791 0.037562232 207 24149650 25 29 25 1109
0.08054813 -1.0937043 0.027050925 277 24149650 33 30 33 1097
0.12144973 -1.0991875 0.016523046 294 24149650 36 31 65 1106
0.0012149158 -1.1399717 0.0079586376 210 24149650 27 32 93 1140
0.039266907 -1.053265 -0.002667384 280 24149650 31 33 73 1054
0.080579884 -1.0959635 -0.013119609 315 24149650 38 34 81 1099
0.11832418 -1.0772721 -0.023250123 293 24149650 34 35 90 1084
0.00062351563 -1.0805236 -0.032088071 247 24149650 29 36 114 1081
0.038757477 -1.0604805 -0.041508716 279 24149650 31 37 50 1062
0.07733731 -1.0579208 -0.051637784 279 24149650 31 38 131 1062
0.11871552 -1.0806613 -0.063237503 267 24149650 32 39 83 1089
-0.00023346198 -1.1205349 -0.07436692 221 24149650 28 40 69 1123
0.040497862 -1.1220511 -0.085072741 260 24149650 33 41 74 1126
0.082498118 -1.1328678 -0.096978813 265 24149650 34 42 144 1140
0.11542141 -1.0559384 -0.10080291 260 24149650 30 43 68 1067
-0.0006381924 -1.1449152 -0.11819432 194 24149650 26 44 82 1151
0.043950338 -1.2314205 -0.13882366 270 24149650 41 45 41 1240
0.092475407 -1.2791218 -0.15671659 437 24149650 73 46 128 1292
0.13317256 -1.2210977 -0.16219363 441 24149650 68 47 142 1239
-0.0018016477 -1.2913431 -0.18123381 287 24149650 49 48 61 1304
0.046479229 -1.3184144 -0.19793762 266 24149650 47 49 33 1334
0.090410382 -1.2597291 -0.20186538 383 24149650 63 50 96 1279
0.1384926 -1.2731774 -0.21734791 355 24149650 60 51 89 1299
-0.0029765277 -1.3024701 -0.23214659 299 24149650 52 52 75 1323
0.044811074 -1.2896342 -0.24249665 345 24149650 59 53 44 1313
0.090683326 -1.2691159 -0.25165549 356 24149650 60 54 103 1297
0.13405217 -1.2321559 -0.25802678 313 24149650 50 55 77 1266
-0.0038796896 -1.3642608 -0.29596192 340 24149650 66 56 71 1396
0.043062869 -1.2583059 -0.28546977 316 24149650 53 57 59 1291
0.087356254 -1.2258641 -0.29119635 324 24149650 52 58 113 1263
0.13291487 -1.2226948 -0.30436894 247 24149650 40 59 99 1267
-0.0053176857 -1.3250526 -0.3400459 323 24149650 60 60 1 1368
0.043038949 -1.289202 -0.34399277 281 24149650 50 61 20 1335
0.091948405 -1.2938086 -0.35961232 309 24149650 56 62 108 1346
0.15187195 -1.3916563 -0.40382755 215 24149650 46 63 96 1457
-0.0081675388 -1.5836254 0.49431241 119 24249380 33 0 38 1659
0.053033564 -1.6101253 0.48353723 124 24249380 35 1 50 1682
0.10485417 -1.4851427 0.43111116 49 24249380 12 2 44 1550
0.16498278 -1.5195569 0.42696252 67 24249380 17 3 31 1587
-0.0072878045 -1.5668197 0.42326373 80 24249380 21 4 46 1623
0.052225545 -1.6069032 0.41720021 80 24249380 22 5 37 1661
0.10997012 -1.5661644 0.39110082 69 24249380 18 6 84 1618
0.15943508 -1.4824433 0.35641468 78 24249380 18 7 53 1533
-0.0069222418 -1.5522999 0.35772392 59 24249380 15 8 62 1593
0.048502944 -1.4749205 0.32461962 68 24249380 15 9 26 1511
0.10890209 -1.5630568 0.32892975 65 24249380 17 10 52 1601
0.15620972 -1.4644729 0.29482526 84 24249380 19 11 31 1502
-0.0064687175 -1.5035616 0.28848174 79 24249380 19 12 99 1531
0.049635481 -1.5272107 0.27743983 75 24249380 18 13 36 1553
0.099121556 -1.4266284 0.2455764 66 24249380 14 14 76 1451
0.14926484 -1.402614 0.22898722 82 24249380 17 15 55 1429
-0.0064210081 -1.486442 0.22905302 81 24249380 18 16 42 1504
0.037353687 -1.1574066 0.16707797 215 24249380 30 17 58 1170
0.09664771 -1.4019929 0.18920757 92 24249380 18 18 55 1418
0.1460572 -1.3804858 0.17357266 347 24249380 68 19 80 1399
-0.005268462 -1.2147232 0.1419463 208 24249380 31 20 68 1223
0.038428351 -1.1965348 0.12823448 214 24249380 31 21 64 1204
0.080556557 -1.1766526 0.11499764 257 24249380 36 22 69 1185
0.14358179 -1.3641427 0.12094717 259 24249380 49 23 130 1377
-0.0051286588 -1.1323642 0.090671189 181 24249380 23 24 73 1136
0.034967002 -1.0977169 0.077434458 206 24249380 25 25 60 1101
0.074274115 -1.0854439 0.066296056 261 24249380 31 26 108 1090
0.11756539 -1.1233692 0.058147173 232 24249380 30 27 85 1131
-0.0056848177 -1.132916 0.049246881 195 24249380 25 28 58 1134
0.034523897 -1.0958269 0.037155788 259 24249380 31 29 48 1097
0.073835775 -1.094178 0.027050925 257 24249380 31 30 35 1097
0.11096941 -1.0641102 0.015985226 296 24249380 34 31 83 1070
-0.0057190009 -1.1279581 0.0078748614 174 24249380 22 32 68 1128
0.035044298 -1.125451 -0.0028495961 273 24249380 35 33 60 1126
0.072240844 -1.0724932 -0.012833102 314 24249380 36 34 84 1075
0.11418524 -1.1018444 -0.023764886 259 24249380 32 35 58 1108
-0.0062731709 -1.1284851 -0.033512887 232 24249380 30 36 118 1129
0.032249764 -1.0606984 -0.041508716 270 24249380 30 37 45 1062
0.071645074 -1.0703344 -0.052221261 319 24249380 37 38 120 1074
0.10961234 -1.0575376 -0.061843835 257 24249380 29 39 74 1065
-0.007108931 -1.1205124 -0.07436692 229 24249380 29 40 97 1123
0.033970535 -1.1342387 -0.085979372 280 24249380 36 41 76 1138
0.073159777 -1.0975626 -0.093916327 273 24249380 33 42 148 1104
0.11016532 -1.0685099 -0.10193658 260 24249380 30 43 52 1079
-0.0075034588 -1.1210172 -0.1157298 205 24249380 26 44 90 1127
0.03709805 -1.2555057 -0.14151058 254 24249380 41 45 59 1264
0.08226715 -1.2440088 -0.15234986 426 24249380 67 46 117 1256
0.12811196 -1.2455603 -0.16533537 428 24249380 68 47 140 1263
-0.010083128 -1.3388407 -0.187905 322 24249380 59 48 38 1352
0.03769806 -1.2949505 -0.19437653 286 24249380 49 49 41 1310
0.084230579 -1.2839086 -0.20565331 349 24249380 59 50 79 1303
0.124642 -1.2151579 -0.20730875 370 24249380 57 51 97 1239
-0.01116725 -1.3260541 -0.23635787 268 24249380 49 52 45 1347
0.036222745 -1.2663075 -0.23806411 326 24249380 54 53 64 1289
0.083661415 -1.2813953 -0.25398383 371 24249380 64 54 140 1309
0.12888718 -1.2563289 -0.26291829 338 24249380 56 55 80 1290
-0.01235587 -1.3759382 -0.29850602 303 24249380 60 56 74 1408
0.035012741 -1.2468481 -0.28281632 304 24249380 50 57 55 1279
0.082108378 -1.2613331 -0.29949647 310 24249380 52 58 97 1299
0.12659784 -1.2350751 -0.30725166 322 24249380 53 59 93 1279
-0.013683885 -1.3482407 -0.34601161 298 24249380 58 60 1 1392
0.035443503 -1.3010323 -0.34708485 262 24249380 48 61 16 1347
0.084008008 -1.2943485 -0.35961232 282 24249380 51 62 89 1346
0.13624717 -1.3237463 -0.38387179 223 24249380 43 63 76 1385
-0.017366879 -1.5377287 0.48001042 194 24345690 50 0 28 1611
0.042229414 -1.5759524 0.47318804 114 24345690 31 1 64 1646
0.10018679 -1.554774 0.45113698 53 24345690 14 2 31 1622
0.15565585 -1.5205406 0.42696252 73 24345690 18 3 39 1587
-0.018026175 -1.6710021 0.45142916 86 24345690 26 4 60 1731
0.040222317 -1.5259144 0.39610156 77 24345690 19 5 25 1577
0.097380996 -1.5203283 0.37949833 63 24345690 16 6 85 1570
0.15268956 -1.5066171 0.36199453 69 24345690 17 7 57 1557
-0.016199058 -1.5288424 0.3523345 59 24345690 15 8 77 1569
0.041332003 -1.5454841 0.34008795 74 24345690 19 9 16 1583
0.097076237 -1.5285344 0.32153347 65 24345690 16 10 58 1565
0.15074953 -1.5005267 0.30189162 60 24345690 14 11 46 1538
-0.016432349 -1.5742 0.3020485 85 24345690 22 12 65 1603
0.040263757 -1.5274866 0.27743983 68 24345690 16 13 47 1553
0.096344791 -1.5216357 0.26182404 61 24345690 15 14 97 1547
0.14183693 -1.4152894 0.23091015 73 24345690 15 15 57 1441
-0.016657537 -1.593109 0.24550098 82 24345690 21 16 15 1612
0.03025127 -1.1576139 0.16707797 258 24345690 35 17 76 1170
0.08059264 -1.2838662 0.17319565 147 24345690 25 18 68 1298
0.13640381 -1.3695073 0.17208384 334 24345690 64 19 86 1387
-0.012347288 -1.1789134 0.137768 209 24345690 30 20 60 1187
0.029846523 -1.149037 0.12312213 222 24345690 30 21 72 1156
0.070364699 -1.1294438 0.11033951 237 24345690 31 22 73 1137
0.1304957 -1.3174164 0.11673114 244 24345690 43 23 110 1329
-0.012331759 -1.1562334 0.092586778 172 24345690 23 24 60 1160
0.029153962 -1.1338098 0.079966374 228 24345690 30 25 63 1137
0.071334355 -1.1456523 0.069945388 280 24345690 37 26 113 1150
0.10245077 -1.0405842 0.053828552 256 24345690 28 27 77 1047
-0.012636152 -1.1328597 0.049246881 164 24345690 21 28 47 1134
0.028711667 -1.1319859 0.038375121 246 24345690 32 29 30 1133
0.067120634 -1.0946105 0.027050925 251 24345690 30 30 50 1097
0.10560933 -1.0767124 0.016164498 261 24345690 31 31 67 1082
-0.013043315 -1.1638986 0.0081261871 171 24345690 23 32 78 1164
0.026938513 -1.07766 -0.0027281214 270 24345690 31 33 63 1078
0.067857593 -1.1088465 -0.013262861 292 24345690 36 34 95 1111
0.10509548 -1.078643 -0.023250123 287 24345690 34 35 77 1084
-0.013057035 -1.1164316 -0.033156686 221 24345690 28 36 108 1117
