# .PCD v0.7 - Point Cloud Data file format
VERSION 0.7
FIELDS x y z intensity t reflectivity ring noise range
SIZE 4 4 4 4 4 2 1 2 4
TYPE F F F F U U U U U
COUNT 1 1 1 1 1 1 1 1 1
WIDTH 775
HEIGHT 1
VIEWPOINT 0 0 0 1 0 0 0
POINTS 775
DATA ascii
1.1662092 -2.3136477 0.22845575 144 18473920 98 23 92 2601
0.87341517 -2.3382084 0.19985974 345 18473920 217 24 61 2504
1.0094652 -2.4290643 0.18546291 279 18473920 194 25 56 2637
1.1484528 -2.5018957 0.16774727 269 18473920 205 26 102 2758
1.2674837 -2.5182834 0.14513658 301 18473920 240 27 80 2823
0.88610923 -2.3757329 0.11021921 421 18473920 271 28 40 2538
1.0274025 -2.4746637 0.090806447 250 18473920 179 29 43 2681
1.160773 -2.5350339 0.068773963 243 18473920 189 30 37 2789
1.2892087 -2.563787 0.042876258 324 18473920 267 31 58 2870
0.90566796 -2.4285598 0.018095426 308 18473920 207 32 95 2592
1.0289969 -2.4810715 -0.006797527 267 18473920 192 33 57 2686
1.1815428 -2.5812266 -0.033891328 235 18473920 190 34 61 2839
1.3313603 -2.6518772 -0.063659005 287 18473920 252 35 49 2968
0.91701037 -2.4626498 -0.078038424 301 18473920 208 36 97 2629
1.0386244 -2.5094817 -0.10623417 309 18473920 228 37 52 2718
1.1787338 -2.5779428 -0.13799249 291 18473920 235 38 88 2838
1.3370806 -2.6631551 -0.17333694 316 18473920 281 39 57 2985
0.93223256 -2.5095546 -0.17767271 376 18473920 271 40 84 2683
1.0734022 -2.5968447 -0.21290851 300 18473920 238 41 81 2818
1.2074312 -2.6426563 -0.24806158 301 18473920 256 42 130 2916
1.3595778 -2.7116222 -0.28785986 353 18473920 327 43 54 3047
0.95892406 -2.5841706 -0.2845495 368 18473920 283 44 74 2771
1.0891511 -2.6379445 -0.32153353 297 18473920 245 45 32 2872
1.2394048 -2.7163975 -0.36486337 294 18473920 266 46 91 3008
1.3816984 -2.7574222 -0.40725127 321 18473920 311 47 97 3111
0.96797699 -2.6152825 -0.39137611 340 18473920 270 48 66 2816
1.0955817 -2.656805 -0.43118945 294 18473920 248 49 31 2906
1.2508024 -2.7451828 -0.48217255 320 18473920 298 50 40 3055
1.4262499 -2.8483181 -0.540609 132 18473920 137 51 50 3231
0.98282385 -2.662674 -0.50587952 399 18473920 332 52 79 2883
1.1244967 -2.7308457 -0.55499041 283 18473920 256 53 76 3005
1.2588211 -2.765084 -0.6009075 303 18473920 291 54 60 3097
1.4386837 -2.8730242 -0.66891307 333 18473920 359 55 59 3282
0.99475437 -2.6996369 -0.62414896 369 18473920 320 56 116 2944
1.1374313 -2.7663705 -0.67818421 344 18473920 323 57 54 3067
1.311784 -2.8828878 -0.7504704 90 18473920 95 58 43 3255
1.4579712 -2.9121757 -0.80596513 354 18473920 399 59 60 3355
0.70105714 -1.9094594 -0.52200031 397 18473920 175 60 28 2100
1.1583571 -2.8239892 -0.81398737 340 18473920 339 61 43 3159
1.3029397 -2.8649099 -0.87258089 130 18473920 139 62 62 3266
1.4951171 -2.9832492 -0.96258968 318 18473920 383 63 50 3473
0.73695773 -2.0143628 0.6695118 37 18572820 18 0 55 2247
0.88520008 -2.1607976 0.70087028 219 18572820 130 1 74 2438
1.016162 -2.2370932 0.71147245 334 18572820 218 2 28 2558
1.1341099 -2.2660367 0.70783764 19 18572820 13 3 31 2631
0.79018289 -2.1564624 0.62042177 210 18572820 119 4 67 2379
0.90792733 -2.2190351 0.62215829 390 18572820 239 5 36 2477
1.0192512 -2.2461843 0.6144489 367 18572820 237 6 77 2542
1.1611868 -2.3260188 0.62145883 338 18572820 242 7 58 2673
0.81210911 -2.2149839 0.54365951 360 18572820 211 8 80 2421
0.90584922 -2.2115328 0.5257076 354 18572820 212 9 76 2447
1.0102047 -2.2294528 0.51383722 48 18572820 30 10 31 2501
1.1813086 -2.3715019 0.53037137 247 18572820 180 11 40 2702
0.82219821 -2.2414119 0.45806608 377 18572820 223 12 97 2431
0.94526374 -2.3102877 0.45322916 348 18572820 224 13 59 2537
1.0632551 -2.3477302 0.44257906 40 18572820 28 14 75 2615
1.2039902 -2.4185162 0.43858507 169 18572820 126 15 35 2737
0.83453673 -2.275171 0.37342954 380 18572820 228 16 50 2452
0.99567115 -2.4350634 0.37956691 67 18572820 48 17 61 2658
1.0593182 -2.3424089 0.34612441 168 18572820 113 18 46 2594
1.1955925 -2.4053292 0.33585504 179 18572820 132 19 63 2707
0.83692986 -2.2818186 0.28400865 96 18572820 58 20 73 2447
0.91786849 -2.2457919 0.25987718 46 18572820 28 21 60 2440
1.0213443 -2.261277 0.24193174 183 18572820 113 22 55 2493
1.221084 -2.4599519 0.24215783 110 18572820 84 23 89 2757
0.8755191 -2.3884473 0.2036909 156 18572820 101 24 56 2552
0.9764387 -2.3908856 0.18208702 368 18572820 246 25 53 2589
1.1084298 -2.4543147 0.16409795 278 18572820 202 26 96 2698
1.2573298 -2.5367503 0.14575352 282 18572820 227 27 65 2835
0.85915345 -2.3473504 0.10865582 423 18572820 265 28 51 2502
1.0031378 -2.4587121 0.089993551 265 18572820 187 29 38 2657
1.1451964 -2.5421085 0.068773963 235 18572820 183 30 28 2789
1.2628043 -2.550144 0.042517714 313 18572820 254 31 66 2846
0.89487338 -2.4453399 0.018179202 310 18572820 210 32 85 2604
1.0092249 -2.4762261 -0.0067671579 261 18572820 187 33 69 2674
1.155828 -2.5665457 -0.033604819 252 18572820 199 34 57 2815
1.2778448 -2.5847132 -0.061857335 302 18572820 251 35 55 2884
0.91834897 -2.5132947 -0.079463236 287 18572820 206 36 106 2677
1.0412768 -2.5602365 -0.10811026 282 18572820 215 37 51 2766
1.1727279 -2.6069884 -0.13915946 299 18572820 245 38 107 2862
1.3207146 -2.6713092 -0.17333694 318 18572820 284 39 68 2985
0.92091727 -2.5264771 -0.17846738 329 18572820 239 40 83 2695
1.0394362 -2.5590379 -0.20928197 302 18572820 232 41 66 2770
1.1960955 -2.6609206 -0.24908243 297 18572820 255 42 96 2928
1.3323364 -2.6984897 -0.2855925 317 18572820 290 43 74 3023
0.93488193 -2.5675735 -0.28208497 350 18572820 264 44 98 2747
1.0639783 -2.622478 -0.31884661 292 18572820 237 45 49 2848
1.1983247 -2.6696172 -0.35758552 305 18572820 265 46 74 2948
1.3436962 -2.7231739 -0.40096778 320 18572820 300 47 87 3063
0.94785523 -2.6100028 -0.38970831 352 18572820 277 48 64 2804
1.0792592 -2.6634774 -0.43118945 315 18572820 266 49 48 2906
1.2387816 -2.7636189 -0.48406655 315 18572820 296 50 55 3067
1.3878175 -2.8145716 -0.53257769 242 18572820 245 51 41 3183
0.95842195 -2.6464388 -0.50166827 359 18572820 294 52 81 2859
1.0988724 -2.7158291 -0.55055791 313 18572820 278 53 68 2981
1.2418312 -2.7727559 -0.6009075 317 18572820 305 54 60 3097
1.3638753 -2.7658937 -0.64200979 70 18572820 69 55 54 3150
0.97019672 -2.6836324 -0.61906075 370 18572820 316 56 84 2920
1.1204357 -2.7732975 -0.67818421 345 18572820 325 57 59 3067
1.2749872 -2.8482523 -0.73940361 228 18572820 234 58 50 3207
1.4297733 -2.9001708 -0.80019963 373 18572820 414 59 62 3331
0.68144971 -1.8918539 -0.5160346 487 18572820 210 60 11 2076
1.1323391 -2.8095353 -0.80780327 354 18572820 347 61 55 3135
1.3042268 -2.9150724 -0.88540506 78 18572820 86 62 59 3314
1.4563737 -2.9510098 -0.94928581 292 18572820 342 63 47 3425
0.80197608 -2.2344778 0.74102175 108 18671320 67 0 42 2487
0.87621665 -2.1768506 0.70431995 280 18671320 168 1 60 2450
1.0024164 -2.2432861 0.71147245 332 18671320 217 2 29 2558
1.0997477 -2.2314851 0.69492388 33 18671320 22 3 34 2583
0.76517928 -2.1285651 0.61103326 53 18671320 29 4 60 2343
0.88562948 -2.2030101 0.61613005 348 18671320 209 5 49 2453
0.9912104 -2.2204974 0.60574698 355 18671320 223 6 72 2506
1.1057025 -2.2493074 0.59913933 374 18671320 248 7 56 2577
0.79058719 -2.1979187 0.53827012 348 18671320 200 8 63 2397
0.8966381 -2.227922 0.52828568 360 18671320 218 9 69 2459
1.0204126 -2.2892425 0.52616435 81 18671320 53 10 37 2561
1.1460085 -2.3364487 0.52094948 254 18671320 179 11 33 2654
0.79246724 -2.2020593 0.44902158 368 18671320 209 12 98 2383
0.91785836 -2.2831798 0.44679785 372 18671320 233 13 43 2501
0.96700895 -2.1705546 0.40805283 40 18671320 23 14 65 2411
1.1787006 -2.4045866 0.43473923 164 18671320 120 15 43 2713
0.8085134 -2.2467706 0.36794689 376 18671320 219 16 38 2416
0.92758006 -2.308876 0.35900345 362 18671320 229 17 58 2514
1.0497594 -2.3597307 0.34772563 341 18671320 231 18 56 2606
1.1441699 -2.337755 0.32543322 110 18671320 76 19 62 2623
0.80273551 -2.2308364 0.27704483 69 18671320 40 20 62 2387
0.89962506 -2.2403095 0.2585991 55 18671320 32 21 56 2428
1.0656422 -2.3984761 0.25590613 160 18671320 111 22 57 2637
1.1324804 -2.3170452 0.22740175 176 18671320 118 23 101 2589
0.8082251 -2.2474465 0.19123958 87 18671320 50 24 58 2396
0.95283461 -2.374613 0.18039906 350 18671320 230 25 73 2565
1.0933496 -2.4610696 0.16409795 284 18671320 207 26 89 2698
1.2154608 -2.4905674 0.1426688 279 18671320 215 27 83 2775
0.85283715 -2.3751445 0.10969808 430 18671320 274 28 45 2526
0.99249488 -2.4759531 0.090400003 273 18671320 194 29 32 2669
1.1149964 -2.5161843 0.067886233 231 18671320 175 30 36 2753
1.2523915 -2.5686293 0.042696986 309 18671320 252 31 50 2858
0.87174302 -2.4281969 0.018011652 340 18671320 227 32 73 2580
0.99401206 -2.482372 -0.0067671579 291 18671320 208 33 51 2674
1.1206186 -2.529706 -0.033031806 236 18671320 180 34 55 2767
1.2567104 -2.5817184 -0.061599959 289 18671320 239 35 79 2872
0.89076817 -2.4850085 -0.078394629 284 18671320 198 36 101 2641
1.0166495 -2.5443079 -0.10717221 312 18671320 235 37 64 2742
1.1518596 -2.6031744 -0.13857597 282 18671320 229 38 95 2850
1.2885687 -2.6470487 -0.17124645 285 18671320 248 39 74 2949
0.90539771 -2.5320802 -0.17846738 371 18671320 270 40 101 2695
1.0370193 -2.5987082 -0.21200188 280 18671320 221 41 76 2806
1.1555706 -2.613533 -0.24397826 321 18671320 264 42 110 2868
1.3000848 -2.6743817 -0.28219146 333 18671320 297 43 34 2987
0.91107988 -2.5507793 -0.27962044 359 18671320 267 44 74 2723
1.0522822 -2.6400342 -0.32019007 287 18671320 235 45 61 2860
1.1771106 -2.666023 -0.35612994 312 18671320 269 46 93 2936
1.3321605 -2.7420678 -0.40253863 302 18671320 286 47 104 3075
0.91985923 -2.5821862 -0.38470492 347 18671320 266 48 65 2768
1.0585068 -2.6590238 -0.42940888 298 18671320 250 49 59 2894
1.1978989 -2.7169554 -0.47459671 257 18671320 232 50 56 3007
1.349854 -2.7804625 -0.52454638 326 18671320 321 51 67 3135
0.93030208 -2.6188729 -0.49535134 362 18671320 289 52 81 2823
1.0691186 -2.689642 -0.54390907 322 18671320 280 53 81 2945
1.2058116 -2.7372317 -0.59159416 296 18671320 276 54 71 3049
1.3058307 -2.6896629 -0.6224438 42 18671320 39 55 43 3054
0.9419539 -2.6563761 -0.6114285 358 18671320 298 56 95 2884
1.0861293 -2.7366099 -0.66757029 331 18671320 301 57 50 3019
1.2386655 -2.8132749 -0.72833675 359 18671320 358 58 51 3159
1.4017782 -2.8879304 -0.79443419 381 18671320 416 59 49 3307
0.6659568 -1.88504 -0.51305169 450 18671320 192 60 16 2064
0.9870314 -2.4930124 -0.71504116 219 18671320 169 61 131 2775
1.2676847 -2.8806832 -0.87258089 217 18671320 231 62 47 3266
1.4583955 -3.0013719 -0.96258968 267 18671320 322 63 48 3473
0.74260992 -2.1096954 0.69811577 358 18769410 196 0 56 2343
0.84593862 -2.1394329 0.69052112 230 18769410 133 1 71 2402
0.97471935 -2.2177379 0.70145959 323 18769410 205 2 43 2522
1.1112621 -2.2901814 0.71106613 163 18769410 114 3 20 2643
0.73669624 -2.0895176 0.59851527 37 18769410 19 4 47 2295
0.87636173 -2.2192063 0.6191442 372 18769410 226 5 49 2465
0.97288603 -2.2158759 0.60284644 349 18769410 217 6 72 2494
1.0512048 -2.1720059 0.57681984 95 18769410 58 7 56 2481
0.76930559 -2.1806734 0.53288066 224 18769410 126 8 62 2373
0.87433332 -2.2115836 0.52312958 373 18769410 221 9 77 2435
1.0063468 -2.2954605 0.52616435 369 18769410 242 10 37 2561
1.126534 -2.3328409 0.51859409 343 18769410 239 11 37 2642
0.77109575 -2.1846542 0.44449934 391 18769410 218 12 82 2359
0.89515847 -2.2668052 0.44251031 384 18769410 235 13 44 2477
0.99639195 -2.2739406 0.42633143 40 18769410 26 14 65 2519
1.158776 -2.4011061 0.43281633 149 18769410 108 15 43 2701
0.78681779 -2.2293215 0.36429179 379 18769410 217 16 33 2392
0.90903568 -2.3034761 0.35728982 399 18769410 250 17 52 2502
1.0257263 -2.3443365 0.34452322 272 18769410 181 18 47 2582
1.1091291 -2.3018236 0.31947792 167 18769410 111 19 67 2575
0.77713227 -2.2020016 0.27286652 72 18769410 40 20 57 2351
0.90775299 -2.3012843 0.2649895 42 18769410 26 21 58 2488
1.0748167 -2.4596903 0.26172879 181 18769410 131 22 40 2697
1.0871437 -2.2593215 0.22107773 223 18769410 141 23 98 2517
0.79839855 -2.2636442 0.19219738 115 18769410 66 24 57 2408
0.94263583 -2.3915515 0.18124305 341 18769410 227 25 63 2577
1.0830238 -2.4787076 0.16482781 270 18769410 198 26 89 2710
1.2105358 -2.5195825 0.14390269 288 18769410 226 27 87 2799
0.83028316 -2.3577168 0.10865582 406 18769410 254 28 48 2502
0.96410221 -2.4485185 0.089180663 262 18769410 181 29 32 2633
1.1043292 -2.5339758 0.068182148 265 18769410 202 30 38 2765
1.2210306 -2.5438142 0.042159162 326 18769410 260 31 63 2822
0.85284221 -2.4221816 0.017927878 312 18769410 206 32 75 2568
0.97436947 -2.4772573 -0.0067367898 294 18769410 208 33 54 2662
1.1098679 -2.5475349 -0.033175059 267 18769410 207 34 68 2779
1.2460302 -2.6001997 -0.061857335 285 18769410 237 35 62 2884
0.86754757 -2.4677958 -0.077682219 348 18769410 238 36 105 2617
0.99225712 -2.5281742 -0.10623417 295 18769410 218 37 60 2718
1.1310827 -2.5992026 -0.13799249 297 18769410 239 38 81 2838
1.2671251 -2.6441021 -0.17054962 326 18769410 281 39 56 2937
0.87795752 -2.5036907 -0.17608339 350 18769410 248 40 87 2659
0.99922138 -2.5493195 -0.20746869 267 18769410 202 41 74 2746
1.1347448 -2.6096098 -0.24295744 314 18769410 256 42 126 2856
1.2836506 -2.6823087 -0.28219146 263 18769410 234 43 36 2987
0.88357347 -2.5225251 -0.27592367 372 18769410 269 44 100 2687
1.0230222 -2.6131294 -0.3161597 290 18769410 231 45 47 2824
1.16073 -2.6731954 -0.35612994 326 18769410 281 46 68 2936
1.3050447 -2.7287254 -0.39939687 315 18769410 293 47 84 3051
0.90007883 -2.5765631 -0.38303709 359 18769410 273 48 67 2756
1.0464929 -2.6765211 -0.43118945 312 18769410 263 49 56 2906
1.1764915 -2.7133827 -0.47270271 320 18769410 287 50 45 2995
1.332768 -2.7886927 -0.52454638 333 18769410 327 51 53 3135
0.90644312 -2.6022189 -0.49114004 384 18769410 301 52 63 2799
1.0525953 -2.6961515 -0.54390907 327 18769410 284 53 69 2945
1.1983527 -2.7661827 -0.59625083 323 18769410 305 54 70 3073
1.360227 -2.8460205 -0.65668428 54 18769410 56 55 45 3222
0.92563695 -2.6621058 -0.6114285 384 18769410 320 56 84 2884
1.0650669 -2.7323191 -0.66491687 330 18769410 298 57 51 3007
1.212101 -2.7993915 -0.72280335 319 18769410 313 58 45 3135
1.3790096 -2.8859668 -0.79155141 332 18769410 361 59 73 3295
0.68481404 -1.9769554 -0.53691459 128 18769410 60 60 29 2160
0.74900925 -1.9262731 -0.55116147 266 18769410 122 61 29 2139
1.2407998 -2.867182 -0.86616874 266 18769410 279 62 45 3242
1.4100999 -2.9478574 -0.94263393 308 18769410 357 63 59 3401
0.72591406 -2.103384 0.69454026 348 18867450 189 0 68 2331
0.82447428 -2.1231551 0.68362159 236 18867450 134 1 67 2378
0.94737422 -2.1919353 0.69144666 309 18867450 191 2 40 2486
1.062318 -2.2239547 0.68846697 427 18867450 280 3 30 2559
0.70493686 -2.0392535 0.5828678 38 18867450 19 4 59 2235
0.84592879 -2.1812241 0.60708779 390 18867450 228 5 34 2417
0.96388686 -2.2324939 0.60574698 366 18867450 230 6 58 2506
1.0027188 -2.1046596 0.55729026 59 18867450 34 7 42 2397
0.74444306 -2.1521995 0.52479649 228 18867450 125 8 70 2337
0.85650498 -2.2059815 0.52055156 357 18867450 210 9 62 2423
0.97364587 -2.2584541 0.51630259 376 18867450 237 10 37 2513
1.1020955 -2.318455 0.51388311 315 18867450 216 11 25 2618
0.76153064 -2.2004812 0.44676042 395 18867450 222 12 90 2371
0.8812328 -2.2722552 0.44251031 372 18867450 228 13 49 2477
0.97306043 -2.2582886 0.42226952 39 18867450 24 14 77 2495
1.1135254 -2.3439767 0.42127883 118 18867450 81 15 39 2629
0.77312416 -2.2341073 0.36429179 364 18867450 208 16 43 2392
0.89488471 -2.3090105 0.35728982 375 18867450 235 17 75 2502
0.9925217 -2.3068883 0.33811846 199 18867450 128 18 39 2534
1.1051903 -2.3301027 0.32245559 151 18867450 102 19 50 2599
0.76750404 -2.2179921 0.2742593 80 18867450 44 20 51 2363
0.86344516 -2.2289281 0.2560429 80 18867450 46 21 46 2404
1.0266989 -2.3894262 0.25357708 164 18867450 112 22 52 2613
1.0732603 -2.2659495 0.22107773 203 18867450 129 23 108 2517
0.80795068 -2.3363292 0.19794413 61 18867450 37 24 42 2480
0.91065961 -2.3526375 0.17786714 348 18867450 223 25 64 2529
1.0583379 -2.4632962 0.16336808 295 18867450 213 26 128 2686
1.1694357 -2.4727943 0.14081796 291 18867450 218 27 84 2739
0.81580085 -2.362767 0.10865582 426 18867450 266 28 54 2502
0.94040954 -2.4320164 0.088367783 314 18867450 213 29 40 2609
1.084035 -2.5296776 0.067886233 256 18867450 194 30 27 2753
1.205399 -2.5512586 0.042159162 295 18867450 235 31 52 2822
0.83013248 -2.4046831 0.017760327 346 18867450 224 32 81 2544
0.96347469 -2.4943831 -0.0067671579 279 18867450 200 33 60 2674
1.0847659 -2.5322375 -0.032888554 225 18867450 171 34 64 2755
1.2095798 -2.5643935 -0.060827814 304 18867450 244 35 44 2836
0.85238916 -2.4730725 -0.077682219 383 18867450 262 36 102 2617
0.96810138 -2.511838 -0.10529612 276 18867450 200 37 57 2694
1.1151129 -2.6060939 -0.13799249 302 18867450 243 38 121 2838
1.2304342 -2.6084881 -0.16776229 314 18867450 262 39 46 2889
0.85868585 -2.4977074 -0.17528872 354 18867450 248 40 81 2647
0.9835602 -2.5554025 -0.20746869 309 18867450 233 41 83 2746
1.1140107 -2.6055293 -0.24193661 322 18867450 260 42 116 2844
1.2468052 -2.6469049 -0.27765673 307 18867450 265 43 52 2939
0.87583256 -2.5504782 -0.2783882 344 18867450 253 44 84 2711
1.0026901 -2.608227 -0.31481624 301 18867450 238 45 47 2812
1.1115668 -2.6035841 -0.34594095 287 18867450 234 46 78 2852
1.2680091 -2.6936269 -0.39311337 295 18867450 266 47 100 3003
0.88425237 -2.5820372 -0.38303709 381 18867450 290 48 91 2756
1.0130365 -2.638577 -0.42406723 304 18867450 248 49 54 2858
1.1458793 -2.6878493 -0.46702081 304 18867450 266 50 44 2959
1.3055599 -2.7754068 -0.5205307 334 18867450 323 51 51 3111
0.8942768 -2.6189117 -0.49324569 386 18867450 305 52 73 2811
1.0233675 -2.6695228 -0.53726029 308 18867450 261 53 73 2909
1.1813571 -2.7734835 -0.59625083 329 18867450 311 54 61 3073
1.3377376 -2.8436825 -0.65423852 197 18867450 203 55 44 3210
0.90171832 -2.6455352 -0.60634035 364 18867450 298 56 104 2860
1.0440984 -2.7278731 -0.66226339 322 18867450 288 57 48 2995
1.1903276 -2.7960324 -0.72003663 328 18867450 319 58 46 3123
1.2720388 -2.7046366 -0.73966217 78 18867450 74 59 73 3079
0.69509315 -2.0471575 -0.55481172 77 18867450 38 60 28 2232
0.72063321 -1.887504 -0.53879315 366 18867450 160 61 15 2091
1.2005463 -2.8215382 -0.85013849 292 18867450 296 62 67 3182
1.3870741 -2.9460225 -0.93930793 297 18867450 341 63 51 3389
0.71666479 -2.1186495 0.69811577 233 18964110 128 0 60 2343
0.79505259 -2.085217 0.66982269 232 18964110 126 1 60 2330
0.93841493 -2.2083154 0.69478434 309 18964110 193 2 41 2498
1.038817 -2.2095127 0.68201005 400 18964110 257 3 39 2535
0.73330504 -2.1642327 0.61729223 29 18964110 16 4 41 2367
0.82426244 -2.1646636 0.60105962 358 18964110 205 5 28 2393
0.94107062 -2.2169294 0.59994578 341 18964110 210 6 71 2482
0.98978591 -2.1107726 0.55729026 43 18964110 24 7 55 2397
0.74248743 -2.1899498 0.53288066 76 18964110 43 8 65 2373
0.83877838 -2.2002444 0.51797348 371 18964110 216 9 71 2411
0.95060384 -2.2427602 0.51137173 404 18964110 250 10 36 2489
1.0728899 -2.2932005 0.50681674 291 18964110 194 11 40 2582
0.74801439 -2.2051125 0.44676042 376 18964110 212 12 94 2371
0.85466921 -2.2445173 0.436079 370 18964110 220 13 49 2441
1.0007054 -2.362227 0.44054812 104 18964110 71 14 69 2603
1.0790544 -2.3078451 0.41358715 163 18964110 108 15 41 2581
0.75940138 -2.2388091 0.36429179 386 18964110 221 16 43 2392
0.86380416 -2.270056 0.35043535 353 18964110 213 17 82 2454
0.95981598 -2.2691221 0.33171368 31 18964110 19 18 47 2486
1.0606518 -2.2721028 0.31352261 142 18964110 90 19 57 2527
0.76153708 -2.2452343 0.27704483 106 18964110 61 20 74 2387
0.84551078 -2.223032 0.25476483 92 18964110 52 21 56 2392
1.0027232 -2.373677 0.251248 222 18964110 149 22 33 2589
1.0391346 -2.2291551 0.21686168 183 18964110 112 23 94 2469
0.80128002 -2.3638999 0.19985974 118 18964110 74 24 44 2504
0.90045941 -2.3693705 0.17871113 363 18964110 235 25 63 2541
1.0432035 -2.4697437 0.16336808 314 18964110 227 26 101 2686
1.1744686 -2.5233831 0.14328575 280 18964110 218 27 76 2787
0.7897585 -2.3336601 0.10709243 412 18964110 251 28 67 2466
0.91695589 -2.4153159 0.087554887 304 18964110 203 29 33 2585
1.059178 -2.5141709 0.067294419 244 18964110 181 30 39 2729
1.1846631 -2.5477269 0.041979894 297 18964110 235 31 68 2810
0.81536204 -2.4097316 0.017760327 340 18964110 220 32 59 2544
0.93113142 -2.4553671 -0.0066456837 278 18964110 191 33 52 2626
1.0738652 -2.5499043 -0.033031806 237 18964110 181 34 49 2767
1.2039251 -2.5935309 -0.061342575 287 18964110 235 35 63 2860
0.82568192 -2.4441648 -0.076613605 358 18964110 238 36 119 2581
0.94418371 -2.495301 -0.10435806 297 18964110 211 37 55 2670
1.0805118 -2.5686946 -0.13565859 301 18964110 234 38 104 2790
1.2144055 -2.6159887 -0.16776229 297 18964110 248 39 69 2889
0.83569753 -2.4802353 -0.17369941 327 18964110 225 40 73 2623
0.95517337 -2.5278096 -0.20474878 305 18964110 224 41 84 2710
1.0980024 -2.6123159 -0.24193661 332 18964110 268 42 112 2844
1.2255162 -2.6436667 -0.27652305 337 18964110 288 43 50 2927
0.86778152 -2.5784302 -0.28085271 347 18964110 260 44 98 2735
0.98245692 -2.603174 -0.31347281 320 18964110 251 45 55 2800
1.10479 -2.6323218 -0.3488521 313 18964110 259 46 78 2876
1.2464566 -2.6905618 -0.39154246 222 18964110 199 47 104 2991
0.86083049 -2.5648825 -0.37970152 359 18964110 268 48 80 2732
0.99682736 -2.6447432 -0.42406723 303 18964110 248 49 67 2858
1.1247853 -2.6839008 -0.46512684 277 18964110 240 50 42 2947
1.2835356 -2.7726293 -0.51852286 324 18964110 311 51 51 3099
0.86694378 -2.5907402 -0.48692876 363 18964110 280 52 85 2775
1.0069684 -2.6757519 -0.53726029 319 18964110 270 53 71 2909
1.1506772 -2.7481043 -0.58926576 327 18964110 302 54 58 3037
1.2955861 -2.7985318 -0.64200979 302 18964110 299 55 41 3150
0.88175339 -2.639895 -0.60379624 355 18964110 288 56 90 2848
1.0149921 -2.7013626 -0.65430295 331 18964110 290 57 58 2959
1.1731491 -2.8032835 -0.72003663 336 18964110 327 58 39 3123
1.0841703 -2.3423991 -0.63876641 56 18964110 40 59 78 2659
0.68618846 -2.062413 -0.55779463 110 18964110 55 60 21 2244
0.70496899 -1.8810327 -0.5357011 422 18964110 182 61 31 2079
1.1742867 -2.8075151 -0.8437264 309 18964110 309 62 63 3158
1.373819 -2.9649394 -0.94263393 280 18964110 323 63 51 3401
0.70365155 -2.1230071 0.69811577 195 19061690 107 0 52 2343
0.77015686 -2.0577633 0.65947354 81 19061690 43 1 65 2294
0.92929018 -2.2246678 0.69812196 332 19061690 209 2 33 2510
1.0349466 -2.2368236 0.68846697 400 19061690 262 3 27 2559
0.73461276 -2.2126701 0.62981021 227 19061690 132 4 46 2415
0.82723159 -2.213201 0.61311603 252 19061690 150 5 27 2441
0.922966 -2.2119157 0.59704512 356 19061690 217 6 65 2470
1.0697296 -2.3181543 0.61029911 183 19061690 126 7 42 2625
0.70691621 -2.1278815 0.51671237 31 19061690 17 8 61 2301
0.82115471 -2.1943734 0.51539546 380 19061690 219 9 78 2399
0.95037448 -2.2810729 0.51876807 388 19061690 247 10 57 2525
1.0292741 -2.2356114 0.49268401 66 19061690 41 11 33 2510
0.72703552 -2.1872938 0.44223818 377 19061690 208 12 87 2347
0.84501475 -2.2607787 0.43822274 355 19061690 213 13 50 2453
0.94527453 -2.2700596 0.42226952 318 19061690 198 14 68 2495
1.0698243 -2.3251832 0.41551009 213 19061690 143 15 43 2593
0.73442781 -2.2096627 0.35880914 356 19061690 197 16 37 2356
0.84985912 -2.2753136 0.35043535 370 19061690 223 17 57 2454
0.93217748 -2.2420247 0.32691011 58 19061690 35 18 44 2450
1.0715426 -2.3326693 0.32096675 166 19061690 111 19 76 2587
0.74774623 -2.2498646 0.27704483 79 19061690 45 20 53 2387
0.82768142 -2.2169998 0.25348675 90 19061690 51 21 60 2380
0.98813969 -2.3797851 0.251248 235 19061690 157 22 46 2589
1.0403888 -2.2680843 0.22002371 200 19061690 126 23 97 2505
0.77921945 -2.3460681 0.19794413 191 19061690 117 24 40 2480
0.86916935 -2.3299897 0.17533523 349 19061690 217 25 53 2493
1.0234369 -2.4650359 0.16263822 280 19061690 200 26 103 2674
1.1589633 -2.5305421 0.14328575 291 19061690 226 27 54 2787
0.77542454 -2.3384619 0.10709243 410 19061690 250 28 63 2466
0.90630633 -2.4321351 0.087961331 324 19061690 218 29 33 2597
1.0483209 -2.5317063 0.067590334 227 19061690 170 30 27 2741
1.1590238 -2.5331261 0.041621342 327 19061690 254 31 62 2786
0.79678458 -2.4032991 0.017676551 336 19061690 216 32 85 2532
0.92442012 -2.4835262 -0.0067064208 262 19061690 184 33 54 2650
1.0490205 -2.5342717 -0.032745298 241 19061690 182 34 82 2743
1.1680505 -2.5572181 -0.060313046 282 19061690 223 35 54 2812
0.8031311 -2.4264107 -0.075901203 383 19061690 251 36 94 2557
0.93302971 -2.5122881 -0.10482709 306 19061690 220 37 49 2682
1.0601507 -2.5641997 -0.13507511 305 19061690 235 38 96 2778
1.1933538 -2.612494 -0.16706546 303 19061690 251 39 49 2877
0.80920273 -2.4512062 -0.17131543 437 19061690 293 40 78 2587
0.93548435 -2.5224042 -0.20384215 309 19061690 225 41 75 2698
1.059127 -2.5637507 -0.23683247 320 19061690 248 42 110 2784
1.2142297 -2.6620057 -0.27765673 325 19061690 280 43 51 2939
0.82951641 -2.5156891 -0.27345914 344 19061690 244 44 89 2663
0.96646565 -2.609153 -0.31347281 278 19061690 218 45 66 2800
1.0931598 -2.6500626 -0.35030767 329 19061690 275 46 100 2888
1.2299241 -2.6981592 -0.39154246 312 19061690 279 47 97 2991
0.84878838 -2.5814052 -0.38136932 366 19061690 276 48 82 2744
0.98058075 -2.6508098 -0.42406723 326 19061690 266 49 48 2858
1.108296 -2.690752 -0.46512684 305 19061690 264 50 54 2947
1.2615948 -2.769686 -0.51651502 333 19061690 317 51 57 3087
0.85471117 -2.6072369 -0.48903441 372 19061690 289 52 69 2787
0.98235923 -2.659754 -0.53282773 331 19061690 275 53 57 2885
1.1293136 -2.7442269 -0.58693743 316 19061690 289 54 82 3025
1.2783903 -2.8064287 -0.64200979 328 19061690 325 55 45 3150
0.74518991 -2.2774463 -0.51984149 310 19061690 186 56 120 2452
1.0064956 -2.7295001 -0.65960985 340 19061690 302 57 52 2983
1.1426016 -2.7780321 -0.71173644 291 19061690 277 58 51 3087
1.1421955 -2.5080228 -0.68200749 25 19061690 20 59 88 2839
0.66271567 -2.0334308 -0.54884601 108 19061690 53 60 27 2208
0.68540919 -1.8635588 -0.52951694 429 19061690 181 61 23 2055
1.0778992 -2.6221509 -0.78601742 196 19061690 169 62 147 2942
1.322119 -2.8998764 -0.91935211 231 19061690 254 63 45 3317
0.69414878 -2.1381795 0.70169121 224 19158300 124 0 60 2355
0.74959099 -2.0408728 0.65257406 75 19158300 39 1 65 2270
0.89373493 -2.1770132 0.68143374 321 19158300 192 2 37 2450
1.0116248 -2.2220943 0.68201005 421 19158300 270 3 39 2535
0.70310861 -2.1620517 0.61416268 340 19158300 188 4 49 2355
0.78963691 -2.1528058 0.5950315 262 19158300 147 5 30 2369
0.90937656 -2.2175372 0.59704512 365 19158300 223 6 95 2470
1.0217099 -2.2502849 0.59076953 432 19158300 279 7 54 2541
0.67575401 -2.076581 0.5032388 40 19158300 20 8 49 2241
0.7995947 -2.1773674 0.5102393 373 19158300 211 9 79 2375
0.91856015 -2.2433884 0.50890636 364 19158300 223 10 30 2477
1.0203923 -2.2526028 0.49503943 58 19158300 37 11 18 2522
0.71724945 -2.2029197 0.44449934 286 19158300 159 12 90 2359
0.82299531 -2.2437515 0.4339352 351 19158300 207 13 50 2429
0.93580723 -2.2867627 0.42430049 348 19158300 219 14 61 2507
1.0653069 -2.3532853 0.4193559 231 19158300 158 15 50 2617
0.7245273 -2.2254045 0.36063665 400 19158300 224 16 49 2368
0.83996946 -2.2916367 0.35214895 378 19158300 230 17 84 2466
0.96338624 -2.357794 0.34292206 20 19158300 13 18 47 2570
1.0572095 -2.3392003 0.32096675 152 19158300 102 19 74 2587
0.74868578 -2.2997444 0.2826159 277 19158300 164 20 86 2435
0.83458513 -2.2780545 0.25987718 92 19158300 55 21 50 2440
0.96449441 -2.3636868 0.24891894 181 19158300 119 22 52 2565
1.0166184 -2.2526345 0.2179157 195 19158300 120 23 108 2481
0.75370753 -2.3166804 0.19507076 363 19158300 217 24 54 2444
0.86720097 -2.3690014 0.17786714 373 19158300 239 25 59 2529
0.97209346 -2.3825476 0.1567993 286 19158300 190 26 83 2578
1.1138752 -2.4720485 0.13958406 272 19158300 201 27 69 2715
0.75735801 -2.3317738 0.1065713 406 19158300 245 28 61 2454
0.87900972 -2.4038591 0.086741999 300 19158300 197 29 42 2561
1.0146812 -2.4936442 0.066406697 247 19158300 179 30 33 2693
1.1336087 -2.5183077 0.041262798 291 19158300 222 31 57 2762
0.78202319 -2.4081428 0.017676551 325 19158300 209 32 60 2532
0.89269626 -2.4440653 -0.0065849465 334 19158300 226 33 56 2602
1.0244086 -2.5184312 -0.032458793 247 19158300 183 34 68 2719
1.1523377 -2.564337 -0.060313046 313 19158300 247 35 49 2812
0.7882278 -2.431293 -0.075901203 359 19158300 235 36 97 2557
0.90528029 -2.4841676 -0.10342002 300 19158300 210 37 42 2646
1.0353743 -2.5484476 -0.13390815 312 19158300 237 38 111 2754
1.1625698 -2.5869861 -0.16497496 257 19158300 208 39 68 2841
0.78677976 -2.4333394 -0.16972612 434 19158300 285 40 86 2563
0.91180575 -2.5056078 -0.20202886 314 19158300 225 41 95 2674
1.0343815 -2.5480442 -0.23479082 339 19158300 258 42 97 2760
1.1880913 -2.6476076 -0.2753894 301 19158300 256 43 62 2915
0.81039649 -2.5093727 -0.27222687 367 19158300 258 44 74 2651
0.93821812 -2.5814123 -0.30944243 331 19158300 253 45 53 2764
1.0724041 -2.6456811 -0.3488521 328 19158300 272 46 89 2876
1.2036095 -2.6839447 -0.3884007 321 19158300 283 47 101 2967
0.81836289 -2.5413187 -0.37469813 370 19158300 269 48 76 2696
0.9521507 -2.6233113 -0.41872561 312 19158300 248 49 41 2822
1.0784283 -2.6645498 -0.45944497 320 19158300 271 50 37 2911
1.2397385 -2.7665784 -0.51450717 338 19158300 319 51 55 3075
0.83147502 -2.5899355 -0.48482317 356 19158300 272 52 89 2763
0.94994831 -2.6213796 -0.52396268 324 19158300 260 53 57 2837
1.0992149 -2.718364 -0.57995236 296 19158300 265 54 77 2989
1.2467332 -2.7820575 -0.63467252 326 19158300 317 55 64 3114
0.67036766 -2.0921214 -0.476592 320 19158300 162 56 85 2248
0.97778428 -2.7026098 -0.65164948 351 19158300 305 57 59 2947
1.1211591 -2.7741647 -0.70896971 355 19158300 335 58 39 3075
1.2458534 -2.7807446 -0.75407588 72 19158300 71 59 44 3139
0.6643616 -2.0817513 -0.56077743 93 19158300 47 60 17 2256
0.67789727 -1.8786358 -0.53260905 175 19158300 75 61 27 2067
0.77162009 -1.9103308 -0.57121181 214 19158300 98 62 58 2138
1.3043009 -2.9079342 -0.91935211 147 19158300 161 63 42 3317
0.67407584 -2.1205652 0.69454026 231 19257770 125 0 48 2331
0.74095058 -2.0562465 0.65602374 41 19257770 22 1 69 2282
0.88467222 -2.1931458 0.68477142 226 19257770 137 2 45 2462
0.9837988 -2.1966157 0.67232472 402 19257770 251 3 38 2499
0.6792841 -2.1332095 0.60477424 349 19257770 188 4 74 2319
0.76854694 -2.1357517 0.58900326 170 19257770 93 5 29 2345
0.88704926 -2.2014747 0.59124392 365 19257770 219 6 82 2446
0.98884404 -2.2138855 0.57960975 441 19257770 274 7 62 2493
0.68075061 -2.1363962 0.51671237 23 19257770 12 8 61 2301
0.79019207 -2.1932588 0.51281738 361 19257770 206 9 67 2387
0.90039438 -2.2380869 0.50644088 373 19257770 226 10 47 2465
0.94907975 -2.1298482 0.4667739 37 19257770 21 11 27 2378
0.68940008 -2.1623664 0.43545482 45 19257770 24 12 92 2311
0.80921239 -2.248759 0.4339352 351 19257770 207 13 45 2429
0.92175835 -2.2924616 0.42430049 344 19257770 216 14 76 2507
1.0412102 -2.3381364 0.41551009 164 19257770 111 15 59 2593
0.7000519 -2.1959093 0.35515401 363 19257770 197 16 45 2332
0.81785458 -2.2743948 0.34872171 363 19257770 217 17 81 2442
0.94003952 -2.3415875 0.33971965 205 19257770 133 18 42 2546
1.0428365 -2.3456433 0.32096675 171 19257770 114 19 54 2587
0.7309407 -2.2929389 0.28122315 343 19257770 202 20 65 2423
0.81252021 -2.2606754 0.257321 304 19257770 177 21 57 2416
0.88330823 -2.2032754 0.23145096 45 19257770 25 22 43 2385
1.0561293 -2.3790095 0.22950976 165 19257770 113 23 99 2613
0.72858602 -2.2870696 0.19219738 383 19257770 222 24 57 2408
0.84860295 -2.3630121 0.17702319 185 19257770 117 25 77 2517
0.95745611 -2.3884673 0.1567993 335 19257770 223 26 103 2578
1.0889739 -2.4569244 0.13835017 283 19257770 205 27 77 2691
0.73213595 -2.3021023 0.1050079 420 19257770 245 28 45 2418
0.86424333 -2.4092076 0.086741999 312 19257770 204 29 35 2561
0.99490827 -2.4886842 0.06611079 256 19257770 184 30 25 2681
1.1132774 -2.5142448 0.041083526 306 19257770 232 31 67 2750
0.75996006 -2.3900249 0.017509002 329 19257770 207 32 72 2508
0.86553973 -2.4156067 -0.0064938404 349 19257770 230 33 56 2566
1.0178421 -2.5469539 -0.032745298 250 19257770 188 34 78 2743
1.1171805 -2.5274673 -0.059283525 294 19257770 225 35 63 2764
0.77329487 -2.4360838 -0.075901203 379 19257770 248 36 97 2557
0.88194793 -2.4670935 -0.10248197 293 19257770 201 37 57 2622
1.0197178 -2.5547526 -0.13390815 318 19257770 241 38 114 2754
1.1466744 -2.5940707 -0.16497496 331 19257770 267 39 49 2841
0.76460677 -2.4152904 -0.16813679 436 19257770 281 40 65 2539
0.89641446 -2.5111554 -0.20202886 329 19257770 235 41 77 2674
1.0231568 -2.5654488 -0.23581164 299 19257770 230 42 120 2772
1.1621754 -2.6329894 -0.27312201 315 19257770 263 43 41 2891
0.7877869 -2.4915357 -0.26976237 365 19257770 252 44 79 2627
0.9223612 -2.5871205 -0.30944243 312 19257770 238 45 40 2764
1.0649638 -2.6743438 -0.35176322 342 19257770 288 46 80 2900
1.1775157 -2.6695096 -0.38525894 322 19257770 279 47 91 2943
0.80275428 -2.5462921 -0.37469813 341 19257770 248 48 71 2696
0.92011529 -2.5843854 -0.41160342 306 19257770 235 49 37 2774
1.0708148 -2.6931388 -0.4632329 335 19257770 288 50 45 2935
1.2179681 -2.7633076 -0.51249939 325 19257770 305 51 53 3063
0.80139941 -2.5499072 -0.47640058 369 19257770 272 52 67 2715
0.94569594 -2.6604962 -0.53061146 333 19257770 275 53 61 2873
1.0912067 -2.7469385 -0.58460909 320 19257770 291 54 71 3013
1.2296393 -2.789655 -0.63467252 332 19257770 321 55 52 3114
0.63996863 -2.040247 -0.4638716 454 19257770 217 56 77 2188
0.94552755 -2.6644423 -0.64103556 362 19257770 304 57 56 2899
1.0998074 -2.7701392 -0.70620304 346 19257770 324 58 36 3063
1.2475573 -2.8309743 -0.76560676 280 19257770 284 59 53 3187
0.63771242 -2.0414102 -0.54884601 336 19257770 164 60 44 2208
0.68570012 -1.9374119 -0.54806936 66 19257770 30 61 21 2127
0.73429388 -1.8505381 -0.55197549 309 19257770 132 62 45 2066
1.2771256 -2.8947847 -0.91270024 318 19257770 345 63 59 3293
0.66785777 -2.1465368 0.70169121 163 19356730 91 0 64 2355
0.77044863 -2.1799564 0.6939708 65 19356730 38 1 51 2414
0.86270607 -2.1771009 0.67809618 240 19356730 142 2 40 2438
0.96564287 -2.1920342 0.66909629 388 19356730 240 3 38 2487
0.66618216 -2.1373372 0.60477424 232 19356730 125 4 50 2319
0.74383056 -2.1075678 0.579961 54 19356730 29 5 21 2309
0.86066812 -2.1743956 0.582542 354 19356730 206 6 78 2410
0.97054702 -2.2092259 0.57681984 412 19356730 253 7 50 2481
0.70244676 -2.2521644 0.54365951 179 19356730 105 8 71 2421
0.76891011 -2.1759658 0.50766128 380 19356730 212 9 69 2363
0.88664478 -2.2435696 0.50644088 393 19356730 239 10 53 2465
1.0210122 -2.3296168 0.5091722 218 19356730 147 11 18 2594
0.63398957 -2.0315561 0.40832132 52 19356730 25 12 69 2167
0.78754002 -2.2314143 0.42964768 387 19356730 224 13 52 2405
0.91201931 -2.3090742 0.42633143 396 19356730 251 14 72 2519
0.93655461 -2.1383331 0.37897465 33 19356730 18 15 43 2365
0.69716364 -2.234128 0.36063665 366 19356730 205 16 39 2368
0.7920329 -2.2457678 0.34358087 361 19356730 209 17 69 2406
0.92129129 -2.3362482 0.33811846 360 19356730 231 18 53 2534
1.0379651 -2.3738174 0.32394439 116 19356730 79 19 58 2611
0.70975721 -2.2746251 0.27843761 354 19356730 204 20 63 2399
0.81053382 -2.2993777 0.26115525 78 19356730 47 21 68 2452
0.86539632 -2.1975412 0.23028642 96 19356730 54 22 53 2373
1.0606444 -2.4292648 0.23372577 283 19356730 200 23 116 2661
0.71453911 -2.2914972 0.19219738 336 19356730 195 24 55 2408
0.83011121 -2.356884 0.1761792 107 19356730 67 25 70 2505
0.94278276 -2.3942971 0.1567993 350 19356730 233 26 80 2578
1.0786667 -2.4745455 0.13896711 296 19356730 217 27 61 2703
0.71443343 -2.2951043 0.10448677 426 19356730 247 28 58 2406
0.82954341 -2.3578982 0.084709778 316 19356730 198 29 20 2501
0.97961926 -2.4947419 0.06611079 258 19356730 185 30 36 2681
1.0930388 -2.5100274 0.04090425 310 19356730 233 31 76 2738
0.74528086 -2.3946428 0.017509002 362 19356730 228 32 73 2508
0.8467232 -2.4095507 -0.0064634713 337 19356730 220 33 65 2554
0.98904198 -2.5196431 -0.032315541 261 19356730 191 34 89 2707
1.106434 -2.5452769 -0.059540901 291 19356730 224 35 56 2776
0.74409729 -2.3949642 -0.074476376 382 19356730 240 36 116 2509
0.85885942 -2.4498272 -0.10154392 293 19356730 198 37 53 2598
1.004023 -2.5609615 -0.13390815 297 19356730 225 38 93 2754
1.1116316 -2.5571117 -0.16218764 325 19356730 253 39 49 2793
0.75331604 -2.4313738 -0.16893145 447 19356730 291 40 72 2551
0.88098943 -2.5166085 -0.20202886 316 19356730 226 41 82 2674
1.0030352 -2.5605459 -0.23479082 321 19356730 245 42 75 2760
1.1412411 -2.6291127 -0.27198836 328 19356730 272 43 44 2879
0.76895559 -2.4849193 -0.2685301 456 19356730 312 44 87 2615
0.90253407 -2.5814748 -0.30809897 340 19356730 258 45 63 2752
1.0311793 -2.6364558 -0.34594095 324 19356730 264 46 81 2852
1.1563795 -2.6657705 -0.38368806 329 19356730 283 47 99 2931
0.78361189 -2.5398142 -0.37303033 349 19356730 252 48 86 2684
0.91206372 -2.6123903 -0.4151645 308 19356730 241 49 45 2798
1.0499594 -2.6886208 -0.46133891 334 19356730 285 50 50 2923
1.1915795 -2.7490187 -0.50848365 247 19356730 228 51 55 3039
0.79962993 -2.5999441 -0.48482317 351 19356730 268 52 75 2763
0.92159021 -2.643976 -0.52617896 348 19356730 283 53 69 2849
1.0529373 -2.6987481 -0.57296735 310 19356730 271 54 78 2953
1.2031543 -2.7755895 -0.62978107 324 19356730 309 55 50 3090
0.63087898 -2.0553463 -0.46641564 468 19356730 227 56 100 2200
0.92916101 -2.6701939 -0.64103556 349 19356730 294 57 68 2899
1.0785474 -2.7659564 -0.70343632 316 19356730 294 58 46 3051
1.2347952 -2.8492641 -0.76848954 364 19356730 373 59 58 3199
0.62517458 -2.0452847 -0.54884601 449 19356730 219 60 37 2208
0.70421076 -2.0292141 -0.57280594 92 19356730 45 61 30 2223
0.71032852 -1.8226856 -0.54235739 397 19356730 163 62 54 2030
1.2455721 -2.8708348 -0.90272236 247 19356730 262 63 62 3257
0.64466655 -2.1177189 0.6909647 379 19455800 204 0 63 2319
0.73824149 -2.1303434 0.67672217 239 19455800 133 1 58 2354
0.85351181 -2.193095 0.68143374 213 19455800 128 2 50 2450
0.94758028 -2.1873128 0.66586781 399 19455800 244 3 50 2475
0.65305519 -2.1413846 0.60477424 218 19455800 117 4 73 2319
0.71189255 -2.057209 0.56489056 39 19455800 20 5 26 2249
0.84731007 -2.1796355 0.582542 361 19455800 210 6 77 2410
0.95234454 -2.2044253 0.57402986 405 19455800 247 7 64 2469
0.67837501 -2.2228794 0.53557539 240 19455800 136 8 54 2385
0.74403358 -2.1474209 0.49992713 214 19455800 116 9 46 2327
0.86436337 -2.227071 0.50151002 394 19455800 235 10 61 2441
0.9740994 -2.2601979 0.49268401 394 19455800 248 11 45 2510
0.63527906 -2.0804932 0.41736585 56 19455800 28 12 64 2215
0.7661112 -2.2138889 0.42536008 386 19455800 219 13 61 2381
0.87644845 -2.2594948 0.41617665 350 19455800 212 14 83 2459
0.95152891 -2.2093127 0.39051214 50 19455800 29 15 39 2437
0.66612524 -2.1816485 0.35149893 304 19455800 162 16 28 2308
0.77047527 -2.2281356 0.34015363 357 19455800 203 17 75 2382
0.88975942 -2.2974966 0.33171368 344 19455800 212 18 46 2486
1.0563039 -2.4567146 0.3343662 62 19455800 45 19 42 2695
0.69578701 -2.2789371 0.27843761 356 19455800 205 20 76 2399
0.80030745 -2.3155849 0.26243335 307 19455800 187 21 67 2464
0.85189617 -2.2028098 0.23028642 39 19455800 22 22 42 2373
1.0362872 -2.4137588 0.23161776 221 19455800 154 23 97 2637
0.70395595 -2.3072793 0.19315517 362 19455800 212 24 62 2420
0.80391234 -2.3279891 0.17364728 118 19455800 72 25 75 2469
0.91943395 -2.3776937 0.15533957 341 19455800 222 26 94 2554
1.0587416 -2.4701028 0.13835017 269 19455800 195 27 67 2691
0.70383048 -2.3109136 0.1050079 416 19455800 244 28 63 2418
0.82679218 -2.3969567 0.085929111 328 19455800 211 29 34 2537
0.95997727 -2.4895127 0.065814883 259 19455800 184 30 37 2669
1.0634482 -2.4835968 0.04036643 295 19455800 216 31 64 2702
0.72707796 -2.3876915 0.017425226 339 19455800 211 32 87 2496
0.83583134 -2.4260464 -0.0064938404 350 19455800 230 33 50 2566
0.96061593 -2.4920759 -0.031885784 254 19455800 182 34 66 2671
1.0907956 -2.5520179 -0.059540901 288 19455800 222 35 61 2776
0.7328766 -2.4109612 -0.074832588 369 19455800 234 36 121 2521
0.83991396 -2.4437115 -0.1010749 355 19455800 237 37 39 2586
0.97537148 -2.5335174 -0.13215773 311 19455800 230 38 107 2718
1.1006291 -2.5748999 -0.16288446 318 19455800 251 39 66 2805
0.73490983 -2.4244914 -0.16813679 434 19455800 280 40 72 2539
0.85387856 -2.4880135 -0.19930895 288 19455800 201 41 90 2638
0.9873051 -2.5666521 -0.23479082 333 19455800 254 42 106 2760
1.1110191 -2.6031034 -0.26858732 340 19455800 274 43 52 2843
0.7467767 -2.4667418 -0.26606557 446 19455800 300 44 97 2591
0.87894481 -2.5644033 -0.30541208 306 19455800 228 45 64 2728
1.0064416 -2.6204944 -0.3430298 333 19455800 267 46 81 2828
1.1400008 -2.6728158 -0.38368806 302 19455800 260 47 94 2931
0.77144688 -2.5559514 -0.37469813 350 19455800 255 48 70 2696
0.88448876 -2.584254 -0.40982285 313 19455800 238 49 47 2762
1.0207145 -2.6618204 -0.45565701 365 19455800 304 50 32 2887
1.1607741 -2.7236276 -0.50246024 315 19455800 284 51 74 3003
0.76664424 -2.5482366 -0.47429493 347 19455800 254 52 80 2703
0.89390969 -2.616101 -0.51953018 339 19455800 269 53 62 2813
1.0363582 -2.705158 -0.57296735 330 19455800 288 54 77 2953
1.1814947 -2.7721121 -0.62733525 342 19455800 324 55 37 3078
0.62162811 -2.0704105 -0.46895975 225 19455800 110 56 96 2212
0.77674288 -2.2770987 -0.54551041 208 19455800 127 57 95 2467
1.0448545 -2.7289035 -0.69236952 343 19455800 309 58 50 3003
1.194458 -2.8032057 -0.75407588 350 19455800 345 59 72 3139
0.60928369 -2.0379457 -0.54586315 430 19455800 207 60 39 2196
0.68054408 -2.0005658 -0.56352973 103 19455800 49 61 31 2187
0.69913137 -1.8270098 -0.54235739 431 19455800 177 62 40 2030
1.1284019 -2.6451094 -0.82955104 190 19455800 170 63 141 2993
0.62185448 -2.0886986 0.68023825 385 19554100 201 0 66 2283
0.72145939 -2.1239502 0.67327237 225 19554100 124 1 65 2342
0.83592474 -2.1875238 0.67809618 197 19554100 117 2 26 2438
0.9296121 -2.1824527 0.66263938 387 19554100 235 3 45 2463
0.64983743 -2.1786556 0.61416268 253 19554100 140 4 57 2355
0.73283559 -2.1605363 0.59201735 47 19554100 26 5 30 2357
0.83807248 -2.1956723 0.58544266 371 19554100 218 6 87 2422
0.92967486 -2.1887429 0.56845003 428 19554100 256 7 66 2445
0.64131123 -2.1485646 0.51671237 348 19554100 184 8 44 2301
0.72707433 -2.1408484 0.49734905 190 19554100 102 9 52 2315
0.8381362 -2.1994102 0.49411374 369 19554100 213 10 40 2405
0.96021277 -2.2661321 0.49268401 426 19554100 268 11 38 2510
0.64610869 -2.1633973 0.43319368 45 19554100 24 12 81 2299
0.74113482 -2.185004 0.41892877 358 19554100 197 13 57 2345
0.86256796 -2.2648301 0.41617665 348 19554100 211 14 65 2459
1.0026149 -2.3678129 0.41743296 31 19554100 21 15 38 2605
0.64593893 -2.1629665 0.34784383 56 19554100 29 16 40 2284
0.76441419 -2.2553182 0.34358087 350 19554100 203 17 74 2406
0.86719197 -2.2806804 0.32851133 351 19554100 212 18 55 2462
1.0133928 -2.3973439 0.32543322 95 19554100 65 19 50 2623
0.68179059 -2.2831635 0.27843761 380 19554100 219 20 74 2399
0.77842754 -2.2978501 0.25987718 351 19554100 209 21 91 2440
0.85532194 -2.2526577 0.23494454 159 19554100 93 22 53 2421
1.0028641 -2.3760207 0.22740175 348 19554100 233 23 100 2589
0.68294466 -2.2886307 0.19123958 341 19554100 196 24 55 2396
0.78961295 -2.3328779 0.17364728 354 19554100 215 25 50 2469
0.89632475 -2.3608947 0.15387985 360 19554100 231 26 73 2530
1.0435654 -2.4765525 0.13835017 298 19554100 216 27 85 2691
0.68621522 -2.3036988 0.10448677 396 19554100 230 28 66 2406
0.80822808 -2.3906231 0.085522667 331 19554100 211 29 31 2525
0.91495228 -2.416821 0.063743524 297 19554100 198 30 24 2585
1.0528443 -2.5011342 0.040545706 311 19554100 229 31 65 2714
0.70213848 -2.3576062 0.017173901 338 19554100 205 32 77 2460
0.80941236 -2.3970215 -0.0064027342 353 19554100 226 33 56 2530
0.95380068 -2.5203681 -0.032172289 230 19554100 167 34 56 2695
1.0797638 -2.5697236 -0.059798285 324 19554100 252 35 61 2788
0.71806943 -2.4154127 -0.074832588 371 19554100 236 36 109 2521
0.81724805 -2.4260919 -0.10013684 383 19554100 251 37 53 2562
0.96404529 -2.5506659 -0.1327412 305 19554100 227 38 108 2730
1.0755273 -2.5595162 -0.1614908 309 19554100 239 39 58 2781
0.71661663 -2.4174755 -0.16734214 435 19554100 278 40 88 2527
0.83859634 -2.493206 -0.19930895 337 19554100 235 41 80 2638
0.96731371 -2.5614762 -0.23376997 353 19554100 267 42 95 2748
1.0996479 -2.6208873 -0.26972097 343 19554100 280 43 63 2855
0.72823852 -2.4598322 -0.26483333 478 19554100 318 44 84 2579
0.86699045 -2.5810521 -0.30675554 292 19554100 220 45 66 2740
0.98193902 -2.6043293 -0.34011865 338 19554100 266 46 85 2804
1.1097789 -2.6468461 -0.37897542 338 19554100 283 47 104 2895
0.74229389 -2.5150468 -0.36802697 333 19554100 234 48 77 2648
0.86484164 -2.5783815 -0.40804234 321 19554100 242 49 42 2750
0.98766398 -2.6236742 -0.44808117 347 19554100 279 50 48 2839
1.1303257 -2.697963 -0.49643672 327 19554100 288 51 74 2967
0.75432819 -2.5642264 -0.47640058 352 19554100 260 52 86 2715
0.87784076 -2.6215365 -0.51953018 356 19554100 281 53 57 2813
1.0155964 -2.7004476 -0.57063901 340 19554100 294 54 60 2941
1.1553835 -2.7576385 -0.6224438 345 19554100 321 55 46 3054
0.62542915 -2.1304476 -0.48168015 48 19554100 25 56 84 2272
0.70339298 -2.1042337 -0.5030548 268 19554100 138 57 47 2275
1.0239823 -2.724333 -0.68960279 332 19554100 297 58 63 2991
1.1637341 -2.7782495 -0.74542767 371 19554100 358 59 69 3103
0.60002869 -2.0528026 -0.54884601 418 19554100 204 60 43 2208
0.67925614 -2.037703 -0.57280594 134 19554100 66 61 27 2223
0.70417362 -1.8745658 -0.55518156 225 19554100 97 62 39 2078
0.77326608 -1.8438948 -0.57677776 206 19554100 89 63 53 2081
0.60262436 -2.070478 0.67308724 356 19651320 182 0 70 2259
0.7047838 -2.1174319 0.66982269 241 19651320 131 1 73 2330
0.81843823 -2.1818194 0.67475849 122 19651320 72 2 27 2426
0.91620332 -2.1881156 0.66263938 394 19651320 239 3 32 2463
0.62024176 -2.1269944 0.59851527 268 19651320 141 4 57 2295
0.74520922 -2.2421494 0.61311603 58 19651320 34 5 21 2441
0.81232786 -2.1680615 0.5767408 337 19651320 192 6 60 2386
0.92971796 -2.2267163 0.57681984 404 19651320 249 7 65 2481
0.63794291 -2.1861353 0.52479649 243 19651320 133 8 81 2337
0.69542122 -2.0896685 0.48445883 46 19651320 23 9 24 2255
0.83285415 -2.2265108 0.4990446 360 19651320 212 10 56 2429
0.93724173 -2.250257 0.48797306 401 19651320 248 11 49 2486
0.63942844 -2.1899467 0.43771595 220 19651320 119 12 102 2323
0.72771394 -2.1895106 0.41892877 380 19651320 209 13 60 2345
0.84037209 -2.2479239 0.41211477 347 19651320 206 14 83 2435
0.96530962 -2.3192427 0.40781841 297 19651320 192 15 36 2545
0.63265502 -2.1668892 0.34784383 49 19651320 25 16 29 2284
0.75056148 -2.2599659 0.34358087 370 19651320 215 17 58 2406
0.84902316 -2.2748165 0.32691011 360 19651320 216 18 59 2450
0.9666822 -2.3265457 0.31501141 35 19651320 23 19 66 2539
0.66442829 -2.2758627 0.27704483 415 19651320 237 20 62 2387
0.7567957 -2.2799349 0.257321 348 19651320 203 21 73 2416
0.84148383 -2.2578633 0.23494454 131 19651320 77 22 47 2421
0.99284685 -2.3931704 0.22845575 383 19651320 259 23 86 2601
0.65883893 -2.2583292 0.1883662 364 19651320 203 24 55 2360
0.76774764 -2.3149555 0.17195936 336 19651320 201 25 71 2445
0.88182169 -2.3663499 0.15387985 352 19651320 225 26 86 2530
1.0329356 -2.4939811 0.13896711 282 19651320 206 27 77 2703
0.67541903 -2.3193765 0.1050079 401 19651320 235 28 70 2418
0.78600168 -2.3727679 0.084709778 317 19651320 198 29 43 2501
