# .PCD v0.7 - Point Cloud Data file format
VERSION 0.7
FIELDS x y z intensity t reflectivity ring noise range
SIZE 4 4 4 4 4 2 1 2 4
TYPE F F F F U U U U U
COUNT 1 1 1 1 1 1 1 1 1
WIDTH 767
HEIGHT 1
VIEWPOINT 0 0 0 1 0 0 0
POINTS 767
DATA ascii
0.3632659 -2.2019131 -0.5522843 433 23278710 229 59 70 2299
0.11364002 -2.2171519 -0.56972599 412 23278710 216 60 40 2292
0.19825479 -2.2319047 -0.59754246 398 23278710 214 61 49 2319
0.28108817 -2.2159824 -0.61930263 371 23278710 199 62 55 2318
0.36768898 -2.2229252 -0.64994895 382 23278710 210 63 38 2345
0.06205564 -1.2384443 0.3870475 458 23374340 77 0 1 1299
0.11248109 -1.2727277 0.38349506 389 23374340 69 1 20 1334
0.16209935 -1.2826871 0.37437138 388 23374340 70 2 48 1346
0.21476717 -1.3028682 0.36885041 140 23374340 26 3 39 1371
0.062221494 -1.2293054 0.3325085 483 23374340 78 4 15 1275
0.11845428 -1.3470167 0.35089022 201 23374340 39 5 10 1397
0.1598603 -1.2688862 0.31858522 382 23374340 66 6 54 1318
0.220263 -1.3446889 0.32572532 172 23374340 34 7 52 1401
0.063934006 -1.2583542 0.29035598 468 23374340 78 8 36 1293
0.11333938 -1.2832054 0.28337079 508 23374340 88 9 7 1319
0.16285293 -1.298304 0.27469024 486 23374340 87 10 49 1337
0.21977636 -1.3490973 0.27362609 341 23374340 66 11 21 1394
0.06393379 -1.2544614 0.24099815 416 23374340 68 12 65 1279
0.11627163 -1.3221964 0.24099572 548 23374340 100 13 1 1349
0.16595578 -1.3251008 0.22932874 466 23374340 85 14 57 1355
0.21884832 -1.345472 0.22129557 472 23374340 90 15 36 1381
0.064771079 -1.2713267 0.19615711 372 23374340 62 16 1 1288
0.11674624 -1.3310542 0.19278227 372 23374340 68 17 42 1350
0.16652614 -1.3355145 0.18120161 471 23374340 87 18 71 1358
0.22393528 -1.3820736 0.17506148 433 23374340 86 19 72 1411
0.057542801 -1.129838 0.13219693 288 23374340 37 20 51 1139
0.098168842 -1.121272 0.12056597 287 23374340 37 21 75 1132
0.16304575 -1.31264 0.12897204 403 23374340 71 22 72 1329
0.22437362 -1.3895404 0.12410919 404 23374340 81 23 110 1413
0.057380274 -1.130921 0.090671189 245 23374340 32 24 62 1136
0.098625146 -1.1298883 0.079966374 315 23374340 41 25 54 1137
0.14588043 -1.1747816 0.072134979 280 23374340 39 26 90 1186
0.21936117 -1.36364 0.071103044 386 23374340 74 27 98 1383
0.058058713 -1.1554499 0.050289147 233 23374340 31 28 26 1158
0.099110566 -1.1400431 0.038781568 268 23374340 35 29 29 1145
0.14732046 -1.1955914 0.0297141 271 23374340 39 30 43 1205
0.29121831 -1.814575 0.027458733 359 23374340 121 31 63 1838
0.059555493 -1.1864774 0.0082937377 243 23374340 34 32 83 1188
0.11884383 -1.3728613 -0.0034873388 308 23374340 58 33 23 1378
0.16797671 -1.3646024 -0.016414434 260 23374340 49 34 74 1375
0.3225162 -2.0179193 -0.043840639 303 23374340 127 35 78 2044
0.070314579 -1.4146292 -0.042061791 300 23374340 60 36 71 1417
0.12048212 -1.4037617 -0.05511044 302 23374340 60 37 42 1410
0.24736251 -2.016479 -0.098899491 310 23374340 128 38 119 2034
0.32665086 -2.0435603 -0.12037773 315 23374340 135 39 57 2073
0.068789534 -1.4062213 -0.093438759 345 23374340 69 40 53 1411
0.11891539 -1.3929261 -0.10592538 290 23374340 57 41 55 1402
0.25273213 -2.0650232 -0.17762434 329 23374340 143 42 131 2088
0.33246705 -2.0871916 -0.20056662 351 23374340 158 43 57 2123
0.065963872 -1.3581727 -0.14037502 328 23374340 61 44 62 1367
0.17599851 -2.0713847 -0.23420896 315 23374340 138 45 57 2092
0.25742528 -2.1125426 -0.26006219 342 23374340 157 46 96 2144
0.33493891 -2.1060221 -0.28158069 332 23374340 154 47 90 2151
0.071194865 -1.4916664 -0.20958634 150 23374340 34 48 65 1508
0.17908302 -2.1186457 -0.31901491 327 23374340 151 49 54 2150
0.26057905 -2.147789 -0.34580693 359 23374340 172 50 41 2191
0.34362829 -2.1645555 -0.37195104 342 23374340 169 51 69 2223
0.098520495 -2.1035073 -0.37532997 310 23374340 142 52 97 2139
0.18110299 -2.1555419 -0.40650049 347 23374340 168 53 94 2201
0.26173666 -2.1630137 -0.43093821 360 23374340 178 54 76 2221
0.34540826 -2.1755228 -0.45857841 379 23374340 192 55 69 2250
0.10047206 -2.1711211 -0.47150385 345 23374340 171 56 109 2224
0.1826486 -2.1876674 -0.49774787 355 23374340 180 57 61 2251
0.2636418 -2.182271 -0.52083337 377 23374340 193 58 69 2259
0.34792283 -2.192596 -0.54940158 404 23374340 212 59 62 2287
0.10055743 -2.229419 -0.5727089 442 23374340 234 60 48 2304
0.18360135 -2.221524 -0.59445047 393 23374340 209 61 21 2307
0.26748586 -2.2176654 -0.61930263 372 23374340 200 62 66 2318
0.35585418 -2.2365263 -0.65327495 373 23374340 207 63 61 2357
0.052946359 -1.20447 0.37632102 476 23472530 76 0 14 1263
0.096195653 -1.1703005 0.35244748 499 23472530 75 1 15 1226
0.15422587 -1.2836576 0.37437138 332 23472530 60 2 24 1346
0.20676889 -1.3041614 0.36885041 115 23472530 22 3 25 1371
0.054162834 -1.2180907 0.32937899 393 23472530 63 4 14 1263
0.1111334 -1.3592948 0.35390431 206 23472530 41 5 1 1409
0.16037895 -1.3392125 0.33598897 269 23472530 52 6 52 1390
0.20837618 -1.3229572 0.32014546 255 23472530 48 7 44 1377
0.057776745 -1.2937684 0.29844013 447 23472530 79 8 1 1329
0.10642314 -1.2955573 0.28594887 471 23472530 83 9 1 1331
0.15488362 -1.2992787 0.27469024 502 23472530 90 10 39 1337
0.20239128 -1.2922962 0.26184878 453 23472530 81 11 20 1334
0.057290595 -1.2783766 0.2455204 443 23472530 75 12 37 1303
0.1100808 -1.3464202 0.24528325 453 23472530 85 13 6 1373
0.157822 -1.3260942 0.22932874 454 23472530 83 14 83 1355
0.20692879 -1.323384 0.21744974 495 23472530 91 15 39 1357
0.056969147 -1.2717001 0.19615711 378 23472530 63 16 1 1288
0.10857685 -1.3317455 0.19278227 350 23472530 64 17 25 1350
0.16252567 -1.3719416 0.18600519 457 23472530 89 18 81 1394
0.21545081 -1.3834217 0.17506148 420 23472530 84 19 69 1411
0.049542766 -1.1063558 0.12941138 276 23472530 34 20 59 1115
0.096125528 -1.1813154 0.12695639 286 23472530 41 21 50 1192
0.14939068 -1.2661712 0.1243139 285 23472530 47 22 68 1281
0.21034415 -1.3554543 0.12094717 447 23472530 85 23 111 1377
0.049374364 -1.1073521 0.088755608 249 23472530 31 24 64 1112
0.093625836 -1.1543343 0.08165431 305 23472530 41 25 53 1161
0.13165404 -1.1161779 0.068485655 305 23472530 39 26 107 1126
0.21098991 -1.3649603 0.071103044 418 23472530 80 27 88 1383
0.048855249 -1.1078762 0.048204619 246 23472530 30 28 38 1110
0.091148138 -1.1286755 0.038375121 260 23472530 33 29 22 1133
0.13440566 -1.1488125 0.028530467 284 23472530 38 30 35 1157
0.23802127 -1.543582 0.023335442 298 23472530 73 31 65 1562
0.052802306 -1.1988086 0.0083775129 222 23472530 32 32 52 1200
0.11234097 -1.3974874 -0.0035480761 294 23472530 58 33 32 1402
0.16377912 -1.4013613 -0.016844191 291 23472530 58 34 68 1411
0.31559053 -2.0554349 -0.044612784 317 23472530 137 35 58 2080
0.061111312 -1.4030507 -0.041705586 319 23472530 63 36 85 1405
0.11186653 -1.4044746 -0.05511044 317 23472530 63 37 19 1410
0.22112153 -1.898905 -0.093064703 291 23472530 107 38 116 1914
0.31228739 -2.033685 -0.11968089 303 23472530 129 39 56 2061
0.058624923 -1.3707289 -0.091054782 377 23472530 71 40 42 1375
0.11036632 -1.3936296 -0.10592538 334 23472530 66 41 54 1402
0.24281588 -2.0902882 -0.179666 311 23472530 139 42 134 2112
0.31784719 -2.0773833 -0.19943292 323 23472530 144 43 59 2111
0.058640812 -1.3824034 -0.14283952 339 23472530 66 44 55 1391
0.13893309 -1.763345 -0.19927913 210 23472530 67 45 59 1780
0.24172164 -2.0904174 -0.25715104 343 23472530 154 46 92 2120
0.32739961 -2.1433187 -0.28629333 319 23472530 153 47 124 2187
0.063028216 -1.5158218 -0.21292193 119 23472530 28 48 56 1532
0.16793379 -2.1433663 -0.32257599 303 23472530 143 49 59 2174
0.24604058 -2.1375756 -0.34391293 348 23472530 165 50 83 2179
0.32677394 -2.1432321 -0.36793539 383 23472530 185 51 67 2199
0.070722751 -1.7381465 -0.3100552 126 23472530 39 52 76 1767
0.16970395 -2.1801286 -0.41093302 352 23472530 174 53 81 2225
0.25114456 -2.1879692 -0.43559489 344 23472530 173 54 97 2245
0.33382398 -2.1892152 -0.46102417 370 23472530 190 55 65 2262
0.087618634 -2.1834142 -0.4740479 370 23472530 185 56 112 2236
0.17012398 -2.2004149 -0.50040132 368 23472530 189 57 62 2263
0.25556403 -2.2302508 -0.53190023 372 23472530 198 58 66 2307
0.33446276 -2.1946895 -0.54940158 399 23472530 209 59 77 2287
0.086876079 -2.2299941 -0.5727089 393 23472530 208 60 39 2304
0.16908278 -2.2110476 -0.59135836 389 23472530 205 61 48 2295
0.2538735 -2.219265 -0.61930263 365 23472530 196 62 42 2318
0.34038258 -2.2272699 -0.64994895 375 23472530 206 63 48 2345
0.044689223 -1.1818788 0.36917004 457 23571540 70 0 26 1239
0.094240531 -1.2396311 0.37314588 391 23571540 66 1 21 1298
0.14895605 -1.3074845 0.38104665 274 23571540 51 2 38 1370
0.19354366 -1.2711281 0.35916507 142 23571540 25 3 24 1335
0.049792875 -1.2994339 0.35128546 196 23571540 35 4 42 1347
0.10279083 -1.359951 0.35390431 281 23571540 56 5 1 1409
0.14953147 -1.3170317 0.33018771 356 23571540 67 6 73 1366
0.19501933 -1.2895908 0.31177565 404 23571540 73 7 43 1341
0.049387246 -1.2824136 0.2957454 442 23571540 77 8 16 1317
0.099359542 -1.3078719 0.28852692 477 23571540 86 9 1 1343
0.14822704 -1.3118745 0.2771557 525 23571540 96 10 28 1349
0.19620733 -1.3051494 0.26420423 472 23571540 85 11 25 1346
0.049445543 -1.278704 0.2455204 474 23571540 80 12 49 1303
0.099147603 -1.3117502 0.23885193 386 23571540 69 13 19 1337
0.14968227 -1.3270376 0.22932874 526 23571540 97 14 94 1355
0.2005628 -1.3363426 0.21937266 495 23571540 93 15 35 1369
0.048707005 -1.2601745 0.19432956 360 23571540 59 16 3 1276
0.098618418 -1.3086998 0.18935505 374 23571540 66 17 26 1326
0.14747164 -1.3138206 0.17799923 450 23571540 80 18 65 1334
0.20519815 -1.3729411 0.17357266 428 23571540 84 19 92 1399
0.044133741 -1.142369 0.13358968 253 23571540 34 20 69 1151
0.083506994 -1.110494 0.11928788 289 23571540 36 21 63 1120
0.12835239 -1.1483696 0.11266857 286 23571540 39 22 61 1161
0.20202328 -1.3567195 0.12094717 411 23571540 78 23 102 1377
0.044416782 -1.1554458 0.092586778 252 23571540 34 24 61 1160
0.084752254 -1.1310135 0.079966374 304 23571540 39 25 58 1137
0.12879297 -1.1526759 0.070675246 328 23571540 44 26 127 1162
0.19206265 -1.2951025 0.067401372 339 23571540 58 27 82 1311
0.043420527 -1.1440952 0.049768012 254 23571540 33 28 42 1146
0.085113019 -1.1411735 0.038781568 277 23571540 36 29 26 1145
0.12603328 -1.1376922 0.02823456 290 23571540 38 30 32 1145
0.20747606 -1.4025794 0.021184159 411 23571540 83 31 65 1418
0.043627739 -1.1511456 0.0080424128 207 23571540 28 32 81 1152
0.099323347 -1.3383151 -0.0033962326 304 23571540 55 33 35 1342
0.1512183 -1.3665609 -0.016414434 294 23571540 56 34 87 1375
0.29073724 -1.9742481 -0.042811111 316 23571540 126 35 86 1996
0.052501202 -1.4033992 -0.041705586 339 23571540 67 36 60 1405
0.10324673 -1.4051346 -0.05511044 293 23571540 58 37 19 1410
0.16350161 -1.4832486 -0.072642982 226 23571540 50 38 126 1494
0.30329418 -2.0592666 -0.12107455 287 23571540 125 39 62 2085
0.050651409 -1.3830283 -0.091849439 344 23571540 66 40 36 1387
0.10094166 -1.3823466 -0.10501875 313 23571540 61 41 65 1390
0.22606537 -2.0560842 -0.17660353 324 23571540 140 42 134 2076
0.30682895 -2.0911143 -0.20056662 336 23571540 152 43 67 2123
0.049724739 -1.3708085 -0.14160727 352 23571540 67 44 58 1379
0.10738277 -1.4787265 -0.16703622 273 23571540 61 45 41 1492
0.23148175 -2.1155424 -0.26006219 371 23571540 171 46 91 2144
0.30562112 -2.0864315 -0.27843893 320 23571540 145 47 115 2127
0.054146953 -1.5280561 -0.21458973 124 23571540 29 48 39 1544
0.15392485 -2.1325202 -0.32079548 327 23571540 153 49 54 2162
0.2316373 -2.127265 -0.34201896 346 23571540 162 50 48 2167
0.3153286 -2.1569033 -0.36994323 358 23571540 175 51 59 2211
0.055162121 -1.5968664 -0.28478754 137 23571540 36 52 65 1623
0.15463755 -2.1576021 -0.40650049 362 23571540 175 53 93 2201
0.23644406 -2.1777656 -0.43326652 352 23571540 176 54 91 2233
0.31698561 -2.1679733 -0.45613268 372 23571540 187 55 69 2238
0.074219808 -2.1839108 -0.4740479 390 23571540 195 56 101 2236
0.15578879 -2.189744 -0.49774787 349 23571540 177 57 79 2251
0.23810028 -2.1969509 -0.5236001 362 23571540 186 58 56 2271
0.31762159 -2.1736479 -0.54363608 412 23571540 211 59 72 2263
0.073191456 -2.2304852 -0.5727089 411 23571540 218 60 46 2304
0.15551287 -2.2120435 -0.59135836 397 23571540 209 61 26 2295
0.24149533 -2.2322776 -0.6225087 361 23571540 196 62 60 2330
0.32336619 -2.2065005 -0.64329708 375 23571540 202 63 55 2321
0.03779909 -1.1935799 0.37274554 373 23668960 58 0 10 1251
0.09063711 -1.2975135 0.39039451 226 23668960 42 1 34 1358
0.14586838 -1.3542148 0.3943972 155 23668960 31 2 33 1418
0.20076671 -1.3752186 0.38822111 212 23668960 44 3 20 1443
0.041818764 -1.299715 0.35128546 158 23668960 29 4 40 1347
0.09042263 -1.3026191 0.33883387 387 23668960 70 5 1 1349
0.13647716 -1.2716138 0.31858522 416 23668960 72 6 70 1318
0.17873138 -1.2330109 0.29782593 422 23668960 69 7 53 1281
0.041139282 -1.2710052 0.29305068 431 23668960 73 8 8 1305
0.090516642 -1.2967657 0.28594887 460 23668960 82 9 1 1331
0.1389278 -1.3010817 0.27469024 536 23668960 96 10 28 1337
0.1898732 -1.317975 0.26655969 465 23668960 86 11 10 1358
0.041981734 -1.2907622 0.24778152 486 23668960 84 12 41 1315
0.091914617 -1.3241125 0.24099572 466 23668960 85 13 2 1349
0.14153691 -1.3279309 0.22932874 488 23668960 90 14 74 1355
0.19067326 -1.3258238 0.21744974 475 23668960 87 15 40 1357
0.040203139 -1.2367421 0.19067447 373 23668960 58 16 17 1252
0.091406316 -1.321129 0.19106865 376 23668960 67 17 50 1338
0.13940741 -1.3147007 0.17799923 535 23668960 95 18 74 1334
0.19508228 -1.3623873 0.17208384 435 23668960 84 19 76 1387
0.037123464 -1.1426183 0.13358968 272 23668960 36 20 47 1151
0.07833495 -1.1347924 0.12184405 317 23668960 42 21 68 1144
0.12130371 -1.1491355 0.11266857 332 23668960 45 22 60 1161
0.19707073 -1.3816011 0.12305517 427 23668960 84 23 122 1401
0.036553994 -1.1317856 0.090671189 247 23668960 32 24 34 1136
0.079453327 -1.1553963 0.08165431 350 23668960 47 25 54 1161
0.12171786 -1.1534444 0.070675246 313 23668960 42 26 112 1162
0.17568623 -1.2369312 0.064316638 269 23668960 42 27 81 1251
0.035637379 -1.1203749 0.048725754 268 23668960 34 28 50 1122
0.078927919 -1.1536394 0.039188009 286 23668960 38 29 13 1157
0.12154552 -1.1623067 0.028826375 282 23668960 39 30 35 1169
0.19213438 -1.356306 0.020467065 474 23668960 89 31 44 1370
0.038087104 -1.1993662 0.0083775129 210 23668960 30 32 55 1200
0.093553811 -1.3748162 -0.0034873388 370 23668960 70 33 31 1378
0.14283039 -1.3674631 -0.016414434 331 23668960 63 34 85 1375
0.26521754 -1.880957 -0.040752061 314 23668960 113 35 71 1900
0.042764556 -1.3677285 -0.040636975 294 23668960 55 36 86 1369
0.093817748 -1.393778 -0.054641418 321 23668960 63 37 26 1398
0.14447637 -1.3888521 -0.067975163 300 23668960 59 38 128 1398
0.28898028 -2.0492265 -0.12037773 317 23668960 136 39 61 2073
0.042164352 -1.3833131 -0.091849439 339 23668960 65 40 51 1387
0.09405423 -1.406818 -0.10683202 308 23668960 61 41 54 1414
0.21097761 -2.0336471 -0.17456186 341 23668960 143 42 147 2052
0.28900707 -2.057467 -0.19716558 361 23668960 157 43 65 2087
0.04131268 -1.3710878 -0.14160727 367 23668960 70 44 58 1379
0.094354063 -1.419866 -0.16031894 262 23668960 54 45 58 1432
0.21727374 -2.1050746 -0.25860664 337 23668960 153 46 116 2132
0.29776919 -2.1236122 -0.28315157 333 23668960 156 47 109 2163
0.043030195 -1.4689674 -0.20625076 132 23668960 29 48 63 1484
0.14005534 -2.121583 -0.31901491 311 23668960 144 49 72 2150
0.22221152 -2.1640091 -0.34770086 375 23668960 182 50 67 2203
0.3004486 -2.1470807 -0.36793539 375 23668960 181 51 83 2199
0.043015089 -1.5145115 -0.27004805 143 23668960 34 52 77 1539
0.14139584 -2.1585102 -0.40650049 368 23668960 178 53 75 2201
0.22067949 -2.1557541 -0.42860985 364 23668960 178 54 76 2209
0.3036772 -2.1698773 -0.45613268 365 23668960 183 55 62 2238
0.060818188 -2.184325 -0.4740479 398 23668960 199 56 116 2236
0.14234985 -2.1906586 -0.49774787 393 23668960 199 57 75 2251
0.2269893 -2.2216027 -0.5291335 362 23668960 191 58 71 2295
0.30589187 -2.1870923 -0.5465188 380 23668960 197 59 63 2275
0.059504081 -2.2308922 -0.5727089 381 23668960 202 60 39 2304
0.14267926 -2.2245271 -0.59445047 396 23668960 211 61 52 2307
0.22779378 -2.2337174 -0.6225087 352 23668960 191 62 51 2330
0.31302494 -2.2312791 -0.64994895 377 23668960 207 63 51 2345
0.032228652 -1.2624967 0.39419851 193 23766910 34 0 44 1323
0.08194346 -1.286575 0.3869448 272 23766910 49 1 39 1346
0.13406406 -1.3206816 0.38438427 220 23766910 42 2 35 1382
0.17952977 -1.2848538 0.36239353 352 23766910 64 3 35 1347
0.034144569 -1.3115278 0.35441494 172 23766910 32 4 41 1359
0.079495259 -1.2567809 0.32677752 533 23766910 90 5 1 1301
0.12984364 -1.2840123 0.32148585 389 23766910 69 6 76 1330
0.17276581 -1.2456449 0.30061591 351 23766910 59 7 36 1293
0.034259487 -1.3063022 0.30113485 470 23766910 85 8 1 1341
0.082558133 -1.2972966 0.28594887 440 23766910 78 9 1 1331
0.13329239 -1.3252797 0.27962112 518 23766910 96 10 33 1361
0.17857005 -1.2958026 0.26184878 489 23766910 87 11 22 1334
0.033750154 -1.2792146 0.2455204 494 23766910 84 12 35 1303
0.083788291 -1.3246516 0.24099572 521 23766910 95 13 3 1349
0.13811134 -1.3758456 0.23745257 389 23766910 77 14 72 1403
0.18253456 -1.3269688 0.21744974 439 23766910 81 15 48 1357
0.032926466 -1.2488214 0.19250201 355 23766910 57 16 12 1264
0.085539512 -1.3572255 0.19620952 393 23766910 74 17 27 1374
0.13015647 -1.3036975 0.17639802 466 23766910 81 18 74 1322
0.1915655 -1.3989503 0.17655033 446 23766910 90 19 78 1423
0.02948392 -1.1189952 0.13080417 288 23766910 37 20 61 1127
0.070621885 -1.1233435 0.12056597 325 23766910 42 21 48 1132
0.11661224 -1.1736279 0.11499764 315 23766910 44 22 52 1185
0.18212837 -1.3354084 0.11883915 364 23766910 67 23 100 1353
0.029296033 -1.120031 0.089713395 263 23766910 33 24 48 1124
0.071614526 -1.1439153 0.080810346 297 23766910 39 25 48 1149
0.11463816 -1.1541696 0.070675246 326 23766910 44 26 105 1162
0.15841882 -1.1667349 0.060614958 252 23766910 35 27 95 1179
0.029377447 -1.1445419 0.049768012 254 23766910 33 28 41 1146
0.073338196 -1.1780419 0.040000901 277 23766910 39 29 8 1181
0.11206255 -1.1391532 0.02823456 301 23766910 39 30 42 1145
0.18219861 -1.3455691 0.020287791 357 23766910 66 31 59 1358
0.029190855 -1.1395985 0.0079586376 204 23766910 26 32 48 1140
0.083633907 -1.3514103 -0.0034266014 317 23766910 58 33 46 1354
0.14030345 -1.4280219 -0.017130699 307 23766910 63 34 76 1435
0.2104136 -1.5615249 -0.033802763 264 23766910 66 35 68 1576
0.034070246 -1.3559742 -0.040280771 231 23766910 43 36 87 1357
0.083800159 -1.3703903 -0.053703364 322 23766910 61 37 24 1374
0.13828574 -1.4135702 -0.069142118 304 23766910 61 38 127 1422
0.27800098 -2.0628333 -0.12107455 321 23766910 140 39 64 2085
0.033675712 -1.3835458 -0.091849439 360 23766910 69 40 37 1387
0.084695466 -1.395425 -0.10592538 322 23766910 63 41 51 1402
0.18920909 -1.9397033 -0.16639522 324 23766910 124 42 158 1956
0.28114465 -2.094722 -0.20056662 334 23766910 151 43 71 2123
0.032899063 -1.3713155 -0.14160727 334 23766910 64 44 61 1379
0.083487183 -1.3847094 -0.15628858 323 23766910 63 45 42 1396
0.20665357 -2.1300797 -0.26151776 360 23766910 167 46 115 2156
0.28473336 -2.1253991 -0.28315157 331 23766910 155 47 113 2163
0.036491524 -1.5761271 -0.22126092 155 23766910 39 48 54 1592
0.12278073 -2.0513265 -0.30833161 177 23766910 76 49 54 2078
0.20892924 -2.1653318 -0.34770086 340 23766910 165 50 43 2203
0.28883633 -2.1606104 -0.36994323 364 23766910 178 51 74 2211
0.035036091 -1.5738014 -0.28057626 139 23766910 36 52 73 1599
0.12814881 -2.1593373 -0.40650049 364 23766910 176 53 103 2201
0.20970172 -2.1805034 -0.43326652 320 23766910 160 54 73 2233
0.29035738 -2.1716998 -0.45613268 384 23766910 192 55 52 2238
0.047414277 -2.1846571 -0.4740479 384 23766910 192 56 99 2236
0.12890553 -2.1914909 -0.49774787 353 23766910 179 57 62 2251
0.21446911 -2.2345772 -0.53190023 384 23766910 205 58 64 2307
0.29246637 -2.1889281 -0.5465188 396 23766910 205 59 78 2275
0.046053082 -2.2428365 -0.57569176 412 23766910 221 60 53 2316
0.12835598 -2.2137854 -0.59135836 397 23766910 209 61 39 2295
0.21408366 -2.2350731 -0.6225087 390 23766910 212 62 65 2330
0.29932815 -2.2331579 -0.64994895 378 23766910 208 63 50 2345
0.024703564 -1.2741235 0.39777401 178 23863880 32 0 24 1335
0.073387489 -1.2755791 0.38349506 388 23863880 69 1 34 1334
0.12267689 -1.2870559 0.37437138 373 23863880 68 2 42 1346
0.16705534 -1.2515633 0.35270819 466 23863880 80 3 6 1311
0.027018275 -1.3580425 0.3669329 222 23863880 44 4 26 1407
0.07310649 -1.2804378 0.33280569 498 23863880 87 5 1 1325
0.12196264 -1.2847848 0.32148585 327 23863880 58 6 57 1330
0.18044373 -1.3623829 0.32851529 242 23863880 48 7 30 1413
0.025773838 -1.2831054 0.2957454 441 23863880 76 8 23 1317
0.074596517 -1.2977788 0.28594887 447 23863880 79 9 3 1331
0.12515813 -1.3260727 0.27962112 541 23863880 100 10 41 1361
0.17061579 -1.2968738 0.26184878 489 23863880 87 11 11 1334
0.025423346 -1.2558323 0.24099815 421 23863880 69 12 44 1279
0.075658798 -1.3251407 0.24099572 512 23863880 93 13 9 1349
0.12744859 -1.3531175 0.23339066 385 23863880 73 14 77 1379
0.17593113 -1.3398079 0.21937266 543 23863880 102 15 25 1369
0.025982745 -1.2845727 0.19798467 364 23863880 62 16 3 1300
0.075187154 -1.3221512 0.19106865 377 23863880 67 17 38 1338
0.12658995 -1.3518353 0.18280281 305 23863880 57 18 49 1370
0.17680597 -1.3528719 0.17059501 476 23863880 90 19 71 1375
0.022858161 -1.1310714 0.13219693 279 23863880 36 20 49 1139
0.063727848 -1.1237557 0.12056597 322 23863880 41 21 71 1132
0.10719292 -1.1505375 0.11266857 357 23863880 48 22 68 1161
0.1600474 -1.2298177 0.1093531 324 23863880 50 23 124 1245
0.021944314 -1.0962709 0.087797806 270 23863880 33 24 47 1100
0.065268859 -1.1562843 0.08165431 306 23863880 41 25 59 1161
0.10755415 -1.1548512 0.070675246 318 23863880 43 26 133 1162
0.15125689 -1.167685 0.060614958 276 23863880 38 27 67 1179
0.021885971 -1.1207279 0.048725754 229 23863880 29 28 21 1122
0.064765044 -1.1545211 0.039188009 256 23863880 34 29 30 1157
0.10507073 -1.1398194 0.02823456 307 23863880 40 30 34 1145
0.16471682 -1.2752628 0.019212149 281 23863880 47 31 67 1286
0.023132507 -1.1877459 0.0082937377 208 23863880 29 32 53 1188
0.073337093 -1.315954 -0.0033354955 252 23863880 44 33 32 1318
0.12603876 -1.3691128 -0.016414434 310 23863880 59 34 82 1375
0.18094936 -1.4080944 -0.030456804 348 23863880 70 35 57 1420
0.023927871 -1.2602172 -0.037431132 182 23863880 29 36 104 1261
0.076048449 -1.3828515 -0.054172389 343 23863880 66 37 33 1386
0.12742214 -1.3905206 -0.067975163 318 23863880 62 38 130 1398
0.26228419 -2.0407364 -0.11968089 307 23863880 130 39 54 2061
0.024967898 -1.3717546 -0.091054782 357 23863880 67 40 57 1375
0.076131701 -1.3959184 -0.10592538 309 23863880 61 41 58 1402
0.13705687 -1.5002718 -0.12862453 234 23863880 53 42 150 1512
0.26373702 -2.0608585 -0.19716558 355 23863880 155 43 69 2087
0.024697272 -1.3834262 -0.14283952 306 23863880 59 44 46 1391
0.075633809 -1.3971027 -0.15763204 337 23863880 67 45 29 1408
0.19142488 -2.1075826 -0.25860664 349 23863880 159 46 113 2132
0.27168679 -2.1271062 -0.28315157 361 23863880 169 47 108 2163
0.026415585 -1.5525576 -0.21792533 151 23863880 37 48 49 1568
0.082829379 -1.5424873 -0.23176803 116 23863880 28 49 47 1562
0.19350775 -2.1429698 -0.34391293 357 23863880 170 50 62 2179
0.27557364 -2.1623421 -0.36994323 376 23863880 184 51 67 2211
0.025378767 -1.5739868 -0.28057626 142 23863880 36 52 57 1599
0.11552337 -2.1718597 -0.40871674 360 23863880 176 53 95 2213
0.19631846 -2.1817489 -0.43326652 329 23863880 164 54 108 2233
0.27702662 -2.1734405 -0.45613268 373 23863880 187 55 58 2238
0.033826068 -2.1731813 -0.47150385 396 23863880 196 56 110 2224
0.11607186 -2.203927 -0.50040132 371 23863880 190 57 72 2263
0.19657701 -2.1893313 -0.52083337 352 23863880 179 58 57 2259
0.28197345 -2.2137918 -0.5522843 435 23863880 230 59 74 2299
0.032123122 -2.2314546 -0.5727089 416 23863880 221 60 38 2304
0.11597024 -2.2376897 -0.59754246 393 23863880 211 61 49 2319
0.20139739 -2.2478621 -0.62571472 393 23863880 215 62 46 2342
0.28708172 -2.2463894 -0.65327495 380 23863880 211 63 44 2357
0.017037002 -1.2857051 0.40134951 196 23961510 35 0 38 1347
0.061431121 -1.1956571 0.35934693 512 23961510 80 1 35 1250
0.11170752 -1.2533413 0.36435845 402 23961510 69 2 36 1310
0.15937275 -1.2525648 0.35270819 421 23961510 72 3 23 1311
0.017569454 -1.2770972 0.34502646 313 23961510 55 4 38 1323
0.064066634 -1.2576618 0.32677752 481 23961510 81 5 1 1301
0.12436972 -1.4014947 0.35049209 157 23961510 33 6 72 1450
0.16915809 -1.3403057 0.3229354 277 23961510 53 7 51 1389
0.017574163 -1.2598547 0.29035598 433 23961510 72 8 7 1293
0.066031352 -1.2865076 0.28337079 476 23961510 83 9 11 1319
0.11598738 -1.3151171 0.2771557 507 23961510 92 10 39 1349
0.16558143 -1.3212467 0.26655969 448 23961510 83 11 15 1358
0.018714599 -1.3266679 0.25456488 341 23961510 62 12 55 1351
0.065724425 -1.290205 0.23456439 518 23961510 89 13 27 1313
0.11603327 -1.31853 0.22729778 453 23961510 82 14 77 1343
0.16476682 -1.3173554 0.21552682 465 23961510 84 15 50 1345
0.017766107 -1.2609903 0.19432956 395 23961510 64 16 4 1276
0.065870062 -1.2988641 0.18764141 380 23961510 66 17 38 1314
0.1141483 -1.3051965 0.17639802 384 23961510 67 18 76 1322
0.16997212 -1.3657473 0.17208384 427 23961510 82 19 76 1387
0.015917609 -1.1311904 0.13219693 293 23961510 38 20 62 1139
0.057433862 -1.136042 0.12184405 291 23961510 38 21 67 1144
0.099096388 -1.1392752 0.11150404 332 23961510 44 22 65 1149
0.1466189 -1.1833251 0.10513707 286 23961510 41 23 90 1197
0.016047345 -1.1561879 0.092586778 264 23961510 35 24 41 1160
0.058774073 -1.1686183 0.08249829 320 23961510 44 25 61 1173
0.098391064 -1.1316239 0.069215514 317 23961510 41 26 110 1138
0.13968958 -1.1329089 0.058764119 277 23961510 36 27 81 1143
0.015329946 -1.1448163 0.049768012 264 23961510 35 28 50 1146
0.057679817 -1.1548967 0.039188009 285 23961510 38 29 38 1157
0.10115853 -1.1762993 0.029122286 283 23961510 39 30 31 1181
0.14956902 -1.2167045 0.018315783 287 23961510 43 31 56 1226
0.01520403 -1.1398709 0.0079586376 218 23961510 28 32 73 1140
0.0605077 -1.2204971 -0.0030925456 223 23961510 33 33 50 1222
0.11763566 -1.3698605 -0.016414434 287 23961510 54 34 81 1375
0.17084995 -1.3972697 -0.030199422 326 23961510 65 35 51 1408
0.015732529 -1.2243592 -0.036362521 167 23961510 25 36 105 1225
0.068146959 -1.3952687 -0.054641418 358 23961510 70 37 18 1398
0.12092865 -1.4151607 -0.069142118 341 23961510 69 38 126 1422
0.25121173 -2.0541985 -0.12037773 325 23961510 140 39 77 2073
0.0165505 -1.3718821 -0.091054782 354 23961510 67 40 56 1375
0.068143375 -1.4083109 -0.10683202 332 23961510 66 41 56 1414
0.11973141 -1.4057775 -0.12045789 338 23961510 68 42 150 1416
0.25397429 -2.0861554 -0.19943292 355 23961510 158 43 66 2111
0.016068436 -1.371616 -0.14160727 296 23961510 56 44 61 1379
0.068774521 -1.4332731 -0.1616624 310 23961510 65 45 20 1444
0.18049864 -2.1324551 -0.26151776 373 23961510 174 46 103 2156
0.25576031 -2.1051135 -0.28000981 353 23961510 161 47 120 2139
0.016630271 -1.5289247 -0.21458973 200 23961510 48 48 46 1544
0.072236076 -1.519259 -0.22820695 99 23961510 23 49 47 1538
0.17936185 -2.132309 -0.34201896 349 23961510 164 50 62 2167
0.25945333 -2.1405022 -0.36592755 368 23961510 176 51 71 2187
0.015720489 -1.5741128 -0.28057626 134 23961510 34 52 61 1599
0.10164077 -2.1607473 -0.40650049 341 23961510 165 53 85 2201
0.18194477 -2.1711817 -0.43093821 342 23961510 169 54 71 2221
0.26368541 -2.1750994 -0.45613268 384 23961510 192 55 49 2238
0.020822728 -2.2085278 -0.47913608 406 23961510 207 56 108 2260
0.10254664 -2.2045979 -0.50040132 381 23961510 195 57 42 2263
0.18313983 -2.1904962 -0.52083337 379 23961510 194 58 72 2259
0.26698372 -2.2039163 -0.54940158 412 23961510 216 59 64 2287
0.018526562 -2.2432327 -0.57569176 410 23961510 220 60 39 2316
0.10117976 -2.2151937 -0.59135836 419 23961510 221 61 39 2295
0.18375605 -2.2029607 -0.61289054 382 23961510 201 62 43 2294
0.27607551 -2.2709999 -0.65992683 382 23961510 216 63 47 2381
0.0089847548 -1.262876 0.39419851 242 24059700 42 0 38 1323
0.056170747 -1.2419385 0.37314588 517 24059700 87 1 5 1298
0.10496787 -1.2654902 0.36769611 349 24059700 61 2 33 1322
0.14751892 -1.2190975 0.34302282 385 24059700 63 3 33 1275
0.0092915958 -1.2192589 0.32937899 494 24059700 79 4 43 1263
0.055828817 -1.2464275 0.32376343 430 24059700 71 5 1 1289
0.11193565 -1.3558128 0.3388896 168 24059700 33 6 66 1402
0.15675995 -1.3065542 0.31456557 377 24059700 69 7 37 1353
0.0099348649 -1.271632 0.29305068 467 24059700 79 8 22 1305
0.058136243 -1.2868886 0.28337079 491 24059700 85 9 5 1319
0.10887575 -1.3275087 0.27962112 463 24059700 86 10 23 1361
0.1546883 -1.2988698 0.26184878 494 24059700 88 11 1 1334
0.010573965 -1.3267578 0.25456488 271 24059700 50 12 70 1351
0.057806637 -1.2905841 0.23456439 494 24059700 85 13 15 1313
0.1098697 -1.3427922 0.23135971 464 24059700 87 14 77 1367
0.16227216 -1.3653902 0.22321847 360 24059700 70 15 43 1393
0.010028481 -1.2610755 0.19432956 343 24059700 56 16 1 1276
0.05895666 -1.3229743 0.19106865 410 24059700 73 17 18 1338
0.10902789 -1.3414332 0.18120161 363 24059700 67 18 75 1358
0.16019084 -1.3549397 0.17059501 471 24059700 89 19 72 1375
0.0087873098 -1.1074296 0.12941138 263 24059700 33 20 56 1115
0.049403511 -1.112533 0.11928788 313 24059700 39 21 65 1120
0.089218296 -1.104148 0.10801044 332 24059700 41 22 56 1113
0.13376722 -1.1367157 0.10092105 303 24059700 40 23 118 1149
0.0086749624 -1.1203805 0.089713395 276 24059700 35 24 40 1124
0.050018754 -1.1330811 0.079966374 344 24059700 44 25 42 1137
0.091445692 -1.1322062 0.069215514 344 24059700 45 26 99 1138
0.13552266 -1.1575505 0.059998013 278 24059700 38 27 83 1167
0.0080443006 -1.1089237 0.048204619 279 24059700 34 28 42 1110
0.051641874 -1.1791922 0.040000901 292 24059700 41 29 12 1181
0.093938984 -1.1768979 0.029122286 284 24059700 40 30 36 1181
0.13792802 -1.181846 0.017777961 288 24059700 41 31 70 1190
0.008382461 -1.1639415 0.0081261871 193 24059700 26 32 52 1164
0.051455837 -1.1848795 -0.0030014399 278 24059700 39 33 57 1186
0.10922814 -1.3705565 -0.016414434 330 24059700 62 34 71 1375
0.15812421 -1.3625399 -0.029427277 295 24059700 55 35 43 1372
0.0078171091 -1.1644604 -0.034581501 186 24059700 25 36 94 1165
0.059584469 -1.3956605 -0.054641418 335 24059700 65 37 28 1398
0.10940151 -1.3800311 -0.067391686 336 24059700 64 38 136 1386
0.23031548 -1.984302 -0.11619673 302 24059700 121 39 70 2001
0.0079905279 -1.3480109 -0.089465462 350 24059700 64 40 60 1351
0.061015736 -1.4445676 -0.10955193 317 24059700 67 41 61 1450
0.11016192 -1.3945663 -0.11943706 325 24059700 64 42 133 1404
0.24254005 -2.0995421 -0.20056662 344 24059700 155 43 60 2123
0.0077186446 -1.383625 -0.14283952 352 24059700 68 44 53 1391
0.059978832 -1.4336681 -0.1616624 332 24059700 69 45 22 1444
0.16088824 -2.0503983 -0.25132874 317 24059700 136 46 100 2072
0.24556346 -2.13028 -0.28315157 334 24059700 156 47 102 2163
0.0068542957 -1.4458141 -0.20291516 301 24059700 64 48 31 1460
0.064876184 -1.5671016 -0.23532914 112 24059700 28 49 54 1586
0.16627486 -2.1333694 -0.34201896 376 24059700 176 50 56 2167
0.24766609 -2.1538074 -0.36793539 359 24059700 174 51 75 2199
0.0057431837 -1.4914836 -0.26583681 128 24059700 29 52 52 1515
0.084525891 -2.0670602 -0.38877031 210 24059700 93 53 84 2105
0.16861923 -2.1722572 -0.43093821 344 24059700 170 54 98 2221
0.25167656 -2.1883476 -0.45857841 367 24059700 186 55 59 2250
0.0072324579 -2.196887 -0.476592 384 24059700 194 56 106 2248
0.088545524 -2.1934924 -0.49774787 367 24059700 186 57 58 2251
0.1705972 -2.2032206 -0.5236001 347 24059700 179 58 70 2271
0.2521258 -2.1939406 -0.5465188 429 24059700 222 59 72 2275
0.0047373222 -2.2316806 -0.5727089 428 24059700 227 60 34 2304
0.086211793 -2.1810157 -0.58208215 378 24059700 193 61 31 2259
0.17290701 -2.2386351 -0.6225087 361 24059700 196 62 53 2330
0.2581723 -2.2382891 -0.64994895 394 24059700 216 63 34 2345
0.0012693491 -1.2972723 0.40492502 328 24157420 61 0 19 1359
0.047651622 -1.2192904 0.3662464 517 24157420 84 1 19 1274
0.10161254 -1.3235739 0.38438427 166 24157420 32 2 27 1382
0.14926179 -1.3003548 0.36562198 305 24157420 56 3 11 1359
0.0018445868 -1.2424624 0.33563799 488 24157420 81 4 1 1287
0.0490769 -1.2699599 0.32979161 405 24157420 70 5 1 1313
0.10095386 -1.3216431 0.33018771 190 24157420 36 6 88 1366
0.14478251 -1.2727023 0.30619577 472 24157420 82 7 46 1317
0.002171302 -1.295056 0.29844013 476 24157420 84 8 1 1329
0.050696015 -1.2989321 0.28594887 467 24157420 83 9 1 1331
0.10250451 -1.3515725 0.28455198 464 24157420 89 10 29 1385
0.14539589 -1.2881023 0.25949332 526 24157420 92 11 13 1322
0.0024113236 -1.3150127 0.25230378 265 24157420 48 12 63 1339
0.050342605 -1.3027126 0.23670816 416 24157420 73 13 21 1325
0.10073628 -1.3316478 0.22932874 464 24157420 85 14 85 1355
0.15123984 -1.3428192 0.21937266 412 24157420 77 15 30 1369
0.0021827759 -1.2018133 0.18519181 310 24157420 46 16 21 1216
0.051293876 -1.3351793 0.19278227 406 24157420 74 17 13 1350
0.099904291 -1.3302177 0.17960042 402 24157420 73 18 54 1346
0.14789772 -1.3203973 0.16612852 537 24157420 96 19 68 1339
0.0020349629 -1.1313006 0.13219693 267 24157420 35 20 55 1139
0.042576205 -1.1128153 0.11928788 338 24157420 42 21 57 1120
0.085108273 -1.1404054 0.11150404 354 24157420 47 22 69 1149
0.12546577 -1.125635 0.099867053 304 24157420 39 23 85 1137
0.0018194935 -1.1323743 0.090671189 273 24157420 35 24 55 1136
0.043065358 -1.1333666 0.079966374 313 24157420 41 25 66 1137
0.086278901 -1.1566353 0.070675246 324 24157420 44 26 98 1162
0.1310585 -1.1821826 0.061231907 277 24157420 39 27 74 1191
0.0012533263 -1.1209409 0.048725754 274 24157420 34 28 37 1122
0.043503113 -1.1555176 0.039188009 279 24157420 37 29 25 1157
0.090240344 -1.2253079 0.030305916 286 24157420 43 30 32 1229
0.12540288 -1.1349658 0.017060867 306 24157420 40 31 72 1142
0.0012277043 -1.1519713 0.0080424128 235 24157420 31 32 77 1152
0.04373752 -1.1731813 -0.0029710708 247 24157420 34 33 35 1174
0.10081651 -1.3712009 -0.016414434 322 24157420 61 34 72 1375
0.14714111 -1.3396335 -0.028912514 309 24157420 56 35 49 1348
0.00067888794 -1.1764812 -0.034937706 200 24157420 28 36 109 1177
0.051895607 -1.4199655 -0.055579465 339 24157420 69 37 14 1422
0.10093174 -1.3806764 -0.067391686 370 24157420 71 38 117 1386
0.19589695 -1.7832398 -0.10435058 232 24157420 75 39 59 1797
-0.0002858506 -1.3719819 -0.091054782 344 24157420 65 40 51 1375
0.050856106 -1.409041 -0.10683202 322 24157420 64 41 67 1414
0.10333975 -1.419066 -0.12147872 339 24157420 69 42 162 1428
0.22575867 -2.0653639 -0.19716558 360 24157420 157 43 63 2087
-0.00079122552 -1.4194561 -0.14653631 320 24157420 65 44 58 1427
0.050755553 -1.4220921 -0.16031894 330 24157420 68 45 15 1432
0.11394803 -1.5761315 -0.19310589 181 24157420 46 46 125 1592
0.23119786 -2.11992 -0.28158069 341 24157420 158 47 117 2151
-0.0020503416 -1.4695961 -0.20625076 367 24157420 81 48 39 1484
0.054841306 -1.5556104 -0.2335486 99 24157420 24 49 30 1574
0.15487815 -2.1579881 -0.34580693 350 24157420 168 50 53 2191
0.2357253 -2.1670482 -0.36994323 367 24157420 180 51 59 2211
-0.0034624913 -1.5151182 -0.27004805 145 24157420 34 52 52 1539
0.054640159 -1.5725091 -0.29568708 108 24157420 28 53 57 1601
0.15696536 -2.1967349 -0.43559489 373 24157420 188 54 78 2245
0.23697375 -2.1781714 -0.45613268 383 24157420 192 55 70 2238
-0.0062141735 -2.1851628 -0.4740479 413 24157420 207 56 99 2236
0.07548511 -2.2056904 -0.50040132 354 24157420 181 57 71 2263
0.15707527 -2.204226 -0.5236001 375 24157420 194 58 63 2271
0.23991816 -2.2070267 -0.54940158 410 24157420 215 59 92 2287
-0.0089561027 -2.2316678 -0.5727089 431 24157420 229 60 42 2304
0.073988311 -2.2162685 -0.59135836 386 24157420 203 61 41 2295
0.15752824 -2.2165842 -0.61609656 395 24157420 210 62 47 2306
0.24318275 -2.2283695 -0.64662302 375 24157420 204 63 52 2333
-0.0060998076 -1.1827077 0.36917004 416 24257470 64 0 24 1239
0.03979094 -1.2080727 0.36279666 441 24257470 70 1 25 1262
0.094301105 -1.3356704 0.3877219 147 24257470 28 2 38 1394
0.13753763 -1.2667761 0.35593662 379 24257470 66 3 32 1323
-0.005779054 -1.2424504 0.33563799 522 24257470 86 4 1 1287
0.04543402 -1.397938 0.36294657 298 24257470 62 5 1 1445
0.093658112 -1.3338532 0.33308834 264 24257470 50 6 60 1378
0.13572261 -1.2619625 0.30340582 476 24257470 81 7 45 1305
-0.0057229078 -1.2833514 0.2957454 466 24257470 81 8 34 1317
0.042724963 -1.2992187 0.28594887 472 24257470 84 9 2 1331
0.092576981 -1.3287448 0.27962112 509 24257470 94 10 29 1361
0.1374895 -1.2889701 0.25949332 483 24257470 84 11 24 1322
-0.0054039778 -1.2560779 0.24099815 310 24257470 51 12 47 1279
0.04464956 -1.3738014 0.2495708 304 24257470 59 13 8 1397
0.09174379 -1.3204423 0.22729778 507 24257470 91 14 80 1343
0.14299761 -1.3437219 0.21937266 458 24257470 86 15 27 1369
-0.0049865278 -1.1543646 0.17788161 203 24257470 28 16 26 1168
0.040801719 -1.2642441 0.18250057 351 24257470 57 17 39 1278
0.089286663 -1.295212 0.17479683 371 24257470 64 18 67 1310
0.1372875 -1.2975974 0.16315086 394 24257470 68 19 63 1315
-0.0048549115 -1.119373 0.13080417 295 24257470 38 20 68 1127
0.035364293 -1.1011299 0.11800979 320 24257470 39 21 59 1108
0.076477744 -1.1170752 0.10917497 332 24257470 42 22 71 1125
0.11980789 -1.1382716 0.10092105 286 24257470 38 23 105 1149
-0.0050744829 -1.1204026 0.089713395 242 24257470 31 24 45 1124
0.034967002 -1.0977169 0.077434458 311 24257470 38 25 64 1101
0.079180293 -1.1571429 0.070675246 334 24257470 45 26 107 1162
0.12255491 -1.1710453 0.060614958 312 24257470 43 27 76 1179
-0.0055645038 -1.1089388 0.048204619 309 24257470 38 28 43 1110
0.036034517 -1.1437757 0.038781568 237 24257470 31 29 8 1145
0.080297247 -1.1899312 0.029418193 308 24257470 44 30 40 1193
0.12217006 -1.1715157 0.017598689 332 24257470 46 31 54 1178
-0.0059015225 -1.1639568 0.0081261871 225 24257470 31 32 67 1164
0.037285142 -1.1974158 -0.0030318084 256 24257470 37 33 46 1198
0.09078826 -1.3478496 -0.016127925 316 24257470 58 34 88 1351
0.14510183 -1.4001777 -0.030199422 339 24257470 67 35 59 1408
-0.0066732317 -1.2004523 -0.035650115 167 24257470 24 36 113 1201
0.04245308 -1.3962866 -0.054641418 366 24257470 72 37 20 1398
0.094859682 -1.4171468 -0.069142118 359 24257470 73 38 108 1422
0.1466644 -1.415015 -0.082748793 234 24257470 48 39 80 1425
-0.0086282035 -1.3599808 -0.090260118 340 24257470 63 40 28 1363
0.042567652 -1.4212869 -0.10773866 351 24257470 71 41 46 1426
0.093040146 -1.3958132 -0.11943706 334 24257470 66 42 139 1404
0.21430679 -2.0785937 -0.19829926 336 24257470 148 43 60 2099
-0.0096606193 -1.4432971 -0.14900084 375 24257470 79 44 42 1451
0.041676607 -1.4104574 -0.1589755 314 24257470 63 45 34 1420
0.097986981 -1.4817175 -0.1814613 434 24257470 97 46 138 1496
0.21818593 -2.1212988 -0.28158069 355 24257470 164 47 120 2151
-0.011246565 -1.4933221 -0.20958634 365 24257470 83 48 3 1508
0.045985878 -1.5796418 -0.23710968 113 24257470 29 49 34 1598
0.14008263 -2.1352491 -0.34201896 339 24257470 159 50 59 2167
0.22121692 -2.1566846 -0.36793539 347 24257470 168 51 70 2199
-0.01315696 -1.5623221 -0.27847064 180 24257470 45 52 64 1587
0.044653177 -1.5610261 -0.2934708 116 24257470 29 53 70 1589
0.14271653 -2.1859097 -0.43326652 375 24257470 187 54 85 2233
0.22360428 -2.1795845 -0.45613268 370 24257470 186 55 59 2238
-0.019727269 -2.1968102 -0.476592 394 24257470 199 56 124 2248
0.061292827 -2.1827154 -0.49509439 382 24257470 192 57 69 2239
0.14354745 -2.2051482 -0.5236001 376 24257470 194 58 63 2271
0.22280824 -2.1736937 -0.54075336 423 24257470 214 59 96 2251
-0.022649189 -2.2315707 -0.5727089 447 24257470 237 60 48 2304
0.061019655 -2.2398617 -0.59754246 413 24257470 222 61 26 2319
0.14242665 -2.1944301 -0.60968447 378 24257470 197 62 46 2282
0.23068562 -2.2412889 -0.64994895 367 24257470 202 63 57 2345
-0.013744737 -1.2170106 0.37989655 373 24353880 61 0 28 1275
0.032685466 -1.2197833 0.3662464 385 24353880 62 1 23 1274
0.085362606 -1.3247212 0.38438427 160 24353880 30 2 36 1382
0.12858526 -1.2560987 0.35270819 477 24353880 82 3 31 1311
-0.013402478 -1.2423915 0.33563799 496 24353880 82 4 16 1287
0.034100972 -1.293689 0.33581978 466 24353880 83 5 1 1337
0.083983354 -1.3111621 0.32728711 401 24353880 73 6 47 1354
0.1315072 -1.2976067 0.31177565 479 24353880 86 7 51 1341
-0.013473404 -1.2715994 0.29305068 522 24353880 89 8 1 1305
0.034752306 -1.2994564 0.28594887 483 24353880 86 9 1 1331
0.0829335 -1.3058469 0.27469024 487 24353880 87 10 38 1337
0.13193035 -1.3132048 0.26420423 453 24353880 82 11 1 1346
-0.013111025 -1.2560211 0.24099815 302 24353880 49 12 56 1279
0.034041412 -1.2914294 0.23456439 339 24353880 58 13 25 1313
0.082892641 -1.3091772 0.22526683 528 24353880 94 14 73 1331
0.13474999 -1.344574 0.21937266 484 24353880 91 15 49 1369
-0.01194548 -1.1424527 0.17605405 276 24353880 37 16 21 1156
0.032733425 -1.2525976 0.18078694 340 24353880 54 17 45 1266
0.081337713 -1.2957355 0.17479683 403 24353880 69 18 65 1310
0.13522369 -1.3576587 0.17059501 291 24353880 55 19 73 1375
-0.011598337 -1.1074038 0.12941138 286 24353880 36 20 62 1115
0.027987571 -1.0774708 0.11545363 313 24353880 37 21 61 1084
0.070364699 -1.1294438 0.11033951 349 24353880 45 22 71 1137
0.11046475 -1.1151944 0.098813035 272 24353880 34 23 101 1125
-0.011693908 -1.0964283 0.087797806 264 24353880 32 24 37 1100
0.029461654 -1.145776 0.080810346 337 24353880 45 25 67 1149
0.070589989 -1.1336976 0.069215514 340 24353880 44 26 125 1138
0.1153672 -1.1717752 0.060614958 316 24353880 44 27 90 1179
-0.012636152 -1.1328597 0.049246881 280 24353880 36 28 24 1134
0.028407574 -1.1199967 0.037968677 292 24353880 37 29 25 1121
0.072260231 -1.1784276 0.029122286 296 24353880 41 30 45 1181
0.11263694 -1.1483605 0.017240141 322 24353880 43 31 43 1154
-0.013177782 -1.1758975 0.0082099624 227 24353880 31 32 75 1176
0.029337488 -1.1736296 -0.0029710708 263 24353880 36 33 67 1174
0.083982177 -1.3723348 -0.016414434 315 24353880 60 34 76 1375
0.13069068 -1.3413382 -0.028912514 301 24353880 55 35 73 1348
-0.013758398 -1.1764009 -0.034937706 191 24353880 26 36 131 1177
0.033593968 -1.3845334 -0.054172389 325 24353880 62 37 13 1386
0.086889558 -1.4296659 -0.069725595 342 24353880 70 38 135 1434
0.13449347 -1.3801185 -0.080658294 293 24353880 57 39 73 1389
-0.017271586 -1.3838477 -0.091849439 367 24353880 71 40 37 1387
0.032706719 -1.3736721 -0.1041121 341 24353880 65 41 46 1378
0.084473848 -1.3963578 -0.11943706 337 24353880 66 42 126 1404
0.19693971 -2.0323069 -0.19376454 370 24353880 155 43 54 2051
-0.018669475 -1.4551463 -0.15023309 321 24353880 69 44 55 1463
0.033579528 -1.4345292 -0.1616624 315 24353880 66 45 18 1444
0.084615193 -1.4109505 -0.17272787 437 24353880 89 46 124 1424
0.20402122 -2.1107562 -0.28000981 352 24353880 161 47 113 2139
-0.019759577 -1.4456954 -0.20291516 365 24353880 78 48 19 1460
0.036292512 -1.5798943 -0.23710968 123 24353880 31 49 18 1598
0.1262752 -2.1242399 -0.34012502 336 24353880 156 50 51 2155
0.20684463 -2.146225 -0.36592755 354 24353880 169 51 47 2187
-0.021883093 -1.5031492 -0.26794243 288 24353880 67 52 36 1527
0.035868693 -1.5966424 -0.30011961 121 24353880 32 53 79 1625
0.12999621 -2.1984959 -0.43559489 360 24353880 182 54 94 2245
0.20909916 -2.1692216 -0.45368692 378 24353880 187 55 72 2226
-0.033029012 -2.184922 -0.4740479 379 24353880 189 56 107 2236
0.048155498 -2.1947505 -0.49774787 381 24353880 193 57 66 2251
0.1307012 -2.2176437 -0.52636677 361 24353880 188 58 61 2283
0.21281649 -2.2098048 -0.54940158 414 24353880 217 59 76 2287
-0.036341425 -2.2313898 -0.5727089 411 24353880 218 60 47 2304
0.047519606 -2.2517862 -0.60063457 405 24353880 220 61 35 2331
0.13099362 -2.2298944 -0.61930263 347 24353880 186 62 52 2318
0.21581893 -2.2311859 -0.64662302 367 24353880 200 63 70 2333
-0.021411557 -1.2283566 0.38347203 246 24452020 41 0 29 1287
0.026861964 -1.3003979 0.39039451 263 24452020 49 1 9 1358
0.07857389 -1.3482339 0.39105952 233 24452020 46 2 44 1406
0.12087557 -1.2568641 0.35270819 495 24452020 85 3 28 1311
-0.021025397 -1.2422858 0.33563799 480 24452020 79 4 34 1287
0.025692776 -1.2706481 0.32979161 530 24452020 91 5 1 1313
0.071898647 -1.2419046 0.30988336 514 24452020 85 6 84 1282
0.11690959 -1.2286769 0.29503602 387 24452020 62 7 64 1269
-0.021471174 -1.2831846 0.2957454 473 24452020 82 8 7 1317
0.027019763 -1.3113624 0.28852692 459 24452020 83 9 1 1343
0.07559184 -1.3180561 0.2771557 508 24452020 92 10 10 1349
0.12387019 -1.3139895 0.26420423 473 24452020 86 11 18 1346
-0.02081758 -1.2559171 0.24099815 335 24452020 55 12 68 1279
0.02611671 -1.2916139 0.23456439 383 24452020 66 13 32 1313
0.073508315 -1.2860459 0.22120492 383 24452020 65 14 95 1307
0.1264973 -1.3453755 0.21937266 473 24452020 89 15 56 1369
-0.018955212 -1.1423579 0.17605405 285 24452020 38 16 20 1156
0.02457219 -1.2290256 0.1773597 276 24452020 43 17 37 1242
0.072713464 -1.2843366 0.17319565 391 24452020 66 18 55 1298
0.12467588 -1.3347515 0.16761735 345 24452020 63 19 70 1351
-0.01819507 -1.0953946 0.12801862 290 24452020 35 20 55 1103
0.022085704 -1.1134104 0.11928788 295 24452020 37 21 50 1120
0.062763751 -1.1179296 0.10917497 319 24452020 40 22 67 1125
0.10914637 -1.1753633 0.10408307 287 24452020 40 23 89 1185
-0.018622205 -1.1082959 0.088755608 281 24452020 35 24 53 1112
0.021727959 -1.1100312 0.078278422 345 24452020 43 25 58 1113
0.063632421 -1.1341094 0.069215514 325 24452020 42 26 96 1138
0.10487209 -1.1366607 0.058764119 282 24452020 37 27 69 1143
-0.019172471 -1.1087871 0.048204619 319 24452020 39 28 49 1110
0.021995919 -1.1441318 0.038781568 279 24452020 37 29 22 1145
0.064367428 -1.1668706 0.028826375 284 24452020 39 30 19 1169
0.10558861 -1.14903 0.017240141 310 24452020 41 31 56 1154
-0.019976528 -1.1517987 0.0080424128 232 24452020 31 32 74 1152
0.022361942 -1.1857855 -0.0030014399 248 24452020 35 33 58 1186
0.076219536 -1.3848053 -0.016557686 334 24452020 64 34 66 1387
0.12572831 -1.3779577 -0.029684659 318 24452020 61 35 56 1384
-0.021617988 -1.2122728 -0.036006317 184 24452020 27 36 103 1213
0.023794206 -1.3127804 -0.051358238 287 24452020 50 37 17 1314
0.076154597 -1.3942684 -0.067975163 347 24452020 68 38 127 1398
0.12711143 -1.3928478 -0.081355125 318 24452020 63 39 63 1401
-0.025539503 -1.3717442 -0.091054782 318 24452020 60 40 49 1375
0.024911651 -1.4097384 -0.10683202 340 24452020 68 41 42 1414
0.076553121 -1.4087887 -0.12045789 348 24452020 70 42 145 1416
0.16611834 -1.83122 -0.17449202 258 24452020 88 43 92 1847
-0.028729562 -1.5146765 -0.15639441 267 24452020 62 44 45 1523
0.025806297 -1.4943221 -0.16837968 346 24452020 78 45 1 1504
0.078516498 -1.45902 -0.17855017 406 24452020 88 46 129 1472
0.18785031 -2.0764232 -0.27529716 350 24452020 155 47 97 2103
-0.028629825 -1.4455469 -0.20291516 372 24452020 79 48 36 1460
0.026198316 -1.5563563 -0.2335486 124 24452020 31 49 31 1574
0.096213505 -1.8054889 -0.28898787 119 24452020 40 50 57 1831
0.19367175 -2.1474538 -0.36592755 360 24452020 172 51 74 2187
-0.030372491 -1.4675527 -0.26162553 372 24452020 83 52 44 1491
0.025301097 -1.5496644 -0.29125452 126 24452020 31 53 71 1577
0.11525858 -2.1757412 -0.43093821 361 24452020 178 54 92 2221
0.19684058 -2.1821644 -0.45613268 383 24452020 192 55 49 2238
-0.046684027 -2.1964028 -0.476592 390 24452020 197 56 101 2248
0.035242617 -2.2301092 -0.50570834 375 24452020 196 57 57 2287
