# .PCD v0.7 - Point Cloud Data file format
VERSION 0.7
FIELDS x y z intensity t reflectivity ring noise range
SIZE 4 4 4 4 4 2 1 2 4
TYPE F F F F U U U U U
COUNT 1 1 1 1 1 1 1 1 1
WIDTH 788
HEIGHT 1
VIEWPOINT 0 0 0 1 0 0 0
POINTS 788
DATA ascii
1.5682368 -0.36871287 0.48353723 277 3412560 78 1 30 1682
1.6760161 -0.32817391 0.49452624 166 3412560 52 2 33 1778
1.612758 -0.25314778 0.45601857 245 3412560 70 3 48 1695
1.6894132 -0.46482447 0.47333559 237 3412560 78 4 18 1815
1.7118913 -0.40327623 0.45638335 221 3412560 73 5 19 1817
1.7234668 -0.3381522 0.43751082 193 3412560 63 6 79 1810
1.73787 -0.27458894 0.42058325 256 3412560 84 7 56 1809
1.6095279 -0.44251248 0.38467112 139 3412560 41 8 50 1713
1.5620238 -0.36733842 0.3529782 137 3412560 37 9 6 1643
1.6180288 -0.31837404 0.34618777 151 3412560 43 10 37 1685
1.6056025 -0.2551266 0.32544625 162 3412560 44 11 31 1658
1.9725821 -0.54199487 0.39249349 257 3412560 112 12 77 2083
1.9699854 -0.4640764 0.36747828 232 3412560 98 13 33 2057
1.9020786 -0.37464488 0.3329075 227 3412560 88 14 79 1967
1.9778889 -0.31477758 0.32513303 254 3412560 104 15 36 2029
8.1577721 -2.2416165 1.3036529 65 3412560 474 16 39 8560
7.9705873 -1.8795682 1.1815411 63 3412560 434 17 67 8274
7.9706826 -1.574434 1.0938812 19 3412560 125 18 54 8198
8.2728376 -1.3217899 1.0475154 305 3412560 2176 19 80 8443
6.4695172 -1.7778344 0.7840125 474 3412560 2165 20 71 6755
6.4373565 -1.5190798 0.70848483 453 3412560 2005 21 93 6652
6.5462446 -1.296273 0.65068287 452 3412560 2034 22 76 6705
6.5476508 -1.049782 0.5847097 448 3412560 1986 23 117 6657
6.3395948 -1.7434405 0.52646756 467 3412560 2034 24 71 6596
6.3810573 -1.5075582 0.46228582 474 3412560 2049 25 87 6573
6.4015517 -1.2678534 0.39765468 477 3412560 2039 26 109 6538
6.451333 -1.0382665 0.3363899 502 3412560 2150 27 86 6543
6.2355251 -1.7180986 0.28115019 564 3412560 2366 28 63 6474
6.2721014 -1.4841285 0.21842997 478 3412560 1986 29 43 6449
6.3465457 -1.2631766 0.15961774 501 3412560 2097 30 53 6473
6.3511772 -1.0245359 0.096120507 516 3412560 2137 31 91 6434
6.1891131 -1.7056592 0.04481969 646 3412560 2663 32 87 6420
6.1398849 -1.4552195 -0.015968874 826 3412560 3291 33 72 6310
6.2321506 -1.2411996 -0.075864524 809 3412560 3268 34 104 6355
6.3280497 -1.0249983 -0.13752748 596 3412560 2451 35 82 6412
6.8572655 -1.8934016 -0.21125883 408 3412560 2067 36 113 7117
6.9001846 -1.640762 -0.2774283 433 3412560 2183 37 75 7098
6.8584371 -1.3689183 -0.34045929 433 3412560 2121 38 167 7002
6.9150529 -1.1199555 -0.40747246 267 3412560 1315 39 112 7017
7.7380357 -2.1431386 -0.53288567 414 3412560 2682 40 95 8047
7.7036505 -1.8355081 -0.60004234 428 3412560 2700 41 98 7942
7.6795931 -1.5350481 -0.66864341 410 3412560 2531 42 141 7860
9.4087391 -1.5290551 -0.90458095 813 3412560 7458 43 65 9575
9.9946251 -2.771884 -1.0707316 372 3412560 4044 44 121 10427
9.9323816 -2.37075 -1.1504451 445 3412560 4694 45 54 10276
9.9467115 -1.9936316 -1.2396621 465 3412560 4859 46 96 10220
9.9368477 -1.6173726 -1.3293594 482 3412560 4970 47 116 10155
10.116777 -2.8148909 -1.4737755 79 3412560 891 48 89 10604
10.181707 -2.4349575 -1.5707403 78 3412560 869 49 53 10586
10.253234 -2.060653 -1.6715841 85 3412560 949 50 43 10591
10.593626 -1.7273102 -1.8216064 182 3412560 2158 51 111 10887
10.505334 -2.9330802 -1.9440303 18 3412560 225 52 78 11079
10.567479 -2.5328703 -2.0421062 19 3412560 237 53 67 11057
1.4896793 -0.29987657 -0.30055076 15 3412560 4 54 80 1549
13.374869 -2.1805573 -2.8211746 202 3412560 3877 55 73 13842
13.680158 -3.8277256 -3.0817354 125 3412560 2641 56 117 14536
16.290251 -3.9135554 -3.798672 59 3412560 1741 57 116 17179
14.334038 -2.8883452 -3.4646142 151 3412560 3398 58 172 15027
16.320444 -2.6622481 -4.0922852 220 3412560 6397 59 66 17035
13.70749 -3.8526628 -3.654002 63 3412560 1355 60 34 14700
17.834711 -4.3004022 -4.8924279 375 3412560 13526 61 94 18987
17.968662 -3.6243212 -5.082129 233 3412560 8418 62 157 19022
10.736311 -1.7467281 -3.1377707 140 3412560 1790 63 40 11321
1.5902265 -0.44891727 0.51576543 238 3509320 71 0 11 1731
1.6106331 -0.38912502 0.49733618 272 3509320 81 1 22 1730
1.662673 -0.33616731 0.49118859 177 3509320 55 2 46 1766
1.6339875 -0.26676318 0.46247548 235 3509320 69 3 21 1719
1.7311317 -0.48774856 0.48585355 224 3509320 78 4 33 1863
1.7206739 -0.41650531 0.45939746 235 3509320 79 5 1 1829
1.7670087 -0.35796869 0.44911331 215 3509320 74 6 62 1858
1.7591859 -0.28903151 0.42616311 251 3509320 84 7 59 1833
1.5842706 -0.44604197 0.3792817 120 3509320 34 8 25 1689
1.5483484 -0.374163 0.35040015 140 3509320 37 9 18 1631
1.6045359 -0.32595807 0.34372237 156 3509320 44 10 36 1673
1.6736622 -0.27648029 0.33957902 165 3509320 49 11 2 1730
1.9465302 -0.54770404 0.38797119 253 3509320 107 12 70 2059
1.9671007 -0.47615525 0.36747828 228 3509320 96 13 26 2057
1.9924617 -0.40516269 0.34915513 247 3509320 105 14 75 2063
1.91749 -0.31724072 0.31551844 261 3509320 101 15 37 1969
7.926949 -2.2305908 1.2689295 12 3509320 81 16 31 8332
8.0743341 -1.956408 1.1986773 174 3509320 1229 17 70 8394
8.0657492 -1.6446972 1.1082921 21 3509320 142 18 49 8306
8.2175856 -1.364723 1.0415601 75 3509320 532 19 65 8395
6.4011207 -1.8013536 0.77704865 447 3509320 2005 20 86 6695
6.474297 -1.5697963 0.71359712 453 3509320 2035 21 86 6700
6.5030632 -1.3292401 0.6471892 436 3509320 1941 22 82 6669
6.5528765 -1.0919025 0.58576369 450 3509320 2002 23 116 6669
6.340292 -1.7855493 0.52742535 477 3509320 2084 24 81 6608
6.3716869 -1.5466832 0.46228582 488 3509320 2110 25 75 6573
6.4053869 -1.3095078 0.39838457 499 3509320 2141 26 112 6550
6.4684811 -1.0817852 0.33762378 484 3509320 2087 27 105 6567
6.247942 -1.7628376 0.28219244 522 3509320 2206 28 74 6498
6.2861843 -1.5282519 0.21924287 469 3509320 1963 29 47 6473
6.3151736 -1.2972666 0.15902592 488 3509320 2028 30 54 6449
6.3684378 -1.0674536 0.096479051 502 3509320 2095 31 70 6458
6.2593713 -1.7664163 0.045406118 457 3509320 1933 32 110 6504
6.2007961 -1.5099001 -0.016151085 704 3509320 2868 33 93 6382
6.2126637 -1.2770001 -0.075721271 784 3509320 3156 34 82 6343
6.2506557 -1.0518618 -0.13598318 887 3509320 3566 35 82 6340
6.9147725 -1.9550215 -0.21339604 416 3509320 2148 36 164 7189
6.9132833 -1.6887606 -0.27836636 409 3509320 2077 37 69 7122
6.9086051 -1.4230658 -0.34337667 424 3509320 2113 38 160 7062
6.8844237 -1.1583889 -0.40607882 391 3509320 1914 39 80 6993
7.7708182 -2.2036448 -0.53606433 420 3509320 2753 40 103 8095
7.7503567 -1.8969661 -0.60457557 414 3509320 2652 41 100 8002
7.7285795 -1.5942178 -0.67374754 440 3509320 2759 42 123 7920
9.3873997 -1.5847687 -0.90344727 357 3509320 3266 43 213 9563
9.8970509 -2.8103337 -1.0621059 73 3509320 782 44 105 10343
9.963974 -2.4430077 -1.1558189 192 3509320 2049 45 88 10324
9.9576216 -2.0594509 -1.2425733 530 3509320 5563 46 110 10244
9.9853878 -1.6882297 -1.3372138 454 3509320 4737 47 122 10215
10.133602 -2.8866804 -1.478779 89 3509320 1013 48 63 10640
10.189624 -2.5030475 -1.5743015 74 3509320 838 49 60 10610
10.286808 -2.1331511 -1.6791601 73 3509320 822 50 39 10639
10.279546 -1.7409158 -1.7694029 218 3509320 2442 51 69 10575
10.589369 -3.0267043 -1.962981 154 3509320 1921 52 54 11187
10.677708 -2.6286747 -2.0664852 17 3509320 217 53 77 11189
1.3956034 -0.28986031 -0.28192401 12 3509320 3 54 76 1453
13.44232 -2.2763133 -2.8382947 192 3509320 3715 55 51 13926
13.814248 -3.9568019 -3.1173527 51 3509320 1097 56 145 14704
14.675222 -3.6209476 -3.4271853 81 3509320 1952 57 83 15499
14.33891 -2.9809964 -3.4701476 82 3509320 1848 58 163 15051
12.904265 -2.1863577 -3.2389948 147 3509320 2676 59 204 13483
13.449017 -3.8692117 -3.591362 114 3509320 2373 60 38 14448
17.807989 -4.4097528 -4.8924279 375 3509320 13532 61 73 18987
17.957405 -3.7368624 -5.0853348 289 3509320 10482 62 193 19034
10.611705 -1.7933592 -3.104511 81 3509320 1013 63 143 11201
1.6204566 -0.46820524 0.52649188 251 3607020 78 0 8 1767
1.5970598 -0.39623269 0.49388641 254 3607020 75 1 36 1718
1.69443 -0.35342357 0.50120151 178 3607020 58 2 35 1802
1.6437148 -0.27871627 0.4657039 232 3607020 69 3 23 1731
1.7169752 -0.49515134 0.48272407 233 3607020 80 4 54 1851
1.7293582 -0.42985722 0.46241152 261 3607020 88 5 1 1841
1.7077894 -0.3568944 0.43461019 230 3607020 74 6 85 1798
1.7113596 -0.29196897 0.41500336 248 3607020 79 7 74 1785
1.5927402 -0.45899251 0.3819764 99 3607020 29 8 35 1701
1.6028975 -0.39777014 0.3632904 142 3607020 41 9 6 1691
1.5795169 -0.33098 0.33879149 149 3607020 40 10 36 1649
1.6255453 -0.27878857 0.33015716 170 3607020 48 11 23 1682
1.9544576 -0.56289905 0.39023232 253 3607020 109 12 62 2071
1.9641421 -0.48821619 0.36747828 233 3607020 98 13 37 2057
1.9552131 -0.41009715 0.34306228 223 3607020 92 14 77 2027
1.8571373 -0.31897482 0.30590385 230 3607020 84 15 40 1909
8.2322206 -2.3710992 1.3201008 16 3607020 117 16 46 8668
8.2120113 -2.0431938 1.2209544 216 3607020 1579 17 122 8550
7.9740381 -1.6770233 1.0970837 28 3607020 193 18 58 8222
7.9509048 -1.3706177 1.0088059 44 3607020 294 19 61 8131
6.4243073 -1.8504934 0.78122699 470 3607020 2131 20 85 6731
6.4529648 -1.6066097 0.71231902 456 3607020 2041 21 69 6688
6.5064712 -1.3715807 0.64835376 413 3607020 1845 22 76 6681
6.5460534 -1.1320897 0.58576369 446 3607020 1984 23 106 6669
6.2947359 -1.8144797 0.52455199 461 3607020 1993 24 74 6572
6.350462 -1.582855 0.46144184 495 3607020 2132 25 77 6561
6.3737912 -1.3438438 0.39692485 509 3607020 2168 26 112 6526
6.4381061 -1.1173561 0.3363899 517 3607020 2214 27 98 6543
6.2254901 -1.797815 0.28167132 531 3607020 2232 28 52 6486
6.2534165 -1.5609851 0.21842997 464 3607020 1928 29 54 6449
6.2953587 -1.3335054 0.15873 471 3607020 1950 30 44 6437
6.349947 -1.1044534 0.096299775 544 3607020 2262 31 77 6446
6.294529 -1.8181094 0.045741223 392 3607020 1683 32 95 6552
6.2845473 -1.5712032 -0.016394036 456 3607020 1915 33 95 6478
6.2516646 -1.3250481 -0.076294281 716 3607020 2925 34 100 6391
6.2559023 -1.0922587 -0.13624057 856 3607020 3454 35 84 6352
6.9602571 -2.0140836 -0.21517709 403 3607020 2117 36 133 7249
6.9376836 -1.7398986 -0.27977344 408 3607020 2093 37 70 7158
6.9466405 -1.4753897 -0.34571058 424 3607020 2141 38 169 7110
6.9361925 -1.2109103 -0.40956298 381 3607020 1897 39 87 7053
7.8261461 -2.2713082 -0.54083234 414 3607020 2762 40 107 8167
7.7965951 -1.9590656 -0.60910875 385 3607020 2503 41 94 8062
7.7771268 -1.6540458 -0.67885166 391 3607020 2489 42 133 7980
7.7536216 -1.3579392 -0.74699962 349 3607020 2185 43 67 7907
9.1001787 -2.6445029 -0.97831213 413 3607020 3747 44 135 9527
10.029744 -2.5244741 -1.1652232 198 3607020 2149 45 71 10408
10.037992 -2.140383 -1.2542177 483 3607020 5164 46 117 10340
10.056867 -1.7638534 -1.34821 334 3607020 3542 47 119 10299
9.9787951 -2.908896 -1.4587654 71 3607020 785 48 90 10496
10.116539 -2.5510144 -1.5653987 75 3607020 830 49 45 10550
10.192411 -2.1788893 -1.6659023 74 3607020 821 50 36 10555
10.233713 -1.797816 -1.7633793 101 3607020 1127 51 63 10539
10.638632 -3.1115205 -1.9756149 358 3607020 4538 52 114 11259
10.592772 -2.676806 -2.0531876 152 3607020 1882 53 79 11117
10.648699 -2.2799311 -2.1539149 95 3607020 1165 54 49 11101
10.697353 -1.879074 -2.2610974 75 3607020 927 55 81 11094
14.071056 -4.1239471 -3.1809549 29 3607020 646 56 148 15004
15.185934 -3.8459635 -3.551899 52 3607020 1346 57 95 16063
14.366019 -3.0787096 -3.4812145 74 3607020 1688 58 110 15099
12.856189 -2.2594469 -3.2303467 743 3607020 13439 59 202 13447
1.3045911 -0.38400686 -0.34899446 42 3607020 8 60 96 1404
16.420855 -4.1733594 -4.5182872 175 3607020 5382 61 112 17535
17.911526 -3.8421259 -5.0789227 326 3607020 11788 62 207 19010
10.611858 -1.8604286 -3.107837 251 3607020 3157 63 101 11213
1.5736129 -0.46515089 0.51218992 257 3704340 76 0 1 1719
1.5945985 -0.40602461 0.49388641 253 3704340 75 1 17 1718
1.6696916 -0.35896829 0.49452624 179 3704340 56 2 39 1778
1.6419737 -0.28879666 0.4657039 212 3704340 63 3 22 1731
1.7027935 -0.50239891 0.47959459 237 3704340 80 4 30 1839
1.7604527 -0.44907328 0.47145382 222 3704340 78 5 10 1877
1.7397168 -0.37472197 0.44331208 200 3704340 67 6 92 1834
1.7325213 -0.30653092 0.42058325 246 3704340 80 7 40 1809
1.60111 -0.47206366 0.38467112 88 3704340 26 8 62 1713
1.5663549 -0.39892042 0.35555625 135 3704340 37 9 1 1655
1.6463326 -0.35553992 0.35358408 178 3704340 53 10 34 1721
1.635389 -0.29081759 0.33251262 162 3704340 46 11 20 1694
1.9396625 -0.57154971 0.38797119 253 3704340 107 12 69 2059
1.9725499 -0.50317711 0.36962202 270 3704340 116 13 25 2069
1.9757798 -0.42708394 0.34712416 233 3704340 98 14 64 2051
1.925114 -0.34282404 0.31744134 275 3704340 108 15 45 1981
6.4769349 -1.9086459 1.0404855 527 3704340 2459 16 38 6832
6.6227489 -1.6909953 0.98618841 132 3704340 629 17 233 6906
7.9635983 -1.7259195 1.0970837 67 3704340 456 18 67 8222
7.97751 -1.4256622 1.0132723 18 3704340 123 19 58 8167
6.4242649 -1.8932467 0.78261977 431 3704340 1961 20 77 6743
6.4429851 -1.6461741 0.71231902 474 3704340 2121 21 102 6688
6.4862618 -1.4089426 0.6471892 454 3704340 2021 22 73 6669
6.5389838 -1.1722342 0.58576369 436 3704340 1939 23 123 6669
6.283484 -1.8530693 0.52455199 470 3704340 2032 24 68 6572
6.3522272 -1.6247572 0.46228582 496 3704340 2143 25 98 6573
6.37713 -1.3854703 0.39765468 464 3704340 1982 26 134 6538
6.4193339 -1.1547168 0.33577293 498 3704340 2124 27 108 6531
6.2143416 -1.8359801 0.28167132 535 3704340 2253 28 70 6486
6.2321029 -1.59635 0.21802352 472 3704340 1958 29 64 6437
6.2870579 -1.3721079 0.15873 514 3704340 2132 30 60 6437
6.3194342 -1.1391381 0.095941238 537 3704340 2216 31 79 6422
6.2717471 -1.8532971 0.045657445 362 3704340 1550 32 79 6540
6.2980356 -1.6156987 -0.016454773 416 3704340 1761 33 61 6502
6.3254771 -1.3813022 -0.077297054 443 3704340 1859 34 73 6475
6.2254715 -1.1263517 -0.1357258 793 3704340 3176 35 86 6328
7.0052743 -2.0737767 -0.21695811 375 3704340 2003 36 124 7309
6.9849396 -1.7973753 -0.28211856 443 3704340 2310 37 74 7218
6.9491653 -1.5205477 -0.34629408 395 3704340 2002 38 148 7122
6.9522085 -1.2577124 -0.41095662 407 3704340 2039 39 107 7077
7.9038897 -2.3465478 -0.54718959 381 3704340 2602 40 105 8263
7.8191886 -2.0158291 -0.61182863 395 3704340 2592 41 90 8098
7.8018699 -1.7094113 -0.68191421 385 3704340 2472 42 145 8016
7.8039155 -1.4161541 -0.75266802 398 3704340 2529 43 63 7967
9.0265713 -2.6832845 -0.9721508 87 3704340 780 44 113 9467
10.117978 -2.6128016 -1.1773143 392 3704340 4339 45 76 10516
10.082842 -2.2147119 -1.2614957 427 3704340 4621 46 93 10400
10.092674 -1.834036 -1.3544934 425 3704340 4549 47 129 10347
9.48246 -2.8274524 -1.388718 25 3704340 252 48 89 9992
10.135162 -2.6219571 -1.5707403 70 3704340 779 49 57 10586
10.248284 -2.2566772 -1.6772661 74 3704340 831 50 43 10627
10.222489 -1.8605751 -1.7633793 77 3704340 861 51 58 10539
12.996169 -3.8877599 -2.4177988 222 3704340 4222 52 188 13779
10.804472 -2.8009422 -2.097513 32 3704340 416 53 84 11357
10.646005 -2.3477623 -2.1562433 104 3704340 1287 54 94 11113
10.720297 -1.9509866 -2.2684345 63 3704340 776 55 37 11130
10.596835 -3.1764565 -2.3999207 23 3704340 295 56 110 11320
1.4338014 -0.37249875 -0.33588582 32 3704340 7 57 97 1519
10.618328 -2.3437967 -2.5764997 45 3704340 556 58 53 11175
16.738543 -3.0477562 -4.2104769 137 3704340 4205 59 127 17527
13.489563 -4.0607643 -3.6152248 45 3704340 956 60 95 14544
16.372498 -4.2681875 -4.5121031 166 3704340 5094 61 99 17511
17.842449 -3.9419782 -5.0660987 339 3704340 12177 62 155 18962
10.588899 -1.9234461 -3.104511 361 3704340 4532 63 91 11201
1.6255538 -0.49136996 0.53006738 245 3802120 78 0 1 1779
1.5920771 -0.41580126 0.49388641 240 3802120 71 1 25 1718
1.6787114 -0.37169838 0.49786386 191 3802120 61 2 39 1790
1.651541 -0.30093807 0.46893236 235 3802120 71 3 16 1743
1.6996788 -0.51283759 0.47959459 233 3802120 79 4 18 1839
1.7239529 -0.45104674 0.46241152 235 3802120 80 5 3 1841
1.7487525 -0.38791126 0.44621268 210 3802120 72 6 69 1846
1.7306079 -0.31715572 0.42058325 252 3802120 83 7 61 1809
1.5757921 -0.47512767 0.3792817 139 3802120 40 8 41 1689
1.5978955 -0.41741019 0.3632904 172 3802120 49 9 3 1691
1.5524086 -0.34523928 0.33386064 225 3802120 59 10 40 1625
1.6451457 -0.3029778 0.33486807 222 3802120 65 11 11 1706
1.9474028 -0.58684087 0.39023232 272 3802120 117 12 64 2071
1.958003 -0.51228249 0.36747828 227 3802120 96 13 54 2057
1.9500334 -0.43405974 0.34306228 216 3802120 89 14 50 2027
1.9812168 -0.36537081 0.32705593 215 3802120 89 15 47 2041
6.4423904 -1.9415072 1.0368304 679 3802120 3146 16 41 6808
6.4858632 -1.6985024 0.96733862 654 3802120 3001 17 125 6774
6.618032 -1.4768724 0.91294658 314 3802120 1469 18 138 6842
7.4768548 -1.3835852 0.95074147 17 3802120 102 19 70 7663
6.3897033 -1.9257509 0.77983421 454 3802120 2051 20 90 6719
6.4673896 -1.6947502 0.71615332 460 3802120 2081 21 86 6724
6.5008054 -1.4539286 0.64951831 465 3802120 2084 22 83 6693
6.5081625 -1.2079718 0.58365571 462 3802120 2040 23 127 6645
6.2948995 -1.8984969 0.52646756 473 3802120 2060 24 64 6596
6.3305597 -1.6606658 0.46144184 496 3802120 2136 25 81 6561
6.4035759 -1.4324176 0.39984429 478 3802120 2065 26 132 6574
6.4239097 -1.1962774 0.3363899 469 3802120 2009 27 84 6543
6.191483 -1.8706086 0.28115019 551 3802120 2311 28 69 6474
6.2685885 -1.6467481 0.2196493 466 3802120 1958 29 49 6485
6.2668157 -1.408029 0.15843409 541 3802120 2232 30 35 6425
6.3359156 -1.1822939 0.096299775 512 3802120 2128 31 96 6446
6.3062038 -1.9056293 0.045992546 396 3802120 1720 32 85 6588
6.311214 -1.6604187 -0.01651551 409 3802120 1744 33 73 6526
6.3285894 -1.4227204 -0.077440307 368 3802120 1550 34 84 6487
6.3009892 -1.1799877 -0.13752748 528 3802120 2172 35 71 6412
7.0268583 -2.127147 -0.21802671 506 3802120 2730 36 120 7345
7.0085611 -1.8493783 -0.28352562 422 3802120 2222 37 85 7254
7.0098619 -1.5789613 -0.34979492 426 3802120 2203 38 145 7194
6.9914613 -1.3091663 -0.41374397 427 3802120 2170 39 67 7125
8.0268307 -2.436739 -0.5567255 366 3802120 2589 40 306 8407
7.8760819 -2.082118 -0.61726844 370 3802120 2470 41 101 8170
7.8145604 -1.7625115 -0.68395579 419 3802120 2708 42 122 8040
7.8185611 -1.4684216 -0.75493532 399 3802120 2551 43 61 7991
8.4731674 -2.5754659 -0.91423464 69 3802120 547 44 119 8903
10.205501 -2.7023058 -1.1894053 486 3802120 5491 45 63 10624
10.150389 -2.2949247 -1.2716846 361 3802120 3968 46 117 10484
10.151381 -1.909122 -1.3639188 390 3802120 4235 47 102 10419
8.9193163 -2.7192397 -1.3086638 411 3802120 3645 48 95 9416
10.130354 -2.6871383 -1.572521 89 3802120 996 49 39 10598
10.222688 -2.3168979 -1.6753721 78 3802120 874 50 48 10615
10.234134 -1.9276438 -1.767395 79 3802120 876 51 54 10563
12.960773 -3.9639745 -2.415693 56 3802120 1060 52 121 13767
10.502137 -2.7914464 -2.0421062 31 3802120 382 53 87 11057
13.949106 -3.1660709 -2.8291354 195 3802120 4154 54 72 14581
10.777395 -2.0297747 -2.2831092 87 3802120 1096 55 75 11202
10.621996 -3.2551622 -2.4100971 70 3802120 905 56 111 11368
10.636744 -2.8331885 -2.4958153 35 3802120 451 57 72 11287
10.76316 -2.4451199 -2.6152339 29 3802120 378 58 75 11343
16.948469 -3.1935437 -4.2681317 95 3802120 2989 59 150 17767
13.853215 -4.2631125 -3.7196248 115 3802120 2579 60 96 14964
16.435612 -4.3925161 -4.5368395 43 3802120 1340 61 91 17607
17.851751 -4.0590749 -5.075717 235 3802120 8493 62 193 18998
17.953625 -3.3751547 -5.2697144 74 3802120 2685 63 83 19013
1.6225083 -0.50133491 0.53006738 225 3898980 71 0 8 1779
1.6561104 -0.44339719 0.51458484 226 3898980 72 1 34 1790
1.6876376 -0.3845526 0.50120151 161 3898980 52 2 50 1802
1.638306 -0.30892447 0.4657039 226 3898980 68 3 20 1731
1.6965001 -0.52325696 0.47959459 241 3898980 81 4 24 1839
1.6650589 -0.44657171 0.44734108 247 3898980 78 5 1 1781
1.7576915 -0.40122542 0.44911331 224 3898980 77 6 65 1858
1.6827617 -0.31907153 0.40942347 254 3898980 79 7 44 1761
1.5393227 -0.47445464 0.37119755 136 3898980 37 8 38 1653
1.629267 -0.43630174 0.37102458 198 3898980 59 9 1 1727
1.5960532 -0.36523718 0.34372237 286 3898980 80 10 35 1673
1.6201383 -0.3086623 0.33015716 341 3898980 96 11 23 1682
1.9662908 -0.60571784 0.39475456 221 3898980 97 12 76 2095
2.0118425 -0.53957969 0.37819713 178 3898980 80 13 49 2117
2.0165036 -0.46185949 0.355248 159 3898980 70 14 88 2099
2.0138431 -0.38417929 0.33282471 164 3898980 71 15 45 2077
6.4303565 -1.9810005 1.0368304 678 3898980 3141 16 40 6808
6.4753194 -1.7382669 0.96733862 678 3898980 3113 17 83 6774
6.4929342 -1.4908379 0.89693457 638 3898980 2884 18 73 6722
6.5677104 -1.2570757 0.83610165 512 3898980 2326 19 91 6739
6.400548 -1.9719397 0.78261977 474 3898980 2157 20 83 6743
6.4338222 -1.7282108 0.71359712 487 3898980 2187 21 88 6700
6.4684834 -1.488433 0.6471892 468 3898980 2084 22 58 6669
6.500628 -1.2478824 0.58365571 472 3898980 2084 23 121 6645
6.2717013 -1.9335618 0.52550977 464 3898980 2013 24 70 6584
6.3318105 -1.7025864 0.46228582 489 3898980 2114 25 75 6573
6.3713207 -1.4663095 0.39838457 484 3898980 2076 26 128 6550
6.4164486 -1.2356713 0.3363899 464 3898980 1987 27 96 6543
6.2027979 -1.9156388 0.28219244 532 3898980 2248 28 76 6498
6.2467861 -1.6820623 0.21924287 453 3898980 1896 29 56 6473
6.2580585 -1.4464549 0.15843409 484 3898980 1997 30 36 6425
6.316761 -1.2188748 0.096120507 550 3898980 2279 31 69 6434
6.3861146 -1.9726197 0.046662748 385 3898980 1721 32 94 6684
6.382009 -1.7209826 -0.01672809 413 3898980 1806 33 72 6610
6.3431215 -1.4669323 -0.077726811 365 3898980 1549 34 77 6511
6.3525224 -1.2300309 -0.13881437 413 3898980 1731 35 80 6472
7.0595088 -2.1844053 -0.21945152 493 3898980 2693 36 141 7393
7.0549569 -1.9079994 -0.28587073 472 3898980 2523 37 52 7314
7.0117183 -1.6246487 -0.35037842 399 3898980 2070 38 144 7206
7.0185804 -1.3588718 -0.41583446 420 3898980 2156 39 66 7161
9.2582302 -2.8727195 -0.64334339 284 3898980 2681 40 105 9715
9.0065403 -2.4401879 -0.70702553 302 3898980 2643 41 363 9358
7.8734822 -1.8266405 -0.69008082 415 3898980 2731 42 116 8112
7.8914952 -1.5323076 -0.76287115 396 3898980 2585 43 65 8075
8.092433 -2.5140834 -0.87480223 72 3898980 525 44 79 8519
10.257777 -2.7836123 -1.197466 395 3898980 4523 45 77 10696
10.252134 -2.3841431 -1.2862403 162 3898980 1821 46 124 10604
10.209544 -1.9849967 -1.3733439 449 3898980 4944 47 88 10491
10.014326 -3.1203616 -1.4721079 57 3898980 643 48 83 10592
10.148031 -2.7585855 -1.5778626 67 3898980 762 49 74 10634
10.162118 -2.3688192 -1.6677963 84 3898980 933 50 51 10567
10.187275 -1.9836195 -1.7613715 75 3898980 835 51 79 10527
10.16235 -3.1764112 -1.8977063 164 3898980 1921 52 87 10815
10.757908 -2.9302192 -2.0952966 54 3898980 700 53 67 11345
13.505259 -3.1525884 -2.7429867 149 3898980 2972 54 150 14137
13.97052 -2.7200224 -2.9630282 226 3898980 4785 55 70 14538
10.557057 -3.3062568 -2.3999207 50 3898980 641 56 108 11320
10.506261 -2.8675861 -2.4692805 58 3898980 724 57 110 11167
10.747953 -2.5111153 -2.6152339 33 3898980 429 58 76 11343
1.3558471 -0.26410258 -0.34184453 25 3898980 5 59 92 1423
13.471979 -4.2364564 -3.6241734 54 3898980 1157 60 65 14580
13.970444 -3.8256812 -3.8627684 125 3898980 2799 61 52 14991
17.826509 -4.1685348 -5.075717 322 3898980 11623 62 112 18998
17.898623 -3.4786537 -5.2597365 274 3898980 9861 63 137 18977
1.5866312 -0.50093466 0.51934087 239 3997480 73 0 4 1743
1.6090227 -0.44138831 0.50078589 227 3997480 69 1 37 1742
1.6515787 -0.38701126 0.49118859 190 3997480 59 2 31 1766
1.6817559 -0.32781607 0.4786177 248 3997480 78 3 43 1779
1.6822085 -0.53017437 0.47646511 238 3997480 79 4 19 1827
1.7182881 -0.47216833 0.46241152 218 3997480 74 5 1 1841
1.6985165 -0.39869815 0.43461019 176 3997480 57 6 83 1798
1.6693189 -0.32714617 0.40663356 221 3997480 67 7 43 1749
1.5586894 -0.49091643 0.37658697 156 3997480 44 8 25 1677
1.603955 -0.44008842 0.36586845 186 3997480 54 9 3 1703
1.5594867 -0.36695364 0.33632606 258 3997480 69 10 28 1637
1.5835791 -0.31177849 0.32309076 341 3997480 92 11 18 1646
2.0075023 -0.63192558 0.40379909 194 3997480 89 12 83 2143
2.0084939 -0.55191392 0.37819713 175 3997480 79 13 59 2117
2.0366554 -0.47964609 0.35930991 151 3997480 68 14 89 2123
2.0346904 -0.40111071 0.33667052 158 3997480 70 15 53 2101
6.4859567 -2.0417867 1.0477957 505 3997480 2389 16 51 6880
6.4988875 -1.787415 0.97247952 582 3997480 2701 17 79 6810
6.4836645 -1.5306497 0.89693457 695 3997480 3142 18 67 6722
6.5365114 -1.2927303 0.83312392 635 3997480 2865 19 85 6715
6.3655901 -2.0040174 0.77983421 457 3997480 2064 20 94 6719
6.4346013 -1.7708215 0.71487522 459 3997480 2069 21 75 6712
6.4476066 -1.5253453 0.6460247 473 3997480 2094 22 57 6657
6.5162992 -1.2923969 0.58576369 475 3997480 2112 23 130 6669
6.282537 -1.9791963 0.52742535 451 3997480 1971 24 64 6608
6.3097043 -1.7382264 0.46144184 474 3997480 2041 25 84 6561
6.3505478 -1.5026176 0.39765468 517 3997480 2210 26 97 6538
6.3969917 -1.2726802 0.33577293 479 3997480 2044 27 95 6531
6.190927 -1.9536624 0.28219244 508 3997480 2147 28 66 6498
6.2479081 -1.7235494 0.2196493 455 3997480 1912 29 39 6485
6.2607369 -1.4875996 0.15873 489 3997480 2025 30 42 6437
6.2973957 -1.2552652 0.095941238 574 3997480 2369 31 72 6422
6.3853331 -2.0153787 0.046746518 391 3997480 1754 32 83 6696
6.3828959 -1.7633048 -0.016758459 415 3997480 1822 33 68 6622
6.4040442 -1.5224771 -0.078586332 358 3997480 1553 34 81 6583
6.3683839 -1.2736919 -0.13932915 417 3997480 1761 35 82 6496
7.1031566 -2.2457602 -0.22123255 367 3997480 2039 36 113 7453
7.1008949 -1.9672589 -0.28821588 497 3997480 2705 37 58 7374
7.0715756 -1.6843038 -0.35387927 417 3997480 2207 38 161 7278
7.0570989 -1.4113084 -0.41862178 429 3997480 2232 39 73 7209
9.1833601 -2.9113805 -0.63937014 517 3997480 4821 40 88 9655
9.2219963 -2.5594034 -0.72515821 753 3997480 6937 41 111 9598
7.9667993 -1.8998787 -0.69926828 306 3997480 2065 42 160 8220
7.9405098 -1.5924451 -0.76853949 410 3997480 2715 43 86 8135
7.9630823 -2.5275779 -0.86247963 41 3997480 290 44 109 8399
10.229016 -2.8433073 -1.1961226 238 3997480 2721 45 70 10684
10.272068 -2.4553118 -1.2906071 443 3997480 5016 46 109 10640
10.267157 -2.0616567 -1.3827693 382 3997480 4261 47 122 10563
10.040285 -3.1961682 -1.478779 66 3997480 751 48 75 10640
10.119481 -2.8176174 -1.576082 69 3997480 773 49 57 10622
10.17044 -2.4366498 -1.6715841 61 3997480 689 50 66 10591
10.163313 -2.0437577 -1.7593637 84 3997480 934 51 60 10515
10.075145 -3.217145 -1.8850725 282 3997480 3257 52 96 10743
11.421312 -3.1863229 -2.2282727 73 3997480 1067 53 83 12065
13.073564 -3.1365283 -2.6591661 228 3997480 4290 54 70 13705
13.41224 -2.6968462 -2.8480778 178 3997480 3477 55 108 13974
10.436047 -3.3388102 -2.3770239 36 3997480 451 56 132 11212
13.644306 -3.8141956 -3.2122538 119 3997480 2516 57 88 14527
16.261728 -3.9047146 -3.9626222 62 3997480 1829 58 123 17187
10.524322 -2.1171179 -2.6566823 52 3997480 640 59 81 11059
1.3833057 -0.44434562 -0.37285736 36 3997480 8 60 60 1500
13.84623 -3.8831518 -3.8349397 192 3997480 4261 61 71 14883
17.823084 -4.2832417 -5.082129 291 3997480 10539 62 314 19022
17.888245 -3.5906811 -5.263062 285 3997480 10274 63 123 18989
1.6162339 -0.52120781 0.53006738 209 4093630 66 0 26 1779
1.6284143 -0.45746979 0.50768536 256 4093630 80 1 24 1766
1.6603792 -0.39983645 0.49452624 174 4093630 55 2 36 1778
1.6910431 -0.34040979 0.48184618 218 4093630 70 3 27 1791
1.712006 -0.5511362 0.48585355 200 4093630 69 4 30 1863
1.6594534 -0.46697092 0.44734108 176 4093630 56 5 1 1781
1.5715237 -0.37907761 0.40270334 172 4093630 48 6 71 1666
1.5414478 -0.31191993 0.37594423 251 4093630 66 7 34 1617
1.6113061 -0.51837707 0.39006057 145 4093630 44 8 41 1737
1.5560931 -0.43724054 0.35555625 153 4093630 42 9 7 1655
1.591451 -0.3847957 0.34372237 184 4093630 51 10 32 1673
1.6162285 -0.32852063 0.33015716 241 4093630 68 11 26 1682
1.9362711 -0.62258673 0.39023232 153 4093630 66 12 88 2071
1.993704 -0.56102914 0.37605333 140 4093630 62 13 45 2105
2.0451691 -0.49491543 0.36134085 113 4093630 51 14 135 2135
8.0910406 -1.6466739 1.3404326 161 4093630 1124 15 158 8365
6.4733062 -2.0815454 1.0477957 451 4093630 2133 16 41 6880
6.5106616 -1.8336973 0.97590667 471 4093630 2202 17 73 6834
6.5434957 -1.5872247 0.90654176 519 4093630 2397 18 82 6794
6.5284562 -1.3328133 0.83312392 692 4093630 3122 19 75 6715
6.3872137 -2.0539844 0.7840125 420 4093630 1917 20 95 6755
6.4465837 -1.816743 0.71743143 483 4093630 2193 21 75 6736
6.4497309 -1.5676991 0.6471892 467 4093630 2079 22 66 6669
6.4731145 -1.3251637 0.58260173 461 4093630 2028 23 124 6633
6.2930484 -2.0250363 0.52934098 479 4093630 2109 24 66 6632
6.3104405 -1.7801594 0.46228582 492 4093630 2127 25 83 6573
6.3295698 -1.5387262 0.39692485 491 4093630 2091 26 106 6526
6.3655844 -1.3070865 0.33453906 497 4093630 2105 27 100 6507
6.178823 -1.9916124 0.28219244 537 4093630 2269 28 74 6498
6.237215 -1.7618533 0.2196493 483 4093630 2033 29 59 6485
6.2398367 -1.523142 0.15843409 513 4093630 2116 30 40 6425
6.3013277 -1.2962995 0.096120507 528 4093630 2187 31 72 6434
6.4185309 -2.0692482 0.047081623 339 4093630 1543 32 73 6744
6.4181442 -1.8155015 -0.016879935 394 4093630 1755 33 73 6670
6.4295516 -1.5702835 -0.079016097 367 4093630 1609 34 84 6619
6.3956981 -1.3200186 -0.1401013 425 4093630 1814 35 92 6532
7.1577291 -2.3114178 -0.22336978 352 4093630 1993 36 120 7525
7.1232972 -2.0206089 -0.28962296 453 4093630 2490 37 72 7410
7.107677 -1.7390567 -0.35621318 553 4093630 2966 38 160 7326
7.1069694 -1.4666898 -0.42210597 416 4093630 2201 39 66 7269
9.2222805 -2.9861159 -0.64334339 321 4093630 3030 40 109 9715
9.1946087 -2.6126697 -0.72425157 765 4093630 7030 41 109 9586
8.5124216 -2.0852795 -0.74826807 86 4093630 662 42 163 8796
7.9773836 -1.6508206 -0.77307427 382 4093630 2561 43 65 8183
7.7430372 -2.510133 -0.84029901 71 4093630 477 44 82 8183
9.8099566 -2.7917788 -1.1491017 50 4093630 532 45 63 10264
10.256809 -2.5182939 -1.2906071 331 4093630 3749 46 102 10640
10.324208 -2.1390979 -1.3921946 467 4093630 5280 47 129 10635
10.020485 -3.257714 -1.478779 57 4093630 648 48 84 10640
10.067764 -2.8698967 -1.5707403 97 4093630 1082 49 52 10586
10.155297 -2.4990087 -1.6715841 93 4093630 1048 50 70 10591
10.162166 -2.1084836 -1.7613715 83 4093630 924 51 71 10527
10.032752 -3.2715793 -1.8808612 277 4093630 3184 52 99 10719
11.174745 -3.1915667 -2.1839473 15 4093630 212 53 100 11825
13.065502 -3.2195036 -2.6614945 195 4093630 3672 54 100 13717
13.153873 -2.7289748 -2.7967169 346 4093630 6523 55 65 13722
14.160881 -4.626472 -3.2318366 42 4093630 974 56 127 15244
13.643148 -3.9042835 -3.2175608 115 4093630 2443 57 73 14551
10.591622 -2.6120653 -2.5848 148 4093630 1856 58 37 11211
10.636594 -2.2076943 -2.6883922 28 4093630 355 59 75 11191
10.569515 -3.4668283 -2.8545957 54 4093630 708 60 34 11484
1.2955647 -0.37192854 -0.35945314 43 4093630 8 61 56 1395
13.956877 -3.4448342 -3.9856589 354 4093630 7875 62 129 14918
14.015903 -2.9029684 -4.1289082 283 4093630 6287 63 311 14897
1.6347661 -0.53828019 0.53721839 228 4191370 74 0 1 1803
1.6255766 -0.46745294 0.50768536 239 4191370 74 1 36 1766
1.669084 -0.41278407 0.49786386 182 4191370 58 2 54 1790
1.6436583 -0.34137827 0.46893236 201 4191370 61 3 34 1743
1.5875324 -0.52183706 0.45142916 171 4191370 51 4 24 1731
1.5226185 -0.43856555 0.411172 204 4191370 55 5 4 1637
1.5578655 -0.38591328 0.39980268 166 4191370 45 6 51 1654
1.5509297 -0.32375714 0.37873417 199 4191370 53 7 51 1629
1.6747519 -0.55015069 0.4062289 151 4191370 49 8 39 1809
1.8349606 -0.52776766 0.42000753 175 4191370 67 9 6 1955
1.8056206 -0.44832399 0.39056557 201 4191370 73 10 41 1901
1.7984409 -0.37706333 0.36784452 174 4191370 61 11 12 1874
1.9995966 -0.65651315 0.40379909 97 4191370 44 12 143 2143
1.9788784 -0.56998384 0.37390959 44 4191370 19 13 95 2093
8.1253347 -2.0191245 1.4377475 46 4191370 331 14 129 8495
8.0228233 -1.6841215 1.3308181 463 4191370 3195 15 78 8305
6.4829488 -2.1286252 1.0514508 425 4191370 2024 16 50 6904
6.4878759 -1.8703218 0.97419316 435 4191370 2026 17 85 6822
6.5336337 -1.627345 0.90654176 465 4191370 2148 18 78 6794
6.5667629 -1.3826594 0.83907932 489 4191370 2239 19 69 6763
6.3744903 -2.093137 0.7840125 444 4191370 2027 20 98 6755
6.4009218 -1.8463436 0.71359712 438 4191370 1967 21 94 6700
6.4515781 -1.6101365 0.64835376 455 4191370 2033 22 64 6681
6.4765573 -1.3673263 0.58365571 489 4191370 2159 23 123 6645
6.2577763 -2.0561435 0.52742535 451 4191370 1971 24 66 6608
6.2993989 -1.8188459 0.46228582 492 4191370 2128 25 60 6573
6.3316302 -1.5804355 0.39765468 491 4191370 2098 26 130 6538
6.3691688 -1.3486029 0.33515602 491 4191370 2087 27 102 6519
6.1664863 -2.0294876 0.28219244 498 4191370 2104 28 79 6498
6.2378087 -1.803422 0.22005574 474 4191370 2002 29 76 6497
6.2420101 -1.5643165 0.15873 509 4191370 2107 30 51 6437
6.2815175 -1.3324494 0.095941238 530 4191370 2186 31 104 6422
6.4513054 -2.1236002 0.047416721 350 4191370 1615 32 97 6792
6.4184098 -1.8581853 -0.016910303 404 4191370 1806 33 70 6682
6.4547119 -1.6184599 -0.079445854 360 4191370 1596 34 85 6655
6.4461508 -1.3717223 -0.14138821 422 4191370 1834 35 97 6592
7.1889777 -2.3703172 -0.2247946 341 4191370 1955 36 128 7573
7.1453114 -2.0743074 -0.29103005 406 4191370 2253 37 71 7446
7.120122 -1.7884759 -0.35738015 472 4191370 2547 38 168 7350
7.1095533 -1.5127629 -0.42280278 586 4191370 3109 39 79 7281
7.9418759 -2.6254768 -0.55513614 62 4191370 436 40 108 8383
9.2013836 -2.67572 -0.72606486 530 4191370 4894 41 124 9610
8.8125439 -2.2162051 -0.77583051 56 4191370 464 42 134 9120
9.2873278 -1.9814004 -0.90117991 474 4191370 4317 43 182 9539
10.129876 -3.3527231 -1.1015382 209 4191370 2405 44 118 10727
9.1286049 -2.658531 -1.0711814 163 4191370 1496 45 64 9568
8.6934395 -2.1910927 -1.0955606 40 4191370 325 46 135 9032
10.345792 -2.209861 -1.3969073 398 4191370 4530 47 130 10671
10.011586 -3.3228807 -1.4804468 71 4191370 809 48 81 10652
10.004395 -2.9183242 -1.5636181 79 4191370 872 49 54 10538
10.116795 -2.5554693 -1.6677963 85 4191370 954 50 60 10567
10.149036 -2.1707978 -1.7613715 69 4191370 767 51 96 10527
10.079742 -3.3554657 -1.893495 191 4191370 2225 52 111 10791
6.015655 -1.7580963 -1.1777617 14 4191370 58 53 87 6377
10.888529 -2.754046 -2.221437 81 4191370 1068 54 60 11449
13.079439 -2.7973487 -2.7844882 383 4191370 7157 55 63 13662
9.4153042 -3.1401215 -2.1531441 45 4191370 464 56 121 10156
14.090652 -4.1260514 -3.3290067 46 4191370 1041 57 125 15055
10.552755 -2.6712744 -2.5792665 53 4191370 658 58 52 11187
10.508939 -2.2485452 -2.6595647 28 4191370 346 59 86 11071
10.559066 -3.5353067 -2.8575785 422 4191370 5574 60 30 11496
1.3043829 -0.38313866 -0.36254519 49 4191370 10 61 54 1407
10.639835 -2.6954911 -3.0430789 73 4191370 948 62 108 11390
13.986551 -2.9865062 -4.1255827 377 4191370 8355 63 102 14885
1.6422906 -0.55195004 0.5407939 238 4288740 78 0 7 1815
1.6226778 -0.47741848 0.50768536 257 4288740 80 1 20 1766
1.6888641 -0.42868939 0.50453913 202 4288740 66 2 45 1814
1.6641356 -0.35629648 0.47538927 203 4288740 63 3 30 1767
1.4744704 -0.49471766 0.42013425 161 4288740 42 4 33 1611
1.5533236 -0.45774987 0.4202143 107 4288740 30 5 1 1673
1.6231791 -0.41267982 0.41720644 103 4288740 31 6 71 1726
1.6173743 -0.34799743 0.39547381 132 4288740 38 7 47 1701
1.804387 -0.6050266 0.43856549 203 4288740 77 8 54 1953
1.8541739 -0.54563391 0.42516363 231 4288740 90 9 19 1979
1.8824981 -0.47969404 0.40782359 215 4288740 85 10 26 1985
1.8996037 -0.41045725 0.38904369 252 4288740 99 11 9 1982
7.4038558 -2.4812837 1.4981831 108 4288740 683 12 115 7951
8.0117979 -2.3610015 1.5165401 32 4288740 227 13 57 8489
8.4451342 -2.1536975 1.4966451 15 4288740 119 14 88 8843
8.000761 -1.7308124 1.3288951 525 4288740 3613 15 75 8293
6.4585204 -2.1645949 1.0496233 457 4288740 2169 16 40 6892
6.4762778 -1.9100953 0.97419316 444 4288740 2068 17 83 6822
6.535048 -1.670349 0.90814292 466 4288740 2160 18 83 6806
6.5581555 -1.4229263 0.83907932 442 4288740 2023 19 72 6763
6.361527 -2.1322107 0.7840125 474 4288740 2164 20 85 6755
6.4123602 -1.8923385 0.71615332 479 4288740 2167 21 73 6724
6.430007 -1.6467292 0.6471892 465 4288740 2070 22 63 6669
6.4563651 -1.4044989 0.58260173 462 4288740 2033 23 120 6633
6.2450423 -2.094502 0.52742535 441 4288740 1927 24 77 6608
6.2996001 -1.8608552 0.46312979 476 4288740 2066 25 60 6585
6.3334169 -1.6222279 0.39838457 503 4288740 2158 26 107 6550
6.360774 -1.387658 0.33515602 527 4288740 2240 27 93 6519
6.1425533 -2.0634687 0.28167132 523 4288740 2202 28 67 6486
6.2151251 -1.8382609 0.2196493 423 4288740 1777 29 57 6485
6.2090573 -1.5966121 0.15813819 526 4288740 2162 30 30 6413
6.2615013 -1.3684052 0.095761962 504 4288740 2072 31 75 6410
6.4722786 -2.1746104 0.047668051 353 4288740 1647 32 88 6828
6.4529119 -1.9111639 -0.017031778 436 4288740 1976 33 82 6730
6.4330387 -1.6550452 -0.079302602 364 4288740 1608 34 79 6643
6.4376125 -1.4112494 -0.14138821 397 4288740 1726 35 86 6592
7.2084026 -2.4258606 -0.2258632 361 4288740 2089 36 134 7609
7.201417 -2.1385925 -0.29384416 390 4288740 2207 37 69 7518
7.1554403 -1.8440953 -0.35971406 400 4288740 2189 38 127 7398
7.1703491 -1.5717483 -0.42698377 525 4288740 2840 39 83 7353
9.2416677 -3.1182027 -0.64731669 545 4288740 5208 40 107 9775
8.5769329 -2.5513129 -0.67801309 64 4288740 517 41 97 8974
8.6714296 -2.2373776 -0.76460141 296 4288740 2390 42 128 8988
8.9016237 -1.9562937 -0.8649022 225 4288740 1890 43 63 9155
10.165658 -3.4339161 -1.1076995 156 4288740 1816 44 112 10787
9.0549784 -2.6974707 -1.0644641 312 4288740 2821 45 116 9508
10.271262 -2.6558988 -1.2964294 101 4288740 1156 46 96 10688
10.332038 -2.2733002 -1.3969073 95 4288740 1082 47 113 10671
9.9684982 -3.3766229 -1.4771111 145 4288740 1640 48 88 10628
9.6565199 -2.8812571 -1.5119823 53 4288740 547 49 38 10190
10.135336 -2.6264141 -1.6734781 69 4288740 771 50 50 10603
10.158633 -2.2381213 -1.7653872 87 4288740 973 51 69 10551
10.081336 -3.4248509 -1.8977063 199 4288740 2330 52 94 10815
10.581061 -3.1629496 -2.0753503 284 4288740 3587 53 110 11237
10.791663 -2.8001091 -2.2051384 292 4288740 3776 54 75 11365
13.257071 -2.9205174 -2.826066 92 4288740 1776 55 75 13866
9.3181467 -3.1713846 -2.1353357 122 4288740 1240 56 91 10072
10.556043 -3.1614931 -2.4984689 34 4288740 437 57 88 11299
10.547468 -2.7389095 -2.5820332 37 4288740 470 58 59 11199
17.968719 -3.9601324 -4.5535231 160 4288740 5738 59 150 18955
10.559174 -3.6075451 -2.8635445 160 4288740 2117 60 54 11520
10.596509 -3.1832883 -2.9506075 214 4288740 2802 61 39 11451
1.3113321 -0.34078836 -0.37564257 46 4288740 9 62 89 1406
1.3109334 -0.28834134 -0.38719776 52 4288740 10 63 111 1397
1.6063664 -0.55086911 0.53006738 213 4386670 67 0 25 1779
1.630724 -0.49067774 0.5111351 260 4386670 82 1 29 1778
1.6415836 -0.42742649 0.49118859 190 4386670 59 2 48 1766
1.661918 -0.36650074 0.47538927 217 4386670 68 3 32 1767
1.6467704 -0.56379342 0.47020611 96 4386670 31 4 49 1803
1.5616069 -0.47062388 0.42322835 77 4386670 22 5 8 1685
1.643151 -0.4285084 0.4230077 141 4386670 43 6 65 1750
1.592419 -0.35286495 0.38989392 170 4386670 48 7 43 1677
1.8006406 -0.61608678 0.43856549 230 4386670 88 8 12 1953
1.8507911 -0.55700064 0.42516363 249 4386670 97 9 21 1979
1.8795193 -0.49123579 0.40782359 256 4386670 101 10 31 1985
1.8625925 -0.4144384 0.38197732 256 4386670 97 11 26 1946
7.2323775 -2.4732792 1.4665275 136 4386670 825 12 100 7783
8.4380455 -2.5429869 1.6001472 48 4386670 381 13 57 8957
0 -0 0 7 4386670 0 14 91 0
8.0015516 -1.7824471 1.3308181 516 4386670 3562 15 64 8305
6.445117 -2.2041829 1.0496233 434 4386670 2060 16 51 6892
6.4758062 -1.9532267 0.97590667 470 4386670 2197 17 75 6834
6.5131717 -1.7074001 0.90654176 426 4386670 1968 18 76 6794
6.5260592 -1.4579474 0.83610165 438 4386670 1991 19 71 6739
6.3708797 -2.1789184 0.78679806 423 4386670 1945 20 102 6779
6.4006281 -1.9316484 0.71615332 442 4386670 2000 21 80 6724
6.3966789 -1.680084 0.64486021 477 4386670 2104 22 57 6645
6.4592905 -1.4467006 0.58365571 491 4386670 2168 23 132 6645
6.2547078 -2.1405275 0.52934098 416 4386670 1832 24 69 6632
6.2766047 -1.8960123 0.46228582 492 4386670 2127 25 69 6573
6.311759 -1.6580154 0.39765468 511 4386670 2184 26 116 6538
6.375525 -1.4319131 0.3363899 487 4386670 2085 27 94 6543
6.1411171 -2.1050069 0.28219244 539 4386670 2278 28 72 6498
6.2266879 -1.8833058 0.22046219 451 4386670 1913 29 61 6509
6.2455435 -1.6469154 0.15932183 486 4386670 2031 30 58 6461
6.288105 -1.4147002 0.096299775 548 4386670 2279 31 64 6446
6.5269198 -2.2376316 0.048170697 359 4386670 1710 32 91 6900
6.4984875 -1.9681135 -0.017183622 400 4386670 1846 33 85 6790
6.5155797 -1.718974 -0.080448627 355 4386670 1613 34 90 6739
6.5107527 -1.4692093 -0.14318986 413 4386670 1842 35 76 6676
7.2841387 -2.5012085 -0.22871284 343 4386670 2036 36 125 7705
7.2455273 -2.2001595 -0.29618931 389 4386670 2237 37 66 7578
7.2135181 -1.9063399 -0.36321491 397 4386670 2214 38 132 7470
7.1839418 -1.6209888 -0.42837745 432 4386670 2353 39 81 7377
9.3016119 -3.2021322 -0.6528793 499 4386670 4851 40 107 9859
7.9658265 -2.4228325 -0.63086802 209 4386670 1458 41 99 8350
9.1430073 -2.4189839 -0.80747622 389 4386670 3506 42 209 9492
8.912756 -2.0161479 -0.86716956 449 4386670 3783 43 109 9179
10.144397 -3.4962268 -1.1076995 237 4386670 2758 44 118 10787
8.4222717 -2.565356 -0.99191749 32 4386670 253 45 95 8860
10.231746 -2.7127666 -1.2935183 259 4386670 2946 46 112 10664
10.306292 -2.3340259 -1.3953364 78 4386670 889 47 87 10659
9.981287 -3.4493697 -1.4821146 443 4386670 5041 48 85 10664
9.3435402 -2.8504226 -1.465688 53 4386670 521 49 71 9878
10.050316 -2.6702969 -1.6621143 90 4386670 994 50 44 10531
10.121634 -2.2951787 -1.7613715 69 4386670 769 51 70 10527
10.071295 -3.4905131 -1.8998119 203 4386670 2382 52 88 10827
13.437493 -4.1067953 -2.6404986 152 4386670 3105 53 124 14297
10.842536 -2.8844311 -2.2191086 108 4386670 1419 54 61 11437
13.479504 -3.056361 -2.8774269 108 4386670 2144 55 52 14118
9.3428259 -3.243886 -2.1455121 143 4386670 1465 56 110 10120
10.570016 -3.2364833 -2.5064292 62 4386670 802 57 68 11335
1.4922625 -0.39729217 -0.36589757 29 4386670 7 58 57 1587
17.875921 -4.0548511 -4.5362263 233 4386670 8322 59 186 18883
10.591719 -3.6913936 -2.8784587 27 4386670 358 60 33 11580
10.610028 -3.2584593 -2.9598839 332 4386670 4384 61 87 11487
10.650653 -2.837764 -3.0559032 136 4386670 1774 62 44 11438
1.3766112 -0.31165478 -0.40715355 52 4386670 11 63 107 1469
1.6029561 -0.5607152 0.53006738 240 4485380 76 0 1 1779
1.6386679 -0.50405359 0.51458484 249 4485380 80 1 25 1790
1.6723397 -0.44640929 0.50120151 204 4485380 66 2 47 1802
1.648367 -0.37413299 0.47216082 235 4485380 72 3 26 1755
1.5776581 -0.5509699 0.45142916 79 4485380 24 4 31 1731
1.6141921 -0.49729589 0.43829882 63 4485380 19 5 27 1745
1.4830036 -0.39647856 0.38239893 212 4485380 53 6 69 1582
1.5674658 -0.35743955 0.38431406 204 4485380 56 7 40 1653
1.8520285 -0.64639014 0.45203909 219 4485380 89 8 34 2013
1.8697418 -0.57523894 0.43031973 227 4485380 91 9 18 2003
1.8878136 -0.5057984 0.41028902 232 4485380 92 10 44 1997
1.8714842 -0.42848527 0.38433278 246 4485380 94 11 23 1958
7.1169186 -2.4826741 1.4461772 145 4485380 855 12 98 7675
8.3207293 -2.5634274 1.5808532 99 4485380 779 13 62 8849
8.326683 -2.2326663 1.4803975 12 4485380 95 14 71 8747
7.9558277 -1.823571 1.3250492 495 4485380 3386 15 79 8269
6.4426694 -2.2475946 1.0514508 414 4485380 1971 16 56 6904
6.4863997 -1.9999236 0.97933394 482 4485380 2269 17 73 6858
6.5025725 -1.7473321 0.90654176 460 4485380 2121 18 45 6794
6.5402002 -1.5032978 0.83907932 458 4485380 2096 19 82 6763
6.3236294 -2.2061899 0.78261977 440 4485380 2002 20 85 6743
6.3886552 -1.9708856 0.71615332 435 4485380 1968 21 93 6724
6.4093151 -1.7255113 0.6471892 472 4485380 2101 22 76 6669
6.4386439 -1.4836228 0.58260173 449 4485380 1976 23 99 6633
6.2640424 -2.1867502 0.5312565 444 4485380 1969 24 71 6656
6.2762899 -1.9380208 0.46312979 500 4485380 2169 25 79 6585
6.3130326 -1.6998265 0.39838457 484 4485380 2076 26 127 6550
6.343266 -1.46561 0.33515602 515 4485380 2189 27 95 6519
6.1394024 -2.1466055 0.28271356 490 4485380 2078 28 73 6510
6.1920986 -1.9143916 0.2196493 465 4485380 1954 29 44 6485
6.2121587 -1.6789464 0.15873 507 4485380 2099 30 46 6437
6.2559276 -1.4478459 0.095941238 534 4485380 2204 31 82 6422
6.5583758 -2.2934825 0.048505798 361 4485380 1744 32 77 6948
6.5436053 -2.0256937 -0.017335465 385 4485380 1808 33 71 6850
6.539659 -1.7683166 -0.080878384 375 4485380 1723 34 82 6775
6.5133018 -1.5118436 -0.14344725 432 4485380 1934 35 60 6688
7.3139362 -2.5617161 -0.23013766 357 4485380 2144 36 144 7753
7.2776985 -2.2587931 -0.29806539 380 4485380 2213 37 62 7626
7.247961 -1.9630991 -0.36554882 387 4485380 2185 38 155 7518
7.2555475 -1.6839975 -0.43325526 378 4485380 2107 39 63 7461
9.3721685 -3.2908809 -0.65923661 345 4485380 3421 40 92 9955
9.2648363 -2.8801551 -0.7351312 195 4485380 1843 41 155 9730
9.3010893 -2.5219738 -0.82278866 492 4485380 4599 42 156 9672
9.1678352 -2.1330636 -0.89324421 132 4485380 1183 43 76 9455
7.8818021 -2.7706544 -0.86247963 70 4485380 494 44 113 8399
7.905406 -2.46103 -0.93280554 29 4485380 204 45 63 8332
10.237897 -2.781743 -1.2964294 67 4485380 767 46 99 10688
10.257016 -2.3891237 -1.3906237 279 4485380 3148 47 117 10623
9.9487267 -3.5065982 -1.4804468 542 4485380 6151 48 102 10652
10.01696 -3.1231723 -1.5743015 68 4485380 761 49 49 10610
10.09091 -2.7474794 -1.6715841 87 4485380 971 50 53 10591
10.10736 -2.3572404 -1.7613715 80 4485380 881 51 54 10527
9.9605799 -3.5207469 -1.8829669 198 4485380 2280 52 119 10731
10.372591 -3.2398155 -2.0421062 35 4485380 431 53 86 11057
10.835991 -2.9540017 -2.221437 74 4485380 976 54 60 11449
13.552026 -3.1603568 -2.8969927 309 4485380 6233 55 57 14214
9.3559093 -3.3128946 -2.1531441 75 4485380 776 56 92 10156
10.516451 -3.2907937 -2.4984689 44 4485380 568 57 61 11299
13.881299 -3.7870469 -3.4092798 57 4485380 1235 58 57 14787
17.91877 -4.1803379 -4.5535231 216 4485380 7746 59 162 18955
10.459348 -3.7173882 -2.8486302 63 4485380 832 60 71 11460
10.545584 -3.3096123 -2.9475155 46 4485380 608 61 62 11439
10.63304 -2.9030619 -3.0559032 359 4485380 4699 62 91 11438
10.661436 -2.4825387 -3.1577265 161 4485380 2095 63 72 11393
1.6102746 -0.57438874 0.53364289 217 4581370 70 0 20 1791
1.6574734 -0.52099174 0.52148432 259 4581370 85 1 32 1814
1.658451 -0.45362112 0.49786386 180 4581370 58 2 28 1790
1.6572953 -0.38686743 0.47538927 251 4581370 78 3 34 1767
1.6069877 -0.5722996 0.46081764 74 4581370 23 4 41 1767
1.6111104 -0.507191 0.43829882 72 4581370 22 5 32 1745
1.480543 -0.40557066 0.38239893 252 4581370 63 6 51 1582
1.5652431 -0.36705059 0.38431406 184 4581370 50 7 44 1653
1.8590441 -0.66166282 0.45473382 227 4581370 93 8 51 2025
1.8438164 -0.57967079 0.42516363 241 4581370 94 9 27 1979
1.8620244 -0.51115447 0.40535817 261 4581370 102 10 33 1973
1.8802733 -0.44265684 0.38668823 232 4581370 90 11 20 1970
6.90169 -2.4551978 1.4054772 155 4581370 863 12 112 7459
8.0570784 -2.5364356 1.5336902 98 4581370 726 13 59 8585
8.6549568 -2.3777063 1.541326 34 4581370 286 14 59 9107
7.9790764 -1.8805043 1.3308181 442 4581370 3051 15 66 8305
6.4399314 -2.291059 1.0532784 435 4581370 2079 16 34 6916
6.462678 -2.0361168 0.9776203 430 4581370 2017 17 84 6846
6.4687967 -1.780885 0.90333939 450 4581370 2064 18 83 6770
6.5424404 -1.5461379 0.84056807 490 4581370 2250 19 92 6775
6.3548908 -2.2609301 0.78819084 408 4581370 1883 20 91 6791
