# .PCD v0.7 - Point Cloud Data file format
VERSION 0.7
FIELDS x y z intensity t reflectivity ring noise range
SIZE 4 4 4 4 4 2 1 2 4
TYPE F F F F U U U U U
COUNT 1 1 1 1 1 1 1 1 1
WIDTH 770
HEIGHT 1
VIEWPOINT 0 0 0 1 0 0 0
POINTS 770
DATA ascii
-2.7174218 5.5422187 1.6017373 893 67596070 3633 5 61 6377
-2.9941387 5.5666966 1.5745555 783 67596070 3322 6 131 6514
-3.2523766 5.5443592 1.5365586 925 67596070 4041 7 106 6609
-2.5340869 5.6910343 1.4356115 855 67596070 3495 8 108 6393
-2.798233 5.7014952 1.397089 757 67596070 3201 9 134 6503
-3.0422468 5.6634822 1.3496187 885 67596070 3821 10 59 6569
-3.3300574 5.6881504 1.3194509 650 67596070 2935 11 44 6722
-2.5684092 5.7656775 1.2110205 861 67596070 3556 12 143 6427
-2.8298326 5.7714825 1.1671053 861 67596070 3676 13 98 6533
-3.0933926 5.7613482 1.1229492 608 67596070 2677 14 106 6635
-2.8598285 4.8876801 0.91931409 83 67596070 275 15 64 5737
-2.6220477 5.886364 0.99296921 895 67596070 3807 16 69 6520
-2.8927791 5.9032502 0.94848877 741 67596070 3270 17 102 6642
-2.7098453 5.0535622 0.77204162 104 67596070 349 18 80 5786
-2.6586297 4.5501895 0.65893096 66 67596070 187 19 76 5311
-2.6814377 6.0199742 0.7700848 786 67596070 3460 20 119 6635
-2.4634082 5.0290389 0.59984767 234 67596070 743 21 101 5632
-2.4572487 4.587687 0.50744528 103 67596070 280 22 57 5229
-2.8241549 4.8394918 0.49406523 685 67596070 2167 23 138 5625
-2.2557135 5.0668168 0.44409725 550 67596070 1704 24 83 5564
-2.2775106 4.6526127 0.36522901 493 67596070 1330 25 93 5193
-2.6003616 4.8552866 0.33561617 449 67596070 1366 26 133 5518
-2.7047839 4.6412616 0.27654612 696 67596070 2013 27 147 5379
-2.0578115 4.6283727 0.22017786 975 67596070 2507 28 86 5070
-2.4734297 5.0573153 0.19079176 611 67596070 1940 29 59 5633
-2.5409145 4.7550516 0.13298601 554 67596070 1610 30 55 5393
-2.5790672 4.4292693 0.07657969 725 67596070 1906 31 95 5126
-2.320246 5.2193694 0.03987696 147 67596070 479 32 119 5712
-2.3645494 4.8391857 -0.013630483 523 67596070 1517 33 110 5386
-2.4231372 4.5359769 -0.061395943 656 67596070 1736 34 97 5143
-2.4623322 4.2350769 -0.10509741 740 67596070 1777 35 102 4900
-2.2003257 4.9561338 -0.16103402 565 67596070 1662 36 151 5425
-2.2470703 4.6073174 -0.20050819 741 67596070 1951 37 76 5130
-2.3108559 4.3301558 -0.23893414 770 67596070 1859 38 231 4914
-2.3649802 4.0674734 -0.27368075 750 67596070 1667 39 91 4713
-2.1028535 4.7466307 -0.34455127 785 67596070 2125 40 98 5203
-2.1476941 4.4086361 -0.37156993 749 67596070 1811 41 123 4918
-2.205538 4.1355877 -0.40016517 774 67596070 1713 42 183 4704
-2.2671993 3.9041617 -0.42843598 731 67596070 1504 43 87 4535
-2.0093372 4.5398207 -0.51251769 804 67596070 2003 44 100 4991
-2.0628836 4.2388644 -0.53111249 737 67596070 1659 45 76 4744
-2.1259978 3.9914746 -0.55263215 776 67596070 1610 46 151 4556
-2.2050819 3.7993317 -0.58004838 658 67596070 1291 47 139 4431
-1.9090142 4.3229365 -0.66322684 785 67596070 1788 48 105 4772
-1.977613 4.0681581 -0.67868567 729 67596070 1526 49 80 4574
-2.0400779 3.8350015 -0.6942969 761 67596070 1473 50 69 4399
-2.1561964 3.7174933 -0.72934532 248 67596070 472 51 63 4359
-1.8348505 4.1650224 -0.81119704 810 67596070 1731 52 121 4623
-1.9027792 3.9192612 -0.8187263 765 67596070 1504 53 104 4433
-2.0227504 3.8053117 -0.85236895 306 67596070 591 54 90 4393
-2.1131868 3.6431942 -0.87680191 75 67596070 138 55 51 4302
-1.7628222 4.007587 -0.94979185 786 67596070 1577 56 135 4480
-1.8563401 3.8287089 -0.96475971 627 67596070 1194 57 99 4363
-1.9134344 3.6013281 -0.96627384 561 67596070 986 58 63 4191
-0 0 -0 3 67596070 0 59 89 0
-1.6943332 3.8641386 -1.0827777 751 67596070 1426 60 76 4356
-1.798973 3.7183208 -1.1015499 289 67596070 527 61 57 4275
-1.8449816 3.4741008 -1.0905925 273 67596070 456 62 65 4082
-0 0 -0 4 67596070 0 63 46 0
-2.4098191 5.5130382 1.8780297 793 67693490 3151 0 107 6303
-2.6463609 5.4760289 1.8254825 906 67693490 3654 1 97 6350
-2.9015312 5.4697042 1.7928661 822 67693490 3417 2 72 6446
-3.1548641 5.4418244 1.7570839 891 67693490 3803 3 65 6531
-2.4492369 5.5954971 1.6500244 898 67693490 3595 4 105 6327
-2.6833642 5.5587883 1.6017373 912 67693490 3710 5 58 6377
-2.9435675 5.5540977 1.5658536 844 67693490 3542 6 117 6478
-3.2007654 5.5339022 1.5281889 894 67693490 3863 7 100 6573
-2.4991198 5.7064762 1.4356115 878 67693490 3588 8 120 6393
-2.7479 5.6869001 1.3893548 809 67693490 3383 9 130 6467
-2.9964511 5.6612825 1.3446878 870 67693490 3729 10 62 6545
-3.2715635 5.6677136 1.310029 824 67693490 3672 11 68 6674
-2.528254 5.770534 1.2087593 885 67693490 3641 12 152 6415
-2.7841005 5.7674713 1.1628177 881 67693490 3734 13 93 6509
-3.063514 5.7906747 1.1249802 791 67693490 3495 14 108 6647
-2.7705941 4.8025355 0.90008485 501 67693490 1582 15 72 5617
-2.581121 5.8914785 0.99114168 863 67693490 3657 16 86 6508
-2.830699 5.867403 0.93992072 887 67693490 3843 17 115 6582
-2.5621159 4.8492746 0.73841661 639 67693490 1958 18 82 5534
-2.5831091 4.4838753 0.64702034 375 67693490 1020 19 102 5215
-2.6396666 6.0253963 0.76869202 867 67693490 3804 20 107 6623
-2.391041 4.9580808 0.58962297 618 67693490 1895 21 85 5536
-2.3287132 4.41255 0.48648366 1203 67693490 3023 22 126 5013
-2.8122911 4.8878121 0.49722722 675 67693490 2162 23 159 5661
-2.2197835 5.0696049 0.44313946 627 67693490 1933 24 94 5552
-2.1761646 4.5155325 0.35341337 1199 67693490 3027 25 370 5025
-2.6264226 4.9770837 0.34291485 517 67693490 1642 26 161 5638
-2.6583436 4.6265974 0.27469528 704 67693490 2009 27 139 5343
-2.0245702 4.6299276 0.21965672 783 67693490 2004 28 110 5058
-2.4683666 5.1264253 0.19282398 669 67693490 2170 29 62 5693
-2.4669802 4.6856332 0.13061875 737 67693490 2067 30 54 5297
-2.5518413 4.4450111 0.07657969 753 67693490 1979 31 92 5126
-2.2737556 5.2005234 0.039625634 140 67693490 451 32 128 5676
-2.3192065 4.8211617 -0.013539379 614 67693490 1757 33 141 5350
-2.4064369 4.5719962 -0.061682455 680 67693490 1816 34 109 5167
-2.4482329 4.2709227 -0.10561218 755 67693490 1830 35 106 4924
-2.1554749 4.936564 -0.15996541 568 67693490 1649 36 152 5389
-2.2343285 4.6534467 -0.20191528 745 67693490 1989 37 83 5166
-2.2953994 4.3654714 -0.24010111 762 67693490 1859 38 197 4938
-2.3459363 4.0923014 -0.27437758 757 67693490 1691 39 104 4725
-2.073689 4.7594442 -0.34455127 784 67693490 2122 40 124 5203
-2.1361258 4.4540987 -0.37428984 754 67693490 1850 41 133 4954
-2.1968057 4.1807961 -0.40322769 767 67693490 1722 42 149 4740
-2.2491369 3.9283669 -0.42956969 807 67693490 1669 43 90 4547
-1.9862075 4.5630093 -0.51374996 811 67693490 2030 44 121 5003
-2.0471399 4.2729502 -0.53379941 729 67693490 1658 45 88 4768
-2.1180716 4.0360861 -0.55699885 773 67693490 1630 46 141 4592
-2.1699109 3.7921386 -0.57690656 747 67693490 1450 47 157 4407
-1.9013882 4.3781686 -0.66989797 785 67693490 1824 48 123 4820
-1.973105 4.123034 -0.68580788 756 67693490 1616 49 62 4622
-2.0275099 3.868438 -0.69808489 763 67693490 1493 50 96 4423
-2.1333456 3.7306533 -0.72934532 486 67693490 924 51 86 4359
-1.8280451 4.2195635 -0.81961954 788 67693490 1720 52 107 4671
-1.8888665 3.9521441 -0.82315886 764 67693490 1518 53 95 4457
-1.993902 3.8072231 -0.85004061 562 67693490 1079 54 97 4381
-2.0616326 3.6051004 -0.86457318 320 67693490 575 55 51 4242
-1.7428548 4.0290914 -0.95233595 767 67693490 1547 56 127 4492
-1.8277717 3.8294656 -0.96210617 689 67693490 1304 57 110 4351
-1.8858858 3.6026564 -0.96350724 534 67693490 933 58 64 4179
-1.9865202 3.4744577 -0.99046028 225 67693490 382 59 55 4123
-1.6843978 3.9064822 -1.0917263 790 67693490 1525 60 70 4392
-1.7860951 3.7502258 -1.1077341 172 67693490 317 61 39 4299
-1.8772401 3.5878162 -1.122653 190 67693490 336 62 76 4202
-1.943851 3.3965259 -1.128888 43 67693490 71 63 32 4073
-2.3668995 5.5066729 1.8708787 808 67790670 3186 0 112 6279
-2.612711 5.4921637 1.8254825 886 67790670 3573 1 109 6350
-2.8732541 5.4976201 1.7962037 854 67790670 3563 2 67 6458
-3.1214144 5.4610796 1.7570839 891 67790670 3802 3 81 6531
-2.4056973 5.5891385 1.6437656 912 67790670 3624 4 98 6303
-2.6442204 5.5646572 1.5987232 875 67790670 3546 5 66 6365
-2.9040432 5.5617323 1.562953 857 67790670 3583 6 123 6466
-3.1609683 5.5432987 1.525399 908 67790670 3910 7 86 6561
-2.4501832 5.6894836 1.4275273 868 67790670 3508 8 110 6357
-2.6978517 5.6719031 1.3816206 851 67790670 3520 9 121 6431
-2.956228 5.6691489 1.3422225 891 67790670 3805 10 69 6533
-3.2192664 5.657001 1.3029627 878 67790670 3870 11 74 6638
-2.497462 5.796762 1.2110205 871 67790670 3596 12 164 6427
-2.7435923 5.7737813 1.1606739 868 67790670 3665 13 112 6497
-3.022459 5.7988753 1.1229492 847 67790670 3728 14 125 6635
-2.7176504 4.7782607 0.89239323 617 67790670 1915 15 65 5569
-2.5402305 5.8963132 0.98931414 881 67790670 3719 16 79 6496
-2.7895489 5.8739328 0.93820709 853 67790670 3682 17 118 6570
-2.5378044 4.8754535 0.74001777 641 67790670 1972 18 99 5546
-2.4496996 4.3132701 0.62022138 1069 67790670 2670 19 169 4999
-2.5837831 5.9976945 0.76312095 839 67790670 3628 20 107 6575
-2.3503401 4.9511008 0.58706677 611 67790670 1857 21 108 5512
-2.2850661 4.3949656 0.48299009 1126 67790670 2789 22 140 4977
-2.7940428 4.9257708 0.49933526 658 67790670 2126 23 144 5685
-2.1839051 5.0721436 0.44218168 559 67790670 1716 24 103 5540
-2.1945918 4.6261358 0.36100915 390 67790670 1028 25 89 5133
-2.6289842 5.0568695 0.347294 547 67790670 1782 26 143 5710
-2.6121855 4.6115394 0.27284443 751 67790670 2115 27 120 5307
-2.0813673 4.8405094 0.22903708 170 67790670 474 28 87 5274
-2.4882305 5.2498488 0.19688842 303 67790670 1025 29 59 5813
-2.465801 4.7539277 0.13209829 707 67790670 2028 30 48 5357
-2.5422487 4.4919114 0.07711751 750 67790670 1999 31 97 5162
-2.1754494 5.0600405 0.038452785 123 67790670 374 32 92 5508
-2.304987 4.8678379 -0.013630483 640 67790670 1857 33 108 5386
-2.405956 4.6399369 -0.062398721 677 67790670 1850 34 113 5227
-2.4278836 4.296309 -0.10586956 783 67790670 1908 35 98 4936
-2.1535373 5.0158277 -0.16210264 710 67790670 2117 36 146 5461
-2.226228 4.7104325 -0.20379137 755 67790670 2054 37 83 5214
-2.2795961 4.4007587 -0.24126807 767 67790670 1889 38 209 4962
-2.3207822 4.1066184 -0.27437758 774 67790670 1728 39 103 4725
-2.0585926 4.8050971 -0.34693527 806 67790670 2212 40 134 5239
-2.1240797 4.4995837 -0.37700975 769 67790670 1914 41 128 4990
-2.1821043 4.2154331 -0.40526935 779 67790670 1769 42 182 4764
-2.2249906 3.9420934 -0.42956969 786 67790670 1626 43 77 4547
-1.981656 4.6299787 -0.51991123 784 67790670 2010 44 124 5063
-2.0361416 4.3177872 -0.53782976 760 67790670 1754 45 96 4804
-2.098737 4.0595875 -0.55845445 770 67790670 1632 46 119 4604
-2.152447 3.8157434 -0.5784775 774 67790670 1511 47 149 4419
-1.8931555 4.4334683 -0.67656916 786 67790670 1863 48 106 4868
-1.9578832 4.1565351 -0.68936896 754 67790670 1628 49 61 4646
-2.009172 3.8913348 -0.69997889 767 67790670 1509 50 73 4435
-2.0987949 3.7230608 -0.72532964 649 67790670 1220 51 77 4335
-1.80212 4.2307005 -0.81961954 797 67790670 1739 52 101 4671
-1.8796415 3.9956746 -0.82980758 782 67790670 1578 53 129 4493
-1.9651065 3.8089244 -0.84771234 657 67790670 1254 54 106 4369
-2.0337038 3.6074486 -0.86212742 433 67790670 774 55 49 4230
-1.7410488 4.0936685 -0.96505636 757 67790670 1568 56 144 4552
-1.8191682 3.8723853 -0.97006655 746 67790670 1436 57 66 4387
-1.8905035 3.6660504 -0.97734076 436 67790670 784 58 83 4239
-1.9594443 3.4764335 -0.9875775 310 67790670 524 59 84 4111
-1.6740061 3.9488482 -1.1006749 734 67790670 1440 60 66 4428
-1.7728932 3.7821116 -1.1139182 475 67790670 887 61 41 4323
-1.8498921 3.5889885 -1.1194469 333 67790670 584 62 45 4190
-1.8946458 3.3581793 -1.1122581 421 67790670 677 63 44 4013
-2.3375254 5.5316439 1.8744541 821 67888510 3249 0 115 6291
-2.5692151 5.4872732 1.818583 905 67888510 3622 1 116 6326
-2.8130865 5.4639068 1.7795156 828 67888510 3391 2 68 6398
-3.0594792 5.4297838 1.7409416 907 67888510 3800 3 73 6471
-2.3758726 5.6144633 1.6468951 889 67888510 3546 4 101 6315
-2.6149473 5.5912986 1.6017373 867 67888510 3527 5 69 6377
-2.8698623 5.5794468 1.562953 841 67888510 3516 6 124 6466
-3.1211767 5.5524158 1.522609 893 67888510 3831 7 91 6549
-2.4152269 5.7044106 1.4275273 884 67888510 3572 8 118 6357
-2.6629987 5.6883502 1.3816206 841 67888510 3478 9 128 6431
-2.9160209 5.6767349 1.3397571 857 67888510 3646 10 79 6521
-3.1729813 5.6561232 1.2982517 908 67888510 3973 11 72 6614
-2.4526536 5.7902732 1.2064981 865 67888510 3546 12 131 6403
-2.7081132 5.7905068 1.1606739 869 67888510 3669 13 113 6497
-2.9652131 5.7752271 1.1148254 848 67888510 3679 14 121 6587
-2.6766949 4.7741818 0.88854736 572 67888510 1759 15 93 5545
-2.499378 5.9008675 0.98748654 835 67888510 3512 16 81 6484
-2.7584836 5.9016986 0.93992072 855 67888510 3705 17 101 6582
-2.5186937 4.9120979 0.74322015 467 67888510 1449 18 87 5570
-2.5278904 4.5152364 0.64702034 317 67888510 862 19 101 5215
-2.5376365 5.9914851 0.76033545 839 67888510 3601 20 106 6551
-2.3451695 5.0194793 0.59345716 409 67888510 1270 21 99 5572
-2.3941658 4.6746607 0.51210344 147 67888510 410 22 77 5277
-2.798769 5.0054226 0.50565928 352 67888510 1166 23 129 5757
-2.1900456 5.1735711 0.44984403 409 67888510 1300 24 91 5636
-2.2319982 4.7805161 0.37198076 95 67888510 267 25 81 5289
-2.625205 5.1262112 0.35094336 499 67888510 1661 26 129 5770
-2.6481078 4.742579 0.27963084 673 67888510 1990 27 144 5439
-2.0562954 4.8642316 0.22955821 76 67888510 214 28 69 5286
-2.4407613 5.2324114 0.1956691 570 67888510 1904 29 59 5777
-2.4802496 4.8544302 0.13446555 777 67888510 2312 30 63 5453
-2.5380218 4.5493393 0.077834599 754 67888510 2047 31 90 5210
-2.1303451 5.0401344 0.038201459 124 67888510 372 32 94 5472
-2.3054883 4.9471507 -0.013812696 683 67888510 2035 33 129 5458
-2.3883569 4.6759839 -0.062685229 686 67888510 1892 34 118 5251
-2.4306674 4.3635297 -0.10715647 772 67888510 1927 35 102 4996
-2.1273847 5.0399971 -0.16245884 631 67888510 1889 36 166 5473
-2.2073975 4.7457485 -0.20472942 726 67888510 1993 37 77 5238
-2.2525506 4.4146633 -0.24126807 758 67888510 1866 38 228 4962
-2.3188605 4.162643 -0.27716491 762 67888510 1736 39 102 4773
-2.0430129 4.8507423 -0.34931925 791 67888510 2200 40 145 5275
-2.1014724 4.5233836 -0.3779164 756 67888510 1891 41 132 5002
-2.161629 4.2393942 -0.40629014 759 67888510 1730 42 144 4776
-2.2239923 3.9974289 -0.43410438 782 67888510 1651 43 96 4595
-1.9670979 4.6750579 -0.52360803 784 67888510 2038 44 138 5099
-2.0296891 4.3734651 -0.54320359 740 67888510 1742 45 102 4852
-2.090004 4.1042318 -0.56282115 785 67888510 1690 46 136 4640
-2.1347749 3.8392763 -0.58004838 807 67888510 1584 47 147 4431
-1.8751159 4.4669156 -0.67990476 815 67888510 1951 48 108 4892
-1.9423243 4.1900029 -0.69293004 745 67888510 1626 49 64 4670
-2.0067437 3.945838 -0.7075547 758 67888510 1524 50 78 4483
-2.075911 3.7358687 -0.72532964 761 67888510 1431 51 95 4335
-1.7898159 4.2743702 -0.8259365 769 67888510 1704 52 111 4707
-1.869953 4.0392399 -0.83645648 750 67888510 1539 53 103 4529
-1.9310321 3.799921 -0.84305561 706 67888510 1333 54 83 4345
-2.0058243 3.6095905 -0.85968173 473 67888510 841 55 51 4218
-1.7249447 4.1259136 -0.97014457 754 67888510 1578 56 150 4576
-1.7953734 3.8834746 -0.97006655 718 67888510 1382 57 84 4387
-1.8785493 3.6984024 -0.98287416 275 67888510 499 58 57 4263
-1.9493909 3.5087564 -0.993343 296 67888510 507 59 71 4135
-1.649745 3.9590454 -1.1006749 698 67888510 1368 60 55 4428
-1.7399397 3.7718613 -1.1077341 620 67888510 1147 61 62 4299
-1.8121313 3.5693386 -1.1098288 488 67888510 843 62 63 4154
-1.8627973 3.3495886 -1.1056062 551 67888510 876 63 55 3989
-2.2991459 5.5353036 1.8708787 781 67985670 3079 0 112 6279
-2.5306878 5.4924955 1.8151332 868 67985670 3461 1 102 6314
-2.7899339 5.5016251 1.7861909 833 67985670 3436 2 88 6422
-3.0373285 5.4686618 1.7473986 886 67985670 3739 3 80 6495
-2.3324797 5.607543 1.640636 879 67985670 3479 4 115 6291
-2.5757344 5.5966868 1.5987232 871 67985670 3530 5 65 6365
-2.8250487 5.5761766 1.5571518 858 67985670 3561 6 122 6442
-3.0757358 5.5510449 1.517029 888 67985670 3781 7 102 6525
-2.3756869 5.7083268 1.4248326 866 67985670 3487 8 106 6345
-2.6280456 5.7045827 1.3816206 805 67985670 3329 9 125 6431
-2.8811343 5.6945205 1.3397571 833 67985670 3544 10 84 6521
-3.1325226 5.6651888 1.2958963 867 67985670 3781 11 61 6602
-2.412549 5.7943339 1.204237 907 67985670 3704 12 150 6391
-2.6626601 5.7855635 1.1563864 860 67985670 3604 13 124 6473
-2.9297211 5.7933125 1.1148254 867 67985670 3762 14 95 6587
-2.6759968 4.8423524 0.89816201 394 67985670 1239 15 74 5605
-2.4585652 5.9051433 0.985659 821 67985670 3437 16 53 6472
-2.7122936 5.8969321 0.93649346 862 67985670 3708 17 103 6558
-2.5260348 5.00177 0.75442851 382 67985670 1222 18 79 5654
-2.52315 4.5723639 0.65297568 67 67985670 186 19 102 5263
-2.5008256 6.0069427 0.76033545 861 67985670 3695 20 112 6551
-2.3492157 5.1096606 0.60240376 289 67985670 925 21 106 5656
-2.3654375 4.6892633 0.51210344 43 67985670 121 22 71 5277
-2.7737732 5.03297 0.50671327 637 67985670 2119 23 146 5769
-2.2547615 5.4188318 0.46995771 130 67985670 451 24 102 5888
-2.1876311 4.7614903 0.36944884 44 67985670 122 25 94 5253
-2.5990958 5.1529169 0.35167322 597 67985670 1995 26 134 5782
-2.6420708 4.800735 0.28209865 766 67985670 2306 27 110 5487
-2.0494115 4.9321122 0.23216386 115 67985670 330 28 69 5346
-2.4236195 5.2799883 0.19688842 502 67985670 1698 29 58 5813
-2.4612017 4.8909893 0.13505736 653 67985670 1958 30 55 5477
-2.5274041 4.5963688 0.078372426 738 67985670 2031 31 108 5246
-2.0533402 4.9422975 0.037363708 87 67985670 249 32 108 5352
-2.2600839 4.9284806 -0.013721591 638 67985670 1876 33 116 5422
-2.3757977 4.7227082 -0.063114986 660 67985670 1846 34 81 5287
-2.4153955 4.399395 -0.10767124 774 67985670 1951 35 100 5020
-2.1010163 5.0640349 -0.16281505 649 67985670 1952 36 149 5485
-2.1932073 4.7919126 -0.20613649 731 67985670 2034 37 78 5274
-2.2523298 4.4819493 -0.24418546 767 67985670 1934 38 226 5022
-2.3105721 4.2082958 -0.27925539 748 67985670 1730 39 106 4809
-2.0315304 4.9074397 -0.35249791 765 67985670 2167 40 119 5323
-2.098552 4.5906053 -0.38244957 754 67985670 1931 41 162 5062
-2.162405 4.3060026 -0.41139433 786 67985670 1838 42 205 4836
-2.2109106 4.03195 -0.43637174 778 67985670 1660 43 88 4619
-1.9474987 4.7091002 -0.52607256 761 67985670 1997 44 127 5123
-2.0127227 4.4075313 -0.54589051 733 67985670 1743 45 86 4876
-2.0701215 4.1276259 -0.56427675 779 67985670 1687 46 90 4652
-2.1283298 3.883601 -0.58476096 808 67985670 1612 47 148 4467
-1.8476721 4.4783373 -0.67990476 802 67985670 1920 48 101 4892
-1.9313529 4.2342334 -0.69827169 759 67985670 1682 49 79 4706
-1.9931082 3.9792669 -0.71134269 760 67985670 1544 50 87 4507
-2.0529492 3.7485359 -0.72532964 776 67985670 1459 51 68 4335
-1.7680511 4.2961965 -0.82804215 780 67985670 1737 52 103 4719
-1.8549113 4.072103 -0.84088904 715 67985670 1482 53 102 4553
-1.9182172 3.8327525 -0.84771234 730 67985670 1394 54 105 4369
-2.006212 3.6630456 -0.8694647 404 67985670 736 55 66 4266
-1.704053 4.1472673 -0.97268867 758 67985670 1595 56 130 4588
-1.7812026 3.9157231 -0.97537357 747 67985670 1454 57 78 4411
-1.8871648 3.772517 -0.99947441 176 67985670 332 58 64 4335
-1.9669875 3.5921717 -1.0135221 214 67985670 382 59 70 4219
-1.6386366 4.0013628 -1.1096234 600 67985670 1196 60 81 4464
-1.7167631 3.7824664 -1.1077341 681 67985670 1259 61 59 4299
-1.7850246 3.5700474 -1.1066227 601 67985670 1032 62 81 4142
-1.8366677 3.3508449 -1.1022803 569 67985670 899 63 56 3977
-2.2564805 5.5280957 1.8637276 817 68083510 3196 0 117 6255
-2.4921935 5.4974527 1.8116835 911 68083510 3619 1 105 6302
-2.7458241 5.4980164 1.7795156 837 68083510 3428 2 61 6398
-2.9926169 5.4669194 1.7409416 879 68083510 3682 3 96 6471
-2.2936451 5.6110258 1.6375065 856 68083510 3375 4 116 6279
-2.5317628 5.5912237 1.592695 876 68083510 3523 5 69 6341
-2.7855821 5.5829864 1.5542512 863 68083510 3568 6 120 6430
-3.0304301 5.5493264 1.5114492 926 68083510 3915 7 85 6501
-2.3406165 5.722796 1.4248326 851 68083510 3427 8 100 6345
-2.5833168 5.6992521 1.3764646 839 68083510 3444 9 121 6407
-2.835664 5.6910686 1.3348261 867 68083510 3661 10 88 6497
-3.092072 5.6739707 1.2935408 878 68083510 3815 11 65 6590
-2.3769503 5.8090277 1.204237 900 68083510 3675 12 146 6391
-2.6222403 5.7910366 1.1542426 885 68083510 3695 13 102 6461
-2.8888466 5.8005934 1.1127944 853 68083510 3688 14 96 6575
-2.731216 5.0147133 0.92700571 190 68083510 637 15 66 5785
-2.4133034 5.8981647 0.98200393 868 68083510 3610 16 96 6448
-2.6711631 5.9026432 0.93477988 858 68083510 3677 17 111 6546
-2.6647689 5.3579245 0.80566663 90 68083510 329 18 71 6038
-2.5462468 4.6819029 0.6663751 39 68083510 113 19 89 5371
-2.4639208 6.0221748 0.76033545 853 68083510 3661 20 112 6551
-2.4653466 5.4501166 0.64074636 81 68083510 294 21 93 6016
-2.3685012 4.7678666 0.51909065 65 68083510 187 22 85 5349
-2.7314286 5.0288868 0.50460529 661 68083510 2181 23 145 5745
-2.3029635 5.6318569 0.487198 105 68083510 391 24 108 6104
-2.2471249 4.9711614 0.38464037 103 68083510 309 25 81 5469
-2.5407867 5.1151314 0.34802389 360 68083510 1178 26 129 5722
-2.6125643 4.8168559 0.28209865 710 68083510 2137 27 123 5487
-2.1777382 5.3330584 0.25040346 107 68083510 357 28 71 5766
-2.2973886 5.0870862 0.18916596 91 68083510 285 29 68 5585
-2.4045119 4.8522544 0.13357782 665 68083510 1953 30 64 5417
-2.5105872 4.6328888 0.078730978 722 68083510 2006 31 90 5270
-2.0547271 5.0325694 0.037950132 72 68083510 213 32 89 5436
-2.2446055 4.97507 -0.013812696 667 68083510 1987 33 130 5458
-2.3627546 4.7694535 -0.06354475 692 68083510 1961 34 112 5323
-2.4054832 4.4457879 -0.10844338 751 68083510 1920 35 91 5056
-2.0699043 5.0768309 -0.16281505 715 68083510 2150 36 144 5485
-2.1785331 4.8380804 -0.20754358 724 68083510 2042 37 100 5310
-2.2460511 4.5386543 -0.24651936 746 68083510 1918 38 213 5070
-2.2961092 4.2434669 -0.28064907 764 68083510 1785 39 109 4833
-2.0104041 4.9419942 -0.3540872 778 68083510 2224 40 114 5347
-2.0899768 4.6470466 -0.38607609 751 68083510 1961 41 119 5110
-2.1465433 4.3406248 -0.41343597 806 68083510 1903 42 162 4860
-2.1974883 4.0664592 -0.43863907 780 68083510 1682 43 84 4643
-1.9455316 4.7873111 -0.5334661 758 68083510 2045 44 147 5195
-1.995414 4.4415522 -0.54857737 742 68083510 1782 45 87 4900
-2.0658538 4.18297 -0.570099 801 68083510 1769 46 140 4700
-2.1157672 3.9175224 -0.58790278 789 68083510 1590 47 166 4491
-1.8380181 4.5336413 -0.68657595 804 68083510 1962 48 116 4940
-1.9150525 4.2676578 -0.70183277 734 68083510 1643 49 83 4730
-1.9738958 4.0020485 -0.71323657 780 68083510 1593 50 79 4519
-2.0411482 3.7818847 -0.72934532 782 68083510 1486 51 99 4359
-1.7593724 4.3507729 -0.8364647 764 68083510 1736 52 117 4767
-1.854005 4.1372194 -0.85197037 802 68083510 1707 53 118 4613
-1.8998674 3.8550093 -0.85004061 744 68083510 1428 54 93 4381
-2.0060182 3.7166398 -0.87924767 252 68083510 468 55 48 4314
-1.6917448 4.190268 -0.98032087 741 68083510 1584 56 133 4624
-1.761923 3.9372609 -0.97802705 740 68083510 1448 57 81 4423
-1.8743013 3.8049753 -1.0050079 347 68083510 658 58 51 4359
-1.9393774 3.5939219 -1.0106394 319 68083510 565 59 82 4207
-1.6183927 4.0221252 -1.1126063 488 68083510 979 60 66 4476
-1.6935221 3.7929292 -1.1077341 750 68083510 1385 61 50 4299
-1.7733015 3.6016822 -1.113035 568 68083510 987 62 64 4166
-1.8160727 3.3620512 -1.1022803 477 68083510 755 63 84 3977
-2.2225182 5.5418372 1.8637276 815 68182220 3190 0 73 6255
-2.4584148 5.512641 1.8116835 898 68182220 3567 1 113 6302
-2.7069504 5.5044174 1.776178 809 68182220 3300 2 83 6386
-2.9480419 5.4648356 1.7344848 923 68182220 3839 3 64 6447
-2.2634909 5.6357436 1.640636 853 68182220 3376 4 95 6291
-2.492682 5.5960431 1.589681 880 68182220 3526 5 69 6329
-2.7358696 5.5686207 1.5455493 878 68182220 3590 6 93 6394
-3.0018537 5.5780935 1.5142392 890 68182220 3775 7 114 6513
-2.3010976 5.7261996 1.4221379 843 68182220 3381 8 123 6333
-2.5530708 5.7256994 1.3790426 834 68182220 3436 9 124 6419
-2.7903452 5.687274 1.3298954 849 68182220 3559 10 80 6473
-3.0516322 5.6824708 1.2911854 920 68182220 3979 11 49 6578
-2.3412621 5.823503 1.204237 877 68182220 3581 12 152 6391
-2.5866578 5.8070173 1.1542426 875 68182220 3654 13 89 6461
-2.8427856 5.7969723 1.1087325 836 68182220 3587 14 116 6551
-2.8236279 5.2609854 0.96930981 100 68182220 367 15 80 6049
-2.3726435 5.9018569 0.98017639 819 68182220 3394 16 72 6436
-2.6252344 5.8972211 0.93135262 878 68182220 3735 17 100 6522
-2.7626071 5.641192 0.84569645 148 68182220 595 18 112 6338
-2.5624681 4.7813993 0.67828578 102 68182220 305 19 102 5467
-2.4180319 6.0150623 0.75754994 860 68182220 3665 20 93 6527
-2.6743979 6.0102015 0.70465052 376 68182220 1646 21 116 6616
-2.4808917 5.0719843 0.550533 72 68182220 233 22 65 5673
-2.6159089 4.8874664 0.48879516 49 68182220 151 23 138 5565
-2.4690382 6.1453538 0.53029877 567 68182220 2504 24 83 6644
-2.3624878 5.3129869 0.40995952 98 68182220 334 25 80 5829
-2.3620021 4.8293509 0.32758766 60 68182220 174 26 113 5386
-2.599906 4.8645034 0.28394946 579 68182220 1766 27 114 5523
-2.1583662 5.3797002 0.25196683 114 68182220 385 28 65 5802
-2.1979651 4.9476438 0.18347576 84 68182220 246 29 36 5417
-2.4167781 4.9531684 0.1359451 664 68182220 2019 30 77 5513
-2.4990685 4.6799583 0.079268791 717 68182220 2019 31 116 5306
-1.9970037 4.97826 0.037447482 123 68182220 355 32 87 5364
-2.2189047 4.9997172 -0.013843065 689 68182220 2062 33 123 5470
-2.3492265 4.816215 -0.063974507 684 68182220 1965 34 92 5359
-2.3894479 4.481637 -0.10895814 762 68182220 1966 35 104 5080
-2.0520954 5.1228404 -0.16388366 675 68182220 2057 36 141 5521
-2.1682303 4.8952107 -0.20941967 738 68182220 2120 37 65 5358
-2.2286603 4.5739002 -0.24768633 750 68182220 1947 38 202 5094
-2.2925737 4.2997594 -0.28343639 756 68182220 1802 39 91 4881
-2.0022614 5.0098295 -0.35806051 774 68182220 2263 40 96 5407
-2.0662646 4.6707258 -0.38698274 718 68182220 1883 41 133 5122
-2.135572 4.3859639 -0.41649848 758 68182220 1816 42 160 4896
-2.1893404 4.1115003 -0.44204015 790 68182220 1730 43 89 4679
-1.9161206 4.7991586 -0.5334661 780 68182220 2104 44 159 5195
-1.9825833 4.4864335 -0.55260777 737 68182220 1796 45 76 4936
-2.0453577 4.2062793 -0.5715546 761 68182220 1690 46 126 4712
-2.1028681 3.9514353 -0.59104455 783 68182220 1596 47 137 4515
-1.8233571 4.5779543 -0.69157934 802 68182220 1986 48 116 4976
-1.8984146 4.3010416 -0.70539391 738 68182220 1668 49 83 4754
-1.9596552 4.0354033 -0.71702456 754 68182220 1557 50 60 4543
-2.03457 3.8256741 -0.73536879 793 68182220 1532 51 94 4395
-1.7413667 4.3834453 -0.84067601 759 68182220 1742 52 139 4791
-1.8238277 4.1377258 -0.8497541 737 68182220 1560 53 126 4601
-1.8967341 3.9089582 -0.85935408 802 68182220 1573 54 99 4429
-2.0162745 3.7911129 -0.89392221 134 68182220 258 55 73 4386
-1.6703255 4.2114706 -0.98286498 658 68182220 1414 56 137 4636
-1.7518749 3.9801314 -0.98598742 724 68182220 1440 57 75 4459
-1.8560146 3.8269105 -1.0077746 534 68182220 1021 58 70 4371
-1.9063513 3.5851839 -1.0048739 517 68182220 905 59 74 4183
-1.6235912 4.1076469 -1.1334864 357 68182220 741 60 57 4560
-1.6842036 3.8350973 -1.1170102 733 68182220 1378 61 59 4335
-1.7612568 3.633306 -1.1194469 366 68182220 643 62 67 4190
-1.8279136 3.4341989 -1.122236 366 68182220 599 63 56 4049
-2.184274 5.5447125 1.8601522 811 68280510 3162 0 89 6243
-2.4245436 5.5276217 1.8116835 803 68280510 3189 1 126 6302
-2.673125 5.5209231 1.776178 842 68280510 3435 2 70 6386
-2.9144547 5.4828215 1.7344848 905 68280510 3763 3 78 6447
-2.228868 5.6495261 1.640636 809 68280510 3202 4 118 6291
-2.4582984 5.6112328 1.589681 902 68280510 3614 5 61 6329
-2.7016497 5.5853028 1.5455493 834 68280510 3409 6 127 6394
-2.9456999 5.5551624 1.5030794 897 68280510 3749 7 107 6465
-2.2659192 5.7402115 1.4221379 871 68280510 3493 8 124 6333
-2.5131836 5.7305245 1.3764646 837 68280510 3436 9 114 6407
-2.7553964 5.7042885 1.3298954 828 68280510 3471 10 82 6473
-3.0057013 5.6802874 1.2864745 901 68280510 3872 11 60 6554
-2.2968278 5.8158369 1.1997148 867 68280510 3514 12 136 6367
-2.5509777 5.8227797 1.1542426 807 68280510 3370 13 95 6461
-2.8020205 5.8036556 1.1067016 835 68280510 3570 14 104 6539
-3.0570877 5.7808156 1.0616099 551 68280510 2419 15 83 6625
-2.3407421 5.9273353 0.98200393 813 68280510 3382 16 80 6448
-2.5890002 5.913218 0.93135262 848 68280510 3608 17 107 6522
-2.8467348 5.9044266 0.88252389 615 68280510 2691 18 80 6614
-2.6720836 5.0602679 0.71550643 99 68280510 330 19 74 5767
-2.3810787 6.0297856 0.75754994 862 68280510 3672 20 121 6527
-2.6566052 6.0702214 0.70976293 617 68280510 2741 21 103 6664
-2.5326335 5.2592816 0.56916553 87 68280510 300 22 78 5865
-2.4408948 4.6285162 0.46139103 65 68280510 179 23 124 5253
-2.4356759 6.171514 0.5312565 728 68280510 3226 24 88 6656
-2.3058615 5.2725458 0.40573964 124 68280510 414 25 80 5769
-2.2855577 4.7466264 0.3210189 105 68280510 292 26 146 5278
-2.6258485 4.9864016 0.29011893 439 68280510 1398 27 114 5643
-2.0725684 5.2589974 0.24571328 413 68280510 1323 28 74 5658
-2.1003418 4.807178 0.17778553 199 68280510 550 29 60 5249
-2.412312 5.0219717 0.13742463 515 68280510 1601 30 75 5573
-2.4870663 4.7270603 0.079806618 720 68280510 2055 31 89 5342
-1.9092311 4.8452845 0.036358405 473 68280510 1283 32 102 5208
-2.2313888 5.1122198 -0.014116382 331 68280510 1030 33 110 5578
-2.3248248 4.8413553 -0.064117759 625 68280510 1804 34 101 5371
-2.3842213 4.5386977 -0.10998767 744 68280510 1957 35 96 5128
-2.104069 5.3474083 -0.17065154 493 68280510 1628 36 147 5749
-2.1620965 4.963388 -0.2117648 552 68280510 1621 37 79 5418
-2.216105 4.6199093 -0.24943675 757 68280510 1993 38 197 5130
-2.2717192 4.3243508 -0.28413323 760 68280510 1820 39 85 4893
-1.9977363 5.0888944 -0.36282846 444 68280510 1333 40 106 5479
-2.051888 4.7162333 -0.38970268 754 68280510 2006 41 119 5158
-2.1137884 4.4097672 -0.41751933 774 68280510 1863 42 157 4908
-2.1751714 4.1460137 -0.44430748 793 68280510 1755 43 79 4703
-1.8909954 4.821938 -0.53469837 752 68280510 2039 44 129 5207
-1.9597707 4.5094504 -0.55395126 736 68280510 1802 45 106 4948
-2.0349391 4.2509813 -0.5759213 788 68280510 1777 46 107 4748
-2.0841074 3.9748001 -0.59261549 785 68280510 1608 47 147 4527
-1.8038915 4.6111894 -0.69491488 777 68280510 1942 48 120 5000
-1.8908892 4.3561525 -0.71251607 723 68280510 1667 49 100 4802
-1.9501897 4.0794234 -0.72270638 764 68280510 1602 50 86 4579
-2.0110579 3.8380861 -0.73536879 812 68280510 1569 51 94 4395
-1.7187318 4.4050531 -0.84278166 742 68280510 1712 52 126 4803
-1.8077856 4.1704798 -0.85418653 760 68280510 1626 53 98 4625
-1.8777872 3.9311447 -0.8616823 782 68280510 1543 54 99 4441
-1.9766166 3.7721953 -0.886585 258 68280510 489 55 65 4350
-1.6529661 4.2434955 -0.98795319 583 68280510 1265 56 148 4660
-1.7320691 4.0015459 -0.9886409 723 68280510 1446 57 94 4471
-1.8274673 3.8276892 -1.0050079 569 68280510 1082 58 65 4359
-1.8735059 3.5761769 -0.99910855 660 68280510 1142 59 83 4159
-1.6193876 4.17171 -1.1484007 170 68280510 362 60 53 4620
-1.6652372 3.856004 -1.1201023 724 68280510 1369 61 73 4347
-1.7588512 3.6857905 -1.1322713 223 68280510 401 62 63 4238
-1.8496459 3.5270374 -1.1488436 214 68280510 368 63 63 4145
-2.1460781 5.547327 1.8565767 811 68377990 3149 0 89 6231
-2.386029 5.5318408 1.8082339 860 68377990 3403 1 107 6290
-2.6292803 5.5164113 1.7695028 833 68377990 3373 2 65 6362
-2.8753958 5.4903626 1.7312564 911 68377990 3774 3 71 6435
-2.1816051 5.6306887 1.6312475 880 68377990 3442 4 132 6255
-2.4192266 5.6155434 1.5866668 890 68377990 3553 5 68 6317
-2.6673281 5.6017747 1.5455493 799 68377990 3267 6 119 6394
-2.9223673 5.5938215 1.5086594 864 68377990 3639 7 97 6489
-2.2264285 5.7431035 1.4194431 866 68377990 3460 8 113 6321
-2.4733334 5.7350755 1.3738866 811 68377990 3317 9 101 6395
-2.7153003 5.7104816 1.3274299 838 68377990 3499 10 104 6461
-2.9762304 5.7090569 1.2888299 872 68377990 3758 11 42 6566
-2.2568378 5.8188329 1.1974537 884 68377990 3570 12 124 6355
-2.5105305 5.8274789 1.1520989 875 68377990 3640 13 119 6449
-2.7714338 5.8314209 1.1087325 844 68377990 3622 14 107 6551
-3.0379786 5.8309789 1.0673785 697 68377990 3093 15 84 6661
-2.3043284 5.9415865 0.98200393 888 68377990 3694 16 77 6448
-2.5573654 5.9399018 0.93306625 820 68377990 3501 17 110 6534
-2.8257494 5.9540148 0.88732743 804 68377990 3557 18 71 6650
-2.6080117 5.0131884 0.70657349 143 68377990 465 19 76 5695
-2.3354166 6.0220571 0.75476438 855 68377990 3616 20 111 6503
-2.5957255 6.0316076 0.70337242 807 68377990 3521 21 87 6604
-2.3877695 5.037293 0.54354578 437 68377990 1372 22 99 5601
-2.4069376 4.6327987 0.46033701 268 68377990 736 23 129 5241
-2.3847935 6.1528835 0.52838314 839 68377990 3678 24 92 6620
-2.1836154 5.0776606 0.3897042 623 68377990 1913 25 89 5541
-2.1896985 4.6198545 0.31153065 784 68377990 2056 26 132 5122
-2.6227968 5.0556087 0.29320365 502 68377990 1633 27 95 5703
-2.0099704 5.1933517 0.24206537 666 68377990 2070 28 89 5574
-1.9950591 4.6436677 0.17128243 897 68377990 2293 29 34 5057
-2.4378586 5.1559758 0.14067961 655 68377990 2133 30 71 5705
-2.4856226 4.7954955 0.080702983 560 68377990 1635 31 102 5402
-1.8664734 4.8233352 0.036107082 669 68377990 1790 32 113 5172
-2.2189105 5.1699243 -0.014237858 179 68377990 567 33 100 5626
-2.3155859 4.8989224 -0.064690769 468 68377990 1374 34 117 5419
-2.3673556 4.5745521 -0.11050243 740 68377990 1965 35 87 5152
-2.0755417 5.3714066 -0.17100774 707 68377990 2345 36 147 5761
-2.1410434 4.9986057 -0.21270286 437 68377990 1295 37 77 5442
-2.1979511 4.655097 -0.25060371 738 68377990 1961 38 217 5154
-2.2616613 4.3701267 -0.28622374 758 68377990 1842 39 90 4929
-1.9578601 5.0787125 -0.36123917 514 68377990 1530 40 110 5455
-2.0370297 4.7617383 -0.39242256 745 68377990 2009 41 137 5194
-2.1019964 4.4550939 -0.42058179 782 68377990 1910 42 168 4944
-2.1606612 4.1805077 -0.44657484 769 68377990 1719 43 82 4727
-1.8785317 4.8780065 -0.53962737 769 68377990 2123 44 135 5255
-1.9554927 4.5762177 -0.56066853 749 68377990 1879 45 73 5008
-2.0189714 4.2849383 -0.57883245 759 68377990 1728 46 130 4772
-2.0815179 4.0297928 -0.59889895 767 68377990 1605 47 137 4575
-1.7968708 4.6776376 -0.70325392 769 68377990 1969 48 124 5060
-1.8827584 4.4113317 -0.71963829 769 68377990 1809 49 82 4850
-1.9352124 4.1127567 -0.72649437 751 68377990 1592 50 83 4603
-2.0091763 3.8924053 -0.74340016 814 68377990 1607 51 89 4443
-1.7085766 4.4596438 -0.85120416 734 68377990 1727 52 116 4851
-1.7914101 4.2031922 -0.85861909 754 68377990 1630 53 105 4649
-1.868657 3.9745526 -0.86866742 761 68377990 1526 54 97 4477
-1.9588223 3.7946916 -0.88903064 516 68377990 983 55 67 4362
-1.6436552 4.2973714 -0.99812949 462 68377990 1024 56 132 4708
-1.7166493 4.0336351 -0.99394792 738 68377990 1492 57 81 4495
-1.8089128 3.8493984 -1.0077746 693 68377990 1324 58 85 4371
-1.8622121 3.6083076 -1.0048739 637 68377990 1115 59 83 4183
-1.6185979 4.2467351 -1.1662978 83 68377990 182 60 38 4692
-1.6506089 3.8874943 -1.1262865 677 68377990 1294 61 68 4371
-1.7755312 3.7802472 -1.1579195 247 68377990 463 62 38 4334
-1.8332616 3.548564 -1.1521697 251 68377990 434 63 73 4157
-2.1079326 5.5496821 1.8530012 822 68476180 3180 0 85 6219
-2.3475542 5.5357957 1.8047841 853 68476180 3362 1 118 6278
-2.5904875 5.5220051 1.7661651 836 68476180 3372 2 74 6350
-2.8310552 5.48736 1.7247994 888 68476180 3651 3 79 6411
-2.1428959 5.6331415 1.628118 862 68476180 3360 4 108 6243
-2.3801944 5.619586 1.5836527 894 68476180 3555 5 64 6305
-2.6279645 5.607492 1.5426487 869 68476180 3540 6 116 6382
-2.8773077 5.5908923 1.5030794 915 68476180 3825 7 96 6465
-2.1911476 5.7566566 1.4194431 888 68476180 3549 8 92 6321
-2.424372 5.7177734 1.3661524 826 68476180 3340 9 133 6359
-2.6752324 5.7163982 1.3249644 880 68476180 3661 10 94 6449
-2.9303937 5.7062774 1.284119 925 68476180 3961 11 62 6542
-2.2294796 5.854598 1.2019758 862 68476180 3508 12 124 6379
-2.4655166 5.8210297 1.1478113 884 68476180 3650 13 106 6425
-2.7205677 5.8161778 1.1026397 819 68476180 3476 14 103 6515
-2.985918 5.8178959 1.0616099 842 68476180 3697 15 78 6625
-2.2551665 5.9223623 0.97652125 870 68476180 3579 16 78 6412
-2.5069814 5.9226685 0.92792535 848 68476180 3580 17 125 6498
-2.7690308 5.9281406 0.88092268 863 68476180 3762 18 80 6602
-2.512037 4.9019337 0.68870753 669 68476180 2062 19 98 5551
-2.2984221 6.0362735 0.75476438 849 68476180 3591 20 98 6503
-2.5540183 6.0364332 0.70209438 849 68476180 3689 21 111 6592
-2.3265197 4.9869084 0.53655863 587 68476180 1795 22 94 5529
-2.2259829 4.3495307 0.43082485 1408 68476180 3388 23 691 4905
-2.342741 6.1562209 0.52742535 856 68476180 3738 24 111 6608
-2.1524184 5.0909638 0.3897042 641 68476180 1968 25 113 5541
-2.1106746 4.5246549 0.304232 1034 68476180 2588 26 179 5002
-2.5808203 5.0502639 0.29196978 666 68476180 2147 27 121 5679
-1.9738083 5.1943803 0.24154423 624 68476180 1931 28 103 5562
-2.0225263 4.7883983 0.17615975 437 68476180 1183 29 81 5201
-2.4162984 5.1925898 0.14127143 642 68476180 2106 30 54 5729
-2.4288707 4.7572246 0.079806618 666 68476180 1901 31 100 5342
-1.8624138 4.9020014 0.036609732 281 68476180 773 32 107 5244
-2.1824813 5.1723857 -0.01420749 333 68476180 1049 33 127 5614
-2.280422 4.9021587 -0.064547516 551 68476180 1611 34 101 5407
-2.3555877 4.6210575 -0.11127457 730 68476180 1965 35 91 5188
-2.0553081 5.417685 -0.17207636 688 68476180 2310 36 166 5797
-2.1056788 5.0005975 -0.21223383 571 68476180 1685 37 66 5430
-2.1946008 4.7228436 -0.25352108 728 68476180 1979 38 217 5214
-2.2456856 4.4052677 -0.28761739 761 68476180 1868 39 98 4953
-1.9266608 5.0906301 -0.36123917 705 68476180 2097 40 134 5455
-2.0216899 4.8072376 -0.39514247 742 68476180 2029 41 118 5230
-2.0846918 4.4895964 -0.42262346 770 68476180 1899 42 157 4968
-2.1512289 4.2256246 -0.44997585 772 68476180 1752 43 74 4763
-1.8738931 4.9564323 -0.54702097 777 68476180 2204 44 157 5327
-1.9366133 4.6101174 -0.56335539 739 68476180 1872 45 80 5032
-2.007674 4.3296638 -0.58319914 784 68476180 1813 46 117 4808
-2.0621474 4.0530925 -0.60046989 740 68476180 1558 47 181 4587
-1.7765218 4.710813 -0.70658946 739 68476180 1910 48 131 5084
-1.8556556 4.422801 -0.71963829 736 68476180 1732 49 69 4850
-1.919899 4.146059 -0.73028231 739 68476180 1583 50 78 4627
-1.985255 3.9046602 -0.74340016 792 68476180 1564 51 81 4443
-1.6936568 4.5032158 -0.85752106 668 68476180 1595 52 122 4887
-1.7838153 4.2576146 -0.86748415 761 68476180 1679 53 96 4697
-1.8491777 3.9966276 -0.87099576 734 68476180 1479 54 97 4489
-1.9355016 3.8066392 -0.88903064 653 68476180 1243 55 83 4362
-1.6296226 4.3403125 -1.0057619 326 68476180 734 56 116 4744
-1.7009002 4.0656843 -0.99925476 717 68476180 1464 57 101 4519
-1.7901605 3.8710237 -1.0105413 701 68476180 1347 58 83 4383
-1.8505942 3.640434 -1.0106394 446 68476180 790 59 63 4207
-1.6006556 4.2783589 -1.1722635 166 68476180 368 60 51 4716
-1.6267246 3.8975492 -1.1262865 610 68476180 1165 61 40 4371
-1.7425991 3.7700772 -1.1515076 496 68476180 922 62 70 4310
-1.8219118 3.5802979 -1.1588216 367 68476180 642 63 65 4181
-2.0658374 5.5410452 1.8458501 809 68573460 3106 0 89 6195
-2.3046985 5.5288782 1.7978846 861 68573460 3368 1 108 6254
-2.5517249 5.5273309 1.7628274 867 68573460 3485 2 61 6338
-2.797332 5.5046277 1.7247994 925 68573460 3804 3 69 6411
-2.1082914 5.646184 1.628118 887 68573460 3457 4 123 6243
-2.3456686 5.6340847 1.5836527 892 68573460 3547 5 59 6305
-2.5935082 5.6235113 1.5426487 842 68573460 3430 6 113 6382
-2.8271179 5.5772119 1.4947096 929 68573460 3840 7 113 6429
-2.1435063 5.7371311 1.4113591 883 68573460 3488 8 105 6285
-2.3892426 5.7325416 1.3661524 832 68573460 3365 9 109 6359
-2.6302817 5.7113709 1.3200336 864 68573460 3568 10 95 6425
-2.8793929 5.6926508 1.2770526 875 68573460 3701 11 56 6506
-2.1728828 5.8129725 1.1906703 921 68573460 3677 12 133 6319
-2.425215 5.8251481 1.1456674 867 68573460 3566 13 108 6413
-2.6798837 5.8220181 1.1006087 818 68573460 3459 14 116 6503
-2.9394763 5.8149652 1.0577639 873 68573460 3804 15 104 6601
-2.2187853 5.9360886 0.97652125 881 68573460 3624 16 70 6412
-2.4705935 5.9379396 0.92792535 863 68573460 3644 17 117 6498
-2.7177038 5.9126019 0.87611914 849 68573460 3661 18 85 6566
-2.4819119 4.9172549 0.68870753 638 68573460 1966 19 114 5551
-2.2655137 6.0614276 0.75615716 828 68573460 3515 20 110 6515
-2.5123496 6.0409737 0.70081633 834 68573460 3611 21 103 6580
-2.3108256 5.0336523 0.54005218 569 68573460 1762 22 113 5565
-2.263818 4.4911985 0.44347292 655 68573460 1670 23 235 5049
-2.3007371 6.1592741 0.52646756 838 68573460 3647 24 86 6596
-2.1395152 5.1482897 0.39308009 470 68573460 1468 25 106 5589
-2.1778128 4.7443485 0.31809941 190 68573460 519 26 131 5230
-2.5713351 5.1088233 0.29443756 656 68573460 2151 27 122 5727
-1.9670368 5.2737899 0.24467102 489 68573460 1553 28 83 5634
-2.039093 4.9114823 0.1802242 94 68573460 265 29 51 5321
-2.3943806 5.2291327 0.14186324 639 68573460 2113 30 56 5753
-2.4050255 4.7827578 0.079985887 696 68573460 1996 31 103 5354
-1.8826154 5.0482564 0.037615035 64 68573460 186 32 105 5388
-2.2012718 5.3076086 -0.014541545 610 68573460 2014 33 125 5746
-2.2602882 4.9378796 -0.064834021 622 68573460 1835 34 104 5431
-2.337955 4.656868 -0.11178934 730 68573460 1983 35 86 5212
-2.0471411 5.4976387 -0.17421359 640 68573460 2204 36 142 5869
-2.1070549 5.0909796 -0.215517 708 68573460 2154 37 91 5514
-2.1805332 4.7689219 -0.25527155 752 68573460 2073 38 205 5250
-2.2293634 4.4403763 -0.28901106 741 68573460 1836 39 95 4977
-1.9245754 5.1809254 -0.36680174 723 68573460 2217 40 144 5539
-2.0104389 4.8637853 -0.39876902 711 68573460 1980 41 156 5278
-2.0769804 4.545804 -0.42670676 758 68573460 1906 42 169 5016
-2.130615 4.249424 -0.45110953 795 68573460 1813 43 85 4775
-1.8475984 4.9790282 -0.54825324 742 68573460 2115 44 136 5339
-1.9401451 4.6990681 -0.57275957 716 68573460 1874 45 106 5116
-1.9959031 4.3744116 -0.5875659 765 68573460 1795 46 139 4844
-2.0532279 4.0975771 -0.60518247 779 68573460 1664 47 157 4623
-1.7517083 4.7327695 -0.70825732 764 68573460 1984 48 93 5096
-1.8375309 4.4560452 -0.72319937 726 68573460 1725 49 81 4874
-1.9042493 4.1793275 -0.73407024 765 68573460 1655 50 81 4651
-1.9771503 3.948504 -0.74942362 792 68573460 1589 51 87 4479
-1.6782663 4.5467725 -0.86383802 555 68573460 1346 52 97 4923
-1.762148 4.2793851 -0.86970043 759 68573460 1684 53 89 4709
-1.8441303 4.0507541 -0.88030916 781 68573460 1608 54 106 4537
-1.906848 3.8079393 -0.886585 725 68573460 1372 55 97 4350
-1.6516166 4.4822769 -1.0362908 154 68573460 368 56 132 4888
-1.6848223 4.097692 -1.0045618 699 68573460 1443 57 92 4543
-1.7615385 3.8713067 -1.0077746 729 68573460 1393 58 75 4371
-1.8803699 3.7558818 -1.0394667 249 68573460 467 59 61 4327
-1.5703679 4.2771888 -1.1692805 309 68573460 683 60 22 4704
-1.6159797 3.9396391 -1.1355627 523 68573460 1015 61 45 4407
-1.709859 3.7596459 -1.1450953 598 68573460 1099 62 80 4286
-1.7844112 3.5604858 -1.1488436 686 68573460 1178 63 36 4145
-2.0357349 5.564374 1.8494257 779 68671550 3002 0 98 6207
-2.2750876 5.5535512 1.8013344 875 68671550 3435 1 128 6266
-2.5225289 5.5533786 1.7661651 864 68671550 3485 2 81 6350
-2.7479856 5.4906821 1.7151141 897 68671550 3647 3 73 6375
-2.0736074 5.6590142 1.628118 880 68671550 3430 4 109 6243
-2.3066559 5.6376209 1.5806386 910 68671550 3602 5 46 6293
-2.5445194 5.6075082 1.5339468 863 68671550 3476 6 109 6346
-2.7928433 5.5944538 1.4947096 953 68671550 3940 7 92 6429
-2.1082635 5.7501755 1.4113591 833 68671550 3290 8 119 6285
-2.3495812 5.736248 1.3635743 811 68671550 3268 9 102 6347
-2.5951879 5.7274027 1.3200336 864 68671550 3568 10 84 6425
-2.8444092 5.7102113 1.2770526 894 68671550 3786 11 62 6506
-2.1412327 5.8372598 1.1929314 880 68671550 3527 12 136 6331
-2.3894269 5.8399191 1.1456674 856 68671550 3522 13 95 6413
-2.639231 5.8275785 1.0985777 831 68671550 3501 14 119 6491
-2.8931835 5.8116846 1.0539181 899 68671550 3890 15 73 6577
-2.178236 5.9384561 0.97469366 882 68671550 3614 16 88 6400
-2.4251223 5.9310007 0.92449814 832 68671550 3486 17 139 6474
-2.6813736 5.9291663 0.87611914 842 68671550 3631 18 71 6566
-2.4781935 4.9857049 0.69615167 433 68671550 1364 19 105 5611
-2.2200704 6.052834 0.7533716 825 68671550 3476 20 127 6491
-2.4707215 6.0452304 0.69953823 855 68671550 3689 21 111 6568
-2.3093934 5.1130443 0.54703939 424 68671550 1348 22 95 5637
-2.3478293 4.7298532 0.46560705 86 68671550 241 23 150 5301
-2.2587845 6.162044 0.52550977 844 68671550 3660 24 98 6584
-2.1259885 5.2056475 0.39645594 379 68671550 1205 25 89 5637
-2.1881013 4.8449516 0.32393834 54 68671550 153 26 122 5326
-2.5559056 5.1567173 0.2962884 656 68671550 2178 27 124 5763
-1.9799675 5.4096012 0.25040346 234 68671550 779 28 74 5766
-2.0270407 4.9683199 0.18184999 47 68671550 137 29 60 5369
-2.3819594 5.2874765 0.14304687 616 68671550 2074 30 66 5801
-2.4235549 4.8941979 0.081599347 726 68671550 2167 31 80 5462
-1.8557283 5.0709815 0.037698805 62 68671550 181 32 95 5400
-2.204896 5.4099154 -0.014784495 485 68671550 1655 33 115 5842
-2.2742918 5.0501232 -0.066123299 624 68671550 1915 34 114 5539
-2.3306048 4.7141442 -0.11281886 732 68671550 2025 35 113 5260
-2.0298362 5.5551605 -0.17563841 291 68671550 1020 36 186 5917
-2.0667424 5.0815978 -0.21457894 652 68671550 1966 37 83 5490
-2.1610646 4.8040729 -0.25643849 717 68671550 1994 38 231 5274
-2.2126949 4.47545 -0.29040471 712 68671550 1781 39 100 5001
-1.8845487 5.1701379 -0.36521244 705 68671550 2144 40 127 5515
-1.9850605 4.8871155 -0.39967567 724 68671550 2025 41 134 5290
-2.0637548 4.5911784 -0.42976925 756 68671550 1928 42 162 5052
-2.1256561 4.3052649 -0.45564428 756 68671550 1759 43 95 4823
-1.8374326 5.0463519 -0.55441451 733 68671550 2136 44 139 5399
-1.9112756 4.7108841 -0.57275957 737 68671550 1930 45 87 5116
-1.9787803 4.408309 -0.59047699 778 68671550 1844 46 122 4868
-2.0385754 4.1314359 -0.60832429 784 68671550 1692 47 141 4647
-1.7307485 4.7657685 -0.71159291 733 68671550 1921 48 119 5120
-1.8190678 4.4892335 -0.72676045 714 68671550 1714 49 60 4898
-1.8979572 4.2341852 -0.74164611 778 68671550 1719 50 69 4699
-1.9633498 3.9817832 -0.75343931 787 68671550 1596 51 106 4503
-1.6664273 4.6014156 -0.87226051 445 68671550 1100 52 111 4971
-1.7447041 4.3119822 -0.87413299 763 68671550 1710 53 86 4733
-1.833676 4.0942245 -0.88729423 751 68671550 1571 54 106 4573
-1.8938383 3.840641 -0.89147645 782 68671550 1497 55 68 4374
-1.632057 4.5143843 -1.041379 70 68671550 169 56 110 4912
-1.677183 4.1513562 -1.0151757 650 68671550 1371 57 78 4591
-1.7520638 3.9140151 -1.0160747 739 68671550 1436 58 60 4407
-1.852138 3.7569008 -1.036584 143 68671550 267 59 73 4315
-1.5598502 4.3304863 -1.1812121 480 68671550 1083 60 56 4752
-1.6134475 4.0032516 -1.1510229 385 68671550 768 61 42 4467
-1.6914806 3.7806222 -1.1483015 660 68671550 1220 62 63 4298
-1.7625309 3.5713677 -1.1488436 612 68671550 1052 63 66 4145
-1.9938151 5.5551972 1.8422747 810 68767440 3097 0 92 6183
-2.2280939 5.5354199 1.7909852 842 68767440 3268 1 119 6230
-2.474299 5.5371809 1.7561522 850 68767440 3390 2 80 6314
-2.7193527 5.5178065 1.7183424 908 68767440 3702 3 57 6387
-2.0310073 5.6498275 1.6218591 868 68767440 3357 4 110 6219
-2.267688 5.6408911 1.5776246 881 68767440 3477 5 69 6281
-2.5100644 5.6230154 1.5339468 879 68767440 3541 6 89 6346
