# .PCD v0.7 - Point Cloud Data file format
VERSION 0.7
FIELDS x y z intensity t reflectivity ring noise range
SIZE 4 4 4 4 4 2 1 2 4
TYPE F F F F U U U U U
COUNT 1 1 1 1 1 1 1 1 1
WIDTH 836
HEIGHT 1
VIEWPOINT 0 0 0 1 0 0 0
POINTS 836
DATA ascii
1.6516869 -1.7654711 -0.54816389 192 12694460 118 57 86 2479
1.5599748 -1.5486422 -0.52083337 177 12694460 91 58 61 2259
1.8209479 -1.6781538 -0.61282176 97 12694460 63 59 73 2551
1.4688711 -1.6955394 -0.57569176 243 12694460 131 60 58 2316
1.7114599 -1.8324366 -0.6686601 189 12694460 128 61 60 2595
1.7818578 -1.7695926 -0.69624794 140 12694460 95 62 70 2606
1.7931886 -1.6511828 -0.70316446 344 12694460 222 63 59 2537
1.0730205 -1.2414708 0.51218992 174 12792950 51 0 55 1719
1.1226194 -1.2030487 0.49388641 248 12792950 73 1 51 1718
1.1703588 -1.163381 0.47783804 248 12792950 73 2 78 1718
1.149331 -1.0594839 0.43664786 124 12792950 33 3 51 1623
1.1085538 -1.281271 0.45768815 199 12792950 61 4 33 1755
1.1676542 -1.252405 0.444327 254 12792950 79 5 1 1769
1.2286328 -1.2222458 0.43170959 117 12792950 37 6 106 1786
1.2324191 -1.1383866 0.40105367 375 12792950 112 7 69 1725
1.1613014 -1.3417161 0.4089236 142 12792950 47 8 37 1821
1.1906369 -1.2760731 0.3839148 188 12792950 60 9 39 1787
1.259998 -1.2548051 0.37330753 264 12792950 87 10 46 1817
1.2623605 -1.1680868 0.34428993 356 12792950 109 11 16 1754
1.1924595 -1.3772775 0.34953213 29 12792950 10 12 132 1855
1.2271781 -1.3162493 0.32674661 167 12792950 56 13 37 1829
1.2979723 -1.2931193 0.31462887 246 12792950 85 14 101 1859
1.3045255 -1.2076945 0.28859761 288 12792950 93 15 46 1801
1.4387318 -1.661778 0.33870608 19 12792950 9 16 49 2224
1.2672231 -1.3598194 0.26818156 18 12792950 6 17 86 1878
1.3655404 -1.3619077 0.25966004 99 12792950 38 18 74 1946
1.3499483 -1.2512782 0.23014818 226 12792950 78 19 81 1855
1.3957869 -1.6122322 0.24918947 16 12792950 7 20 97 2147
1.2470925 -1.3386393 0.19597293 26 12792950 9 21 84 1840
1.3840964 -1.381716 0.19069229 23 12792950 9 22 71 1965
1.3997943 -1.2988895 0.16837741 37 12792950 13 23 155 1917
1.422016 -1.6431662 0.17399928 16 12792950 8 24 82 2180
1.4009974 -1.5046318 0.14495224 18 12792950 8 25 84 2061
1.498939 -1.4964656 0.12906444 17 12792950 8 26 120 2122
1.5913626 -1.4784069 0.11182149 14 12792950 7 27 100 2175
1.6661754 -1.9271994 0.11074035 18 12792950 12 28 58 2550
1.7026982 -1.8299303 0.084709778 18 12792950 11 29 49 2501
1.7168398 -1.7172406 0.059896722 17 12792950 10 30 59 2429
1.4689909 -1.3657247 0.029968563 49 12792950 20 31 85 2006
1.5930552 -1.8428191 0.017006351 26 12792950 15 32 104 2436
1.9515375 -2.0989058 -0.0072530573 17 12792950 14 33 78 2866
0 -0 -0 6 12792950 0 34 86 0
0 -0 -0 8 12792950 0 35 72 0
1.5294261 -1.7709626 -0.069489516 100 12792950 55 36 135 2341
0 -0 -0 4 12792950 0 37 52 0
0 -0 -0 5 12792950 0 38 76 0
1.7252233 -1.6059667 -0.13710168 41 12792950 23 39 79 2361
0 -0 -0 9 12792950 0 40 85 0
1.5691605 -1.6916757 -0.17482977 49 12792950 26 41 103 2314
1.7484457 -1.7517254 -0.21131173 202 12792950 124 42 146 2484
1.6510823 -1.5386189 -0.21417077 73 12792950 38 43 68 2267
1.6745447 -1.943452 -0.26483333 82 12792950 55 44 122 2579
1.5995649 -1.725843 -0.26510841 176 12792950 99 45 68 2368
1.6456186 -1.6504328 -0.28480691 45 12792950 25 46 128 2348
1.8207836 -1.6975926 -0.32870716 249 12792950 157 47 149 2511
1.5860525 -1.8438708 -0.34134221 79 12792950 48 48 89 2456
1.6139622 -1.7429014 -0.35640642 96 12792950 56 49 83 2402
1.5351765 -1.5412809 -0.34770086 92 12792950 45 50 64 2203
0 -0 -0 5 12792950 0 51 73 0
1.5642124 -1.8217579 -0.42797092 196 12792950 117 52 111 2439
0 -0 -0 7 12792950 0 53 105 0
0 -0 -0 7 12792950 0 54 89 0
1.602161 -1.4945459 -0.45613268 113 12792950 57 55 66 2238
1.2927951 -1.5073546 -0.43079847 13 12792950 5 56 90 2032
1.664651 -1.8013573 -0.55612433 166 12792950 105 57 73 2515
1.5422072 -1.5499077 -0.5180667 251 12792950 127 58 71 2247
1.7850649 -1.6654557 -0.60417354 97 12792950 62 59 82 2515
1.5037798 -1.7575103 -0.59358889 186 12792950 106 60 43 2388
1.6137007 -1.7491604 -0.63464731 155 12792950 94 61 42 2463
1.7709663 -1.7804927 -0.69624794 182 12792950 124 62 63 2606
1.8336256 -1.7093264 -0.72312021 203 12792950 138 63 54 2609
1.1025689 -1.2915926 0.53006738 185 12890020 58 0 33 1779
1.1152165 -1.2099143 0.49388641 240 12890020 71 1 24 1718
1.138824 -1.1460121 0.46782514 255 12890020 72 2 69 1682
1.193506 -1.1138293 0.45601857 162 12890020 46 3 37 1695
1.1006712 -1.2880489 0.45768815 196 12890020 60 4 33 1755
1.1678162 -1.2680902 0.44734108 242 12890020 77 5 6 1781
1.2457237 -1.2545496 0.44041145 72 12890020 24 6 93 1822
1.2339356 -1.153899 0.40384361 386 12890020 117 7 76 1737
1.1682435 -1.3665932 0.41431302 96 12890020 33 8 67 1845
1.1986698 -1.3005906 0.38907093 104 12890020 34 9 37 1811
1.2440046 -1.2541746 0.3708421 264 12890020 86 10 55 1805
1.2637568 -1.1838547 0.34664539 326 12890020 102 11 34 1766
1.3831255 -1.6174445 0.40832132 18 12890020 8 12 128 2167
1.2350752 -1.3411244 0.33103412 74 12890020 25 13 50 1853
1.2650321 -1.2758639 0.30853602 218 12890020 72 14 103 1823
1.3057331 -1.2237762 0.29052055 291 12890020 96 15 64 1813
1.7059882 -1.9950746 0.40449789 20 12890020 14 16 55 2656
1.3232059 -1.437477 0.28189054 16 12890020 6 17 83 1974
1.3236825 -1.336462 0.25325528 75 12890020 27 18 83 1898
1.3769771 -1.2921295 0.23610349 198 12890020 72 19 73 1903
1.3548847 -1.5845313 0.24361841 18 12890020 8 20 88 2099
1.5458759 -1.6799059 0.24454014 19 12890020 10 21 106 2296
1.728416 -1.7467486 0.23960267 13 12890020 8 22 80 2469
1.43536 -1.348376 0.17364745 35 12890020 14 23 124 1977
1.4973986 -1.7518814 0.18453501 12 12890020 7 24 84 2312
1.4727715 -1.6013044 0.15339194 19 12890020 9 25 88 2181
1.4560307 -1.4715769 0.12614498 16 12890020 7 26 145 2074
0 -0 0 8 12890020 0 27 103 0
1.6543189 -1.9373865 0.11074035 18 12890020 12 28 60 2550
1.667091 -1.813853 0.083490446 22 12890020 14 29 60 2465
1.7905655 -1.8130983 0.062855795 12 12890020 8 30 48 2549
1.4955325 -1.407607 0.030685658 60 12890020 25 31 70 2054
1.5271758 -1.7886778 0.016419925 40 12890020 22 32 88 2352
1.768164 -1.9252399 -0.0066153146 25 12890020 17 33 74 2614
1.4633799 -1.4821575 -0.024866374 11 12890020 5 34 101 2083
0 -0 -0 3 12890020 0 35 68 0
1.4873949 -1.7438101 -0.068064705 90 12890020 47 36 150 2293
0 -0 -0 8 12890020 0 37 60 0
0 -0 -0 6 12890020 0 38 88 0
1.5845613 -1.4932804 -0.1266492 33 12890020 16 39 71 2181
0 -0 -0 4 12890020 0 40 116 0
0 -0 -0 8 12890020 0 41 116 0
1.7292699 -1.7539066 -0.21029089 191 12890020 116 42 170 2472
1.6676792 -1.5733145 -0.21757179 57 12890020 30 43 75 2303
1.6548524 -1.9445996 -0.26360106 49 12890020 32 44 110 2567
1.6453099 -1.7971931 -0.27451262 106 12890020 64 45 67 2452
1.6354607 -1.6604991 -0.28480691 71 12890020 39 46 123 2348
1.6892116 -1.5944089 -0.30671483 141 12890020 77 47 137 2343
1.6747313 -1.9713027 -0.36302358 112 12890020 77 48 91 2612
1.6112469 -1.7615283 -0.35818696 55 12890020 32 49 66 2414
1.5672435 -1.5929049 -0.3571707 104 12890020 53 50 56 2263
0 -0 -0 7 12890020 0 51 64 0
1.5606458 -1.8403318 -0.43007657 176 12890020 106 52 103 2451
1.5864455 -1.7361772 -0.44196075 11 12890020 6 53 94 2393
1.3212515 -1.3437294 -0.37272954 13 12890020 5 54 64 1921
1.6271259 -1.5366132 -0.46591565 156 12890020 82 55 63 2286
1.3062613 -1.5421038 -0.43843073 17 12890020 7 56 147 2068
1.6535668 -1.8115375 -0.55612433 121 12890020 77 57 81 2515
1.4917423 -1.5177033 -0.50423312 275 12890020 132 58 65 2187
1.7748123 -1.6763773 -0.60417354 117 12890020 74 59 62 2515
1.4854654 -1.7578264 -0.59060603 207 12890020 117 60 50 2376
1.5795087 -1.7333183 -0.6253711 200 12890020 118 61 41 2427
1.7519037 -1.7830769 -0.69304186 148 12890020 100 62 67 2594
1.8063321 -1.7047179 -0.71646827 199 12890020 133 63 65 2585
1.0798559 -1.2808181 0.52291644 136 12987230 42 0 62 1755
1.1077716 -1.2167343 0.49388641 210 12987230 62 1 70 1718
1.1640687 -1.1858813 0.48117569 246 12987230 73 2 53 1730
1.1866492 -1.1211314 0.45601857 143 12987230 41 3 36 1695
1.1226343 -1.3301909 0.47020611 191 12987230 62 4 50 1803
1.1443814 -1.2580475 0.44131291 232 12987230 72 5 6 1757
1.1646192 -1.1873538 0.41430584 69 12987230 20 6 108 1714
1.2098811 -1.1454008 0.39826372 353 12987230 104 7 64 1713
1.1447489 -1.3558661 0.4089236 106 12987230 35 8 101 1821
1.1748878 -1.290588 0.3839148 64 12987230 20 9 29 1787
1.2445047 -1.2701727 0.37330753 239 12987230 79 10 55 1817
1.2650068 -1.1996837 0.34900084 314 12987230 99 11 25 1778
1.1222395 -1.3287818 0.33370423 16 12987230 5 12 116 1771
1.2188781 -1.3399435 0.32889035 124 12987230 42 13 51 1841
1.2737306 -1.3005008 0.31259793 177 12987230 60 14 116 1847
1.33257 -1.2643765 0.2982122 288 12987230 100 15 40 1861
1.6707575 -1.9783217 0.39901525 16 12987230 11 16 47 2620
1.3782812 -1.5158702 0.29559949 18 12987230 8 17 89 2070
1.3071402 -1.3360579 0.25165406 62 12987230 22 18 68 1886
1.3517572 -1.2841519 0.23312582 158 12987230 56 19 81 1879
1.3989677 -1.6565577 0.25336778 17 12987230 8 20 94 2183
1.3750298 -1.5127715 0.21897845 12 12987230 5 21 91 2056
1.5089577 -1.5437948 0.21048935 12 12987230 6 22 87 2169
1.5223411 -1.4477724 0.18524152 19 12987230 8 23 130 2109
1.3785967 -1.6330718 0.1711259 15 12987230 7 24 85 2144
1.8734211 -2.0621729 0.19643454 16 12987230 13 25 98 2793
1.7818569 -1.8231215 0.15533957 16 12987230 10 26 136 2554
1.4255544 -1.3573384 0.1013334 16 12987230 6 27 106 1971
1.395074 -1.65423 0.094064154 19 12987230 9 28 65 2166
1.5511327 -1.7086111 0.078206666 14 12987230 7 29 45 2309
1.8380457 -1.8841609 0.064927161 15 12987230 10 30 50 2633
1.4781808 -1.4084798 0.030506384 55 12987230 23 31 77 2042
1.4929653 -1.7704942 0.0161686 75 12987230 40 32 88 2316
1.6353776 -1.8027363 -0.0061597838 21 12987230 13 33 90 2434
1.5966817 -1.6371413 -0.027301678 17 12987230 9 34 87 2287
0 -0 -0 3 12987230 0 35 81 0
1.4921228 -1.7712507 -0.068777114 88 12987230 47 36 143 2317
0 -0 -0 4 12987230 0 37 59 0
0 -0 -0 7 12987230 0 38 77 0
1.6273756 -1.5525917 -0.1308302 53 12987230 27 39 91 2253
0 -0 -0 9 12987230 0 40 100 0
0 -0 -0 7 12987230 0 41 107 0
1.7685282 -1.8158768 -0.21641587 184 12987230 119 42 161 2544
1.6407157 -1.5670154 -0.21530442 70 12987230 37 43 67 2279
1.6352093 -1.9455793 -0.2623688 114 12987230 75 44 100 2555
1.7222292 -1.9045457 -0.28929061 212 12987230 142 45 64 2584
1.5837106 -1.6278155 -0.27752906 70 12987230 37 46 108 2288
1.6449916 -1.5718679 -0.30043128 109 12987230 57 47 155 2295
1.6473273 -1.9633343 -0.35968795 180 12987230 121 48 92 2588
1.7913433 -1.9827145 -0.40092012 201 12987230 147 49 61 2702
1.5987334 -1.6449791 -0.36664057 109 12987230 59 50 56 2323
0 -0 -0 7 12987230 0 51 67 0
1.5493244 -1.8498731 -0.43007657 185 12987230 111 52 118 2451
1.6152718 -1.7896533 -0.45304209 10 12987230 6 53 95 2453
1.2555686 -1.2927002 -0.3564311 11 12987230 4 54 66 1837
1.6516335 -1.5790421 -0.47569868 131 12987230 72 55 62 2334
1.3569729 -1.6220475 -0.45878339 15 12987230 7 56 115 2164
1.6424203 -1.8216494 -0.55612433 150 12987230 95 57 71 2515
1.5068034 -1.5519608 -0.51253325 266 12987230 132 58 71 2223
1.772912 -1.6952863 -0.60705632 223 12987230 143 59 81 2527
1.4820993 -1.7758317 -0.59358889 220 12987230 125 60 35 2388
1.5455726 -1.7171236 -0.61609489 215 12987230 123 61 54 2391
1.74093 -1.7937928 -0.69304186 172 12987230 116 62 90 2594
1.7958381 -1.7157692 -0.71646827 206 12987230 138 63 62 2585
1.0793064 -1.2962228 0.52649188 87 13085130 27 0 73 1767
1.1156558 -1.2406007 0.50078589 229 13085130 69 1 44 1742
1.1567703 -1.1930015 0.48117569 222 13085130 66 2 33 1730
1.2382132 -1.1843117 0.4786177 183 13085130 58 3 48 1779
1.107034 -1.3281554 0.46707663 128 13085130 41 4 57 1791
1.1444037 -1.2736856 0.444327 232 13085130 73 5 3 1769
1.1978245 -1.2362911 0.42880893 109 13085130 34 6 103 1774
1.2365347 -1.1851057 0.40942347 321 13085130 100 7 80 1761
1.1438967 -1.3718455 0.41161832 150 13085130 51 8 72 1833
1.2218004 -1.358776 0.40196118 64 13085130 22 9 36 1871
1.2366877 -1.2777849 0.37330753 240 13085130 79 10 68 1817
1.2745975 -1.2237211 0.35371175 332 13085130 108 11 27 1802
1.3329781 -1.5980955 0.39927685 19 13085130 8 12 128 2119
1.2027423 -1.3386146 0.32674661 123 13085130 41 13 61 1829
1.24928 -1.2912917 0.30853602 186 13085130 62 14 87 1823
1.3077019 -1.2561184 0.29436639 296 13085130 100 15 52 1837
1.499059 -1.7972722 0.36063665 16 13085130 9 16 66 2368
1.2022988 -1.3387318 0.25961345 13 13085130 4 17 87 1818
1.3071824 -1.352605 0.25325528 30 13085130 11 18 76 1898
1.3524346 -1.3006759 0.23461466 176 13085130 63 19 79 1891
1.4803866 -1.7749482 0.27008098 14 13085130 8 20 105 2327
1.3657217 -1.52118 0.21897845 18 13085130 8 21 85 2056
1.3667248 -1.4155507 0.19185682 13 13085130 5 22 86 1977
0 -0 0 9 13085130 0 23 155 0
1.3762102 -1.6506875 0.17208371 18 13085130 9 24 80 2156
1.4929831 -1.6638035 0.15761182 21 13085130 11 25 97 2241
1.5626529 -1.6185914 0.13709295 18 13085130 9 26 120 2254
1.6070218 -1.5490329 0.11490622 17 13085130 9 27 112 2235
1.3311896 -1.5982751 0.09041623 16 13085130 7 28 62 2082
1.7167668 -1.9145356 0.087148443 18 13085130 12 29 43 2573
1.6349955 -1.6967208 0.058121271 12 13085130 6 30 44 2357
1.4090606 -1.3592118 0.029251469 38 13085130 15 31 76 1958
1.4513571 -1.7427381 0.015833499 84 13085130 43 32 105 2268
1.6883495 -1.8842336 -0.0064027342 23 13085130 15 33 85 2530
1.5533063 -1.6123419 -0.026728665 17 13085130 9 34 99 2239
0 -0 -0 4 13085130 0 35 66 0
1.4965693 -1.7988143 -0.069489516 83 13085130 45 36 148 2341
1.6190562 -1.809568 -0.094977565 14 13085130 9 37 61 2430
1.0182358 -1.0578219 -0.071476027 11 13085130 2 38 90 1470
1.6436691 -1.5875154 -0.13292068 55 13085130 29 39 86 2289
0 -0 -0 5 13085130 0 40 104 0
1.2108005 -1.3545099 -0.13765767 11 13085130 4 41 99 1822
1.7656424 -1.8353107 -0.21743672 119 13085130 78 42 149 2556
1.6396582 -1.5853571 -0.21643811 61 13085130 32 43 66 2291
1.5698739 -1.8912833 -0.25374299 112 13085130 68 44 112 2471
1.7105107 -1.9150772 -0.28929061 272 13085130 182 45 83 2584
1.6644826 -1.7319735 -0.29354033 68 13085130 40 46 115 2420
1.5669105 -1.5157596 -0.28786421 112 13085130 54 47 150 2199
1.6428318 -1.9825555 -0.36135578 275 13085130 186 48 89 2600
1.7791438 -1.9936687 -0.40092012 318 13085130 232 49 80 2702
1.5804034 -1.6462097 -0.36474657 137 13085130 73 50 67 2311
0 -0 -0 7 13085130 0 51 77 0
1.5379446 -1.8593447 -0.43007657 186 13085130 112 52 116 2451
1.4473004 -1.6234658 -0.40871674 14 13085130 7 53 87 2213
1.4758102 -1.5382283 -0.42162481 11 13085130 5 54 73 2173
1.7178891 -1.6626804 -0.49771047 97 13085130 58 55 64 2442
1.287239 -1.5580175 -0.43843073 12 13085130 5 56 118 2068
1.6467781 -1.8491722 -0.56143129 172 13085130 111 57 82 2539
1.4810878 -1.5443224 -0.50699985 208 13085130 101 58 86 2199
1.603456 -1.5521959 -0.5522843 212 13085130 112 59 71 2299
1.4933536 -1.8118001 -0.60253745 156 13085130 91 60 51 2424
1.5041919 -1.6919134 -0.60372669 254 13085130 139 61 52 2343
1.7298906 -1.8044412 -0.69304186 194 13085130 131 62 69 2594
1.7852765 -1.726756 -0.71646827 147 13085130 98 63 51 2585
1.0858837 -1.3205162 0.53364289 58 13181980 19 0 74 1791
1.1003898 -1.2388299 0.49733618 238 13181980 71 1 76 1730
1.1574013 -1.2084011 0.48451331 192 13181980 58 2 51 1742
1.197711 -1.1597282 0.4657039 316 13181980 95 3 45 1731
1.1430391 -1.3885882 0.48585355 114 13181980 40 4 71 1863
1.136567 -1.2806835 0.444327 224 13181980 70 5 20 1769
1.1982673 -1.2520299 0.43170959 215 13181980 69 6 85 1786
1.2208633 -1.1845434 0.40663356 286 13181980 88 7 74 1749
1.1280242 -1.3698118 0.4089236 107 13181980 36 8 81 1821
1.1900923 -1.3399591 0.394227 84 13181980 28 9 35 1835
1.228824 -1.285349 0.37330753 202 13181980 67 10 62 1817
1.2755027 -1.2397199 0.35606724 293 13181980 96 11 37 1814
1.4655151 -1.7790729 0.44223818 17 13181980 9 12 123 2347
1.2180175 -1.3724619 0.33317792 23 13181980 8 13 69 1865
1.2740178 -1.3331341 0.31665984 157 13181980 55 14 122 1871
1.3084619 -1.2723763 0.29628929 268 13181980 92 15 65 1849
1.3221108 -1.6050433 0.32043055 20 13181980 9 16 50 2104
1.7063655 -1.9236114 0.37099877 17 13181980 12 17 98 2598
1.2577986 -1.3175887 0.2452493 21 13181980 7 18 73 1838
1.3188338 -1.2840307 0.23014818 112 13181980 39 19 90 1855
1.3936895 -1.692 0.25615329 20 13181980 10 20 99 2207
1.2376145 -1.395623 0.1998072 13 13181980 5 21 104 1876
1.4898994 -1.5621958 0.21048935 11 13181980 5 22 69 2169
1.4445385 -1.4079412 0.17786348 17 13181980 7 23 133 2025
1.4648985 -1.7791468 0.18453501 21 13181980 11 24 83 2312
1.4589268 -1.6460584 0.1550799 19 13181980 9 25 88 2205
1.7593502 -1.8448504 0.15533957 20 13181980 13 26 118 2554
1.3659049 -1.3328813 0.098248675 16 13181980 6 27 114 1911
1.4051325 -1.7082605 0.09614867 30 13181980 15 28 74 2214
1.7129388 -1.9340113 0.087554887 15 13181980 10 29 38 2585
0 -0 0 9 13181980 0 30 47 0
1.4436164 -1.4097472 0.030147837 57 13181980 23 31 69 2018
1.4253918 -1.7330753 0.01566595 65 13181980 33 32 95 2244
1.5892732 -1.795711 -0.0060686776 19 13181980 11 33 94 2398
1.5516558 -1.6305349 -0.02687192 15 13181980 8 34 88 2251
0 -0 -0 0 13181980 0 35 82 0
1.4931186 -1.8172309 -0.069845729 97 13181980 54 36 126 2353
1.6238033 -1.8374385 -0.095915623 49 13181980 30 37 71 2454
0 -0 -0 5 13181980 0 38 78 0
1.5825034 -1.5473197 -0.1287397 49 13181980 24 39 76 2217
0 -0 -0 7 13181980 0 40 121 0
0 -0 -0 4 13181980 0 41 97 0
1.6802205 -1.7681053 -0.20824924 77 13181980 46 42 149 2448
1.7323465 -1.6956656 -0.23004226 112 13181980 67 43 73 2435
1.6036437 -1.9562681 -0.26113656 144 13181980 93 44 116 2543
1.7066166 -1.9344789 -0.29063407 280 13181980 189 45 66 2596
1.6784264 -1.7680703 -0.29790705 89 13181980 54 46 96 2456
1.6170787 -1.5836123 -0.29886037 104 13181980 54 47 118 2283
1.517746 -1.8546493 -0.33633882 560 13181980 328 48 104 2420
1.7668774 -2.0045478 -0.40092012 230 13181980 168 49 70 2702
1.5865802 -1.6730722 -0.36853451 153 13181980 84 50 71 2335
1.2781169 -1.252365 -0.30368474 19 13181980 6 51 65 1815
1.548928 -1.8961942 -0.4363935 218 13181980 135 52 96 2487
1.523044 -1.7296793 -0.43309566 23 13181980 13 53 82 2345
1.3529774 -1.4276327 -0.38902795 17 13181980 7 54 88 2005
1.6656977 -1.6320796 -0.48548171 45 13181980 26 55 71 2382
1.3517936 -1.6567504 -0.4638716 21 13181980 10 56 107 2188
1.6354009 -1.8592418 -0.56143129 118 13181980 76 57 73 2539
1.5037061 -1.5872885 -0.5180667 209 13181980 106 58 63 2247
1.6188606 -1.5864648 -0.56093252 175 13181980 96 59 88 2335
1.4822085 -1.8209292 -0.60253745 113 13181980 66 60 49 2424
1.455529 -1.6575485 -0.58826625 252 13181980 131 61 42 2283
1.7664934 -1.8654001 -0.71227819 192 13181980 137 62 58 2666
1.7993624 -1.7618774 -0.72644615 73 13181980 50 63 58 2621
1.0994244 -1.3538307 0.5443694 66 13280030 22 0 70 1827
1.0548682 -1.2023598 0.48008752 187 13280030 52 1 70 1670
1.1499649 -1.2154801 0.48451331 188 13280030 57 2 47 1742
1.1823189 -1.1589649 0.46247548 290 13280030 86 3 49 1719
1.1271898 -1.3865864 0.48272407 121 13280030 42 4 88 1851
1.1593132 -1.3225719 0.45638335 223 13280030 74 5 22 1817
1.1905625 -1.2593586 0.43170959 227 13280030 72 6 89 1786
1.230225 -1.2083691 0.41221344 244 13280030 77 7 73 1773
1.1638654 -1.4311407 0.42509192 29 13280030 10 8 95 1893
1.1895769 -1.3560466 0.39680508 106 13280030 36 9 37 1847
1.2047876 -1.2757878 0.36837667 220 13280030 71 10 52 1793
1.2510973 -1.2310176 0.3513563 281 13280030 90 11 38 1790
1.3132666 -1.6143329 0.39927685 25 13280030 11 12 123 2119
1.357446 -1.5486064 0.37390959 22 13280030 9 13 52 2093
1.2495769 -1.3237257 0.31259793 123 13280030 42 14 94 1847
1.2753068 -1.2554519 0.29052055 276 13280030 91 15 51 1813
1.5217963 -1.8707347 0.37160197 14 13280030 8 16 56 2440
2.1171846 -2.41644 0.46353427 18 13280030 19 17 93 3246
1.3149625 -1.3945019 0.25805885 23 13280030 9 18 64 1934
1.3278911 -1.3088158 0.23312582 91 13280030 32 19 72 1879
1.2478991 -1.5340892 0.23108347 19 13280030 8 20 88 1991
1.1661352 -1.3313855 0.18958253 17 13280030 5 21 90 1780
1.2591643 -1.3365899 0.17904694 14 13280030 5 22 88 1845
0 -0 0 9 13280030 0 23 132 0
1.3860359 -1.7045745 0.17591487 15 13280030 7 24 84 2204
1.4803377 -1.6910059 0.15845579 20 13280030 10 25 85 2253
1.8054881 -1.9166411 0.16044861 17 13280030 12 26 132 2638
1.4941102 -1.4759927 0.10811982 13 13280030 6 27 100 2103
1.3946244 -1.71685 0.09614867 23 13280030 11 28 70 2214
1.5589026 -1.7820063 0.080238894 19 13280030 10 29 54 2369
1.8441404 -1.9613734 0.066406697 19 13280030 13 30 54 2693
1.494669 -1.4776274 0.031402752 48 13280030 21 31 82 2102
1.4222963 -1.7511029 0.015749723 40 13280030 20 32 98 2256
1.5940205 -1.8234982 -0.0061294157 22 13280030 13 33 73 2422
1.64846 -1.7536827 -0.028734209 12 13280030 7 34 88 2407
0 -0 -0 5 13280030 0 35 87 0
1.4441516 -1.7797874 -0.068064705 102 13280030 53 36 143 2293
1.5494176 -1.7750986 -0.092163414 75 13280030 42 37 82 2358
0 -0 -0 3 13280030 0 38 67 0
1.6581205 -1.6412767 -0.13570802 15 13280030 8 39 66 2337
1.3610811 -1.6801056 -0.14350232 16 13280030 8 40 111 2167
0 -0 -0 3 13280030 0 41 117 0
1.7675363 -1.8829921 -0.22049917 164 13280030 110 42 163 2592
1.7134237 -1.6978544 -0.22890857 257 13280030 151 43 67 2423
1.5765889 -1.9475157 -0.258672 106 13280030 67 44 106 2519
1.72605 -1.9808754 -0.29600787 205 13280030 144 45 79 2644
1.667546 -1.7783357 -0.29790705 95 13280030 57 46 110 2456
1.6580225 -1.6437598 -0.30828568 100 13280030 55 47 140 2355
1.5063374 -1.863927 -0.33633882 441 13280030 258 48 117 2420
1.7545445 -2.0153515 -0.40092012 231 13280030 169 49 84 2702
1.5681838 -1.6741278 -0.36664057 118 13280030 64 50 61 2323
1.6147838 -1.6017873 -0.38600591 22 13280030 12 51 66 2307
1.5595162 -1.9332474 -0.44271037 258 13280030 164 52 113 2523
1.5124022 -1.738992 -0.43309566 70 13280030 39 53 98 2345
1.5533632 -1.6593504 -0.44956499 12 13280030 7 54 75 2317
1.5305398 -1.5181684 -0.44879544 11 13280030 5 55 57 2202
1.4004662 -1.7380673 -0.48422426 14 13280030 7 56 136 2284
1.6546632 -1.9045796 -0.57204521 64 13280030 43 57 81 2587
1.541808 -1.6476408 -0.53466696 182 13280030 98 58 62 2319
1.6008264 -1.5881641 -0.5580498 162 13280030 88 59 79 2323
1.4928542 -1.8571676 -0.61148602 173 13280030 104 60 50 2460
1.4605252 -1.683967 -0.59445047 267 13280030 142 61 51 2307
1.7313157 -1.8508688 -0.70266002 176 13280030 122 62 64 2630
1.7803293 -1.7647681 -0.72312021 107 13280030 73 63 51 2609
1.0910966 -1.3605512 0.5443694 154 13377250 51 0 38 1827
1.0700511 -1.2348679 0.4904367 213 13377250 62 1 46 1706
1.1660957 -1.2477776 0.49452624 171 13377250 54 2 42 1778
1.1833892 -1.1743387 0.4657039 301 13377250 90 3 40 1731
1.1041561 -1.3754089 0.47646511 170 13377250 57 4 61 1827
1.1359708 -1.3120974 0.45035517 208 13377250 67 5 13 1793
1.1748655 -1.2581296 0.42880893 261 13377250 82 6 84 1774
1.1979593 -1.1912067 0.40384361 251 13377250 76 7 65 1737
1.1404179 -1.4200205 0.41970247 14 13377250 5 8 102 1869
1.1965828 -1.3810351 0.40196118 63 13377250 22 9 34 1871
1.2209691 -1.3089197 0.37577298 185 13377250 62 10 56 1829
1.2435205 -1.2386711 0.3513563 255 13377250 82 11 24 1790
1.1852428 -1.4753603 0.36309883 12 13377250 4 12 104 1927
1.5024813 -1.7354336 0.41678503 20 13377250 11 13 55 2333
1.2494967 -1.3400179 0.31462887 65 13377250 23 14 97 1859
1.2675796 -1.2632535 0.29052055 228 13377250 75 15 68 1813
1.4657232 -1.8245605 0.36063665 21 13377250 12 16 54 2368
1.5116481 -1.7468224 0.33329913 12 13377250 7 17 88 2334
1.2739581 -1.3677343 0.25165406 20 13377250 7 18 95 1886
1.3029774 -1.3001181 0.23014818 70 13377250 24 19 70 1855
1.4325361 -1.7833124 0.26729548 26 13377250 14 20 97 2303
1.415554 -1.6362979 0.23175931 14 13377250 7 21 103 2176
1.4055271 -1.5104147 0.2011731 15 13377250 7 22 58 2073
1.3933233 -1.3917708 0.17364745 15 13377250 6 23 139 1977
1.4804024 -1.8436242 0.18932401 16 13377250 9 24 75 2372
1.5090802 -1.7453319 0.16267566 15 13377250 8 25 105 2313
1.744738 -1.8750703 0.15606944 12 13377250 8 26 121 2566
0 -0 0 7 13377250 0 27 106 0
1.3765621 -1.7160236 0.095627546 29 13377250 14 28 74 2202
1.6106669 -1.8641372 0.083490446 22 13377250 13 29 34 2465
1.7422702 -1.8759605 0.06315171 18 13377250 12 30 64 2561
1.4855742 -1.4867706 0.031402752 53 13377250 24 31 79 2102
1.4715898 -1.8346819 0.016419925 28 13377250 16 32 105 2352
1.5200648 -1.760581 -0.0058864662 61 13377250 33 33 77 2326
1.8499464 -1.9923871 -0.032458793 24 13377250 18 34 92 2719
0 -0 -0 0 13377250 0 35 74 0
1.508208 -1.8822188 -0.071626745 91 13377250 53 36 130 2413
1.5463263 -1.7936541 -0.092632443 87 13377250 49 37 57 2370
0 -0 -0 4 13377250 0 38 75 0
0 -0 -0 3 13377250 0 39 71 0
1.3806663 -1.7258248 -0.14668098 16 13377250 8 40 88 2215
0 -0 -0 7 13377250 0 41 93 0
1.7478199 -1.8850347 -0.21947837 79 13377250 52 42 142 2580
1.7451438 -1.7506387 -0.23457696 301 13377250 186 43 73 2483
1.5124352 -1.8918886 -0.25004619 17 13377250 10 44 120 2435
1.7527556 -2.0366204 -0.30272517 134 13377250 98 45 70 2704
1.6323205 -1.7623178 -0.29354033 159 13377250 93 46 121 2420
1.7150813 -1.7213227 -0.32085276 139 13377250 83 47 145 2451
1.5245227 -1.9102879 -0.34301001 84 13377250 51 48 102 2468
1.6802485 -1.9540942 -0.38667575 153 13377250 104 49 60 2606
1.5981201 -1.7272067 -0.37611037 154 13377250 88 50 63 2383
1.5965768 -1.6032821 -0.38399804 57 13377250 30 51 65 2295
1.532903 -1.9242995 -0.43849909 344 13377250 215 52 121 2499
1.532442 -1.7840241 -0.44196075 112 13377250 64 53 99 2393
1.4392542 -1.5564892 -0.41929644 11 13377250 5 54 90 2161
1.4548765 -1.4609357 -0.42922941 9 13377250 4 55 63 2106
1.3678699 -1.7190976 -0.476592 13 13377250 7 56 122 2248
1.5819783 -1.843645 -0.55081743 20 13377250 13 57 70 2491
1.6188537 -1.7513925 -0.56510079 173 13377250 104 58 69 2451
1.5910515 -1.5979567 -0.5580498 155 13377250 84 59 92 2323
1.4742043 -1.8571888 -0.60850322 188 13377250 112 60 43 2448
1.4652512 -1.7105082 -0.60063457 237 13377250 129 61 54 2331
1.7434691 -1.8869371 -0.71227819 179 13377250 128 62 66 2666
1.7613288 -1.7674916 -0.71979421 107 13377250 72 63 54 2597
1.0827279 -1.3672204 0.5443694 132 13474930 44 0 56 1827
1.0848738 -1.2676066 0.50078589 214 13474930 65 1 40 1742
1.1271442 -1.2210308 0.48117569 188 13474930 56 2 56 1730
1.2006222 -1.2061512 0.47538927 283 13474930 88 3 28 1767
1.0813026 -1.3640015 0.47020611 100 13474930 33 4 73 1803
1.1354473 -1.3278708 0.45336926 174 13474930 57 5 18 1805
1.1750185 -1.2738739 0.43170959 245 13474930 78 6 104 1786
1.2317547 -1.2399349 0.4177933 257 13474930 83 7 41 1797
1.1534815 -1.4544773 0.42778662 31 13474930 11 8 93 1905
1.1652265 -1.3616378 0.394227 115 13474930 39 9 24 1835
1.2049568 -1.3077499 0.37330753 132 13474930 44 10 74 1817
1.244182 -1.2546327 0.35371175 277 13474930 90 11 28 1802
1.2640599 -1.5933965 0.39023232 26 13474930 11 12 139 2071
1.4687849 -1.7176992 0.41035372 17 13474930 9 13 81 2297
1.2572758 -1.3650579 0.31869081 105 13474930 37 14 96 1883
1.2848198 -1.2962453 0.29628929 188 13474930 64 15 54 1849
1.3439387 -1.6941476 0.33322343 20 13474930 9 16 52 2188
1.4777511 -1.7289789 0.32815829 20 13474930 11 17 82 2298
1.3138553 -1.4280375 0.26126122 14 13474930 6 18 62 1958
1.3368615 -1.3503987 0.23759231 44 13474930 16 19 94 1915
1.5030463 -1.8947839 0.2826159 37 13474930 22 20 84 2435
1.4907466 -1.7447385 0.24581824 15 13474930 8 21 97 2308
1.4285624 -1.5541828 0.20583121 11 13474930 5 22 76 2121
1.4688094 -1.485289 0.18418752 15 13474930 6 23 152 2097
1.3278538 -1.6745914 0.1711259 12 13474930 6 24 78 2144
1.5372101 -1.8000724 0.16689551 15 13474930 9 25 84 2373
1.562987 -1.700547 0.14074227 19 13474930 10 26 135 2314
0 -0 0 9 13474930 0 27 86 0
1.3138976 -1.6586552 0.091979623 80 13474930 36 28 47 2118
1.6459093 -1.928722 0.085929111 14 13474930 9 29 48 2537
1.5117671 -1.647934 0.055162188 22 13474930 11 30 42 2237
1.5185672 -1.5385562 0.03229912 44 13474930 21 31 73 2162
1.4379532 -1.8154575 0.0161686 79 13474930 42 32 108 2316
1.4703021 -1.7242202 -0.0057346225 77 13474930 40 33 78 2266
1.5943739 -1.7384075 -0.028161198 27 13474930 15 34 82 2359
0 -0 -0 7 13474930 0 35 65 0
1.4370879 -1.8161877 -0.068777114 51 13474930 27 36 137 2317
1.5819333 -1.8578864 -0.095446594 100 13474930 60 37 81 2442
0 -0 -0 3 13474930 0 38 69 0
0 -0 -0 0 13474930 0 39 92 0
1.4591196 -1.8470106 -0.1562169 14 13474930 8 40 110 2359
0 -0 -0 6 13474930 0 41 92 0
1.6070135 -1.7546464 -0.20314507 73 13474930 41 42 150 2388
1.6924593 -1.7187529 -0.22890857 287 13474930 169 43 78 2423
0 -0 -0 8 13474930 0 44 109 0
1.6398284 -1.929221 -0.28526023 84 13474930 55 45 76 2548
1.6214764 -1.7723004 -0.29354033 213 13474930 125 46 117 2420
1.771248 -1.7996448 -0.33341983 205 13474930 133 47 137 2547
1.5127727 -1.9196062 -0.34301001 29 13474930 18 48 102 2468
1.6144542 -1.901049 -0.37421191 89 13474930 57 49 65 2522
1.587492 -1.7369801 -0.37611037 158 13474930 89 50 52 2383
1.5535232 -1.5793115 -0.37596673 79 13474930 40 51 74 2247
1.5210669 -1.933669 -0.43849909 100 13474930 63 52 107 2499
1.5596144 -1.8383594 -0.45304209 131 13474930 79 53 80 2453
1.2629583 -1.3827583 -0.37040117 10 13474930 4 54 81 1909
0 -0 -0 6 13474930 0 55 63 0
1.3717866 -1.7459009 -0.48168015 16 13474930 8 56 116 2272
0 -0 -0 4 13474930 0 57 58 0
1.623823 -1.7785391 -0.57063419 170 13474930 104 58 78 2475
1.6057211 -1.6326038 -0.56669801 156 13474930 87 59 74 2359
1.4627811 -1.8661994 -0.60850322 222 13474930 133 60 69 2448
1.4697061 -1.7371702 -0.60681868 209 13474930 116 61 43 2355
1.7318583 -1.8975993 -0.71227819 259 13474930 184 62 55 2666
1.8232455 -1.8522174 -0.74972796 137 13474930 101 63 64 2705
1.0743184 -1.3738382 0.5443694 91 13574200 31 0 60 1827
1.0844951 -1.2830172 0.50423563 202 13574200 62 1 41 1754
1.1196309 -1.2279239 0.48117569 180 13574200 54 2 54 1730
1.168889 -1.1887722 0.4657039 279 13574200 84 3 48 1731
1.0300678 -1.3158773 0.45142916 200 13574200 60 4 45 1731
1.1497613 -1.3614352 0.46241152 132 13574200 45 5 22 1841
1.1828644 -1.2982743 0.43751082 237 13574200 78 6 73 1810
1.2077745 -1.2308089 0.41221344 202 13574200 64 7 75 1773
1.2094222 -1.5443858 0.45203909 27 13574200 11 8 104 2013
1.1190236 -1.3240068 0.38133678 138 13574200 43 9 39 1775
1.2048147 -1.3238043 0.37577298 116 13574200 39 10 49 1829
1.2199925 -1.2454321 0.34900084 260 13574200 82 11 33 1778
1.2542592 -1.6011227 0.39023232 29 13574200 12 12 122 2071
1.313475 -1.555289 0.36962202 21 13574200 9 13 59 2069
1.3045882 -1.4339845 0.3329075 48 13574200 19 14 121 1967
1.2768421 -1.3041044 0.29628929 164 13574200 56 15 63 1849
1.3042637 -1.6650157 0.32591322 24 13574200 11 16 58 2140
1.4671146 -1.7380136 0.32815829 22 13574200 12 17 94 2298
1.4570374 -1.6032963 0.29168388 15 13574200 7 18 78 2186
1.2036737 -1.230877 0.21525988 17 13574200 5 19 86 1735
1.5354904 -1.9602689 0.29097253 20 13574200 13 20 102 2507
1.3338072 -1.5805953 0.22153464 16 13574200 7 21 106 2080
1.3628013 -1.5010213 0.19767949 16 13574200 6 22 54 2037
1.9608418 -2.0073287 0.24742785 21 13574200 16 23 146 2817
1.4207948 -1.8145614 0.18453501 21 13574200 11 24 64 2312
1.3872211 -1.6447653 0.15170401 14 13574200 7 25 78 2157
1.5927787 -1.7544467 0.1443916 22 13574200 12 26 123 2374
1.7930847 -1.837775 0.13218071 12 13574200 8 27 103 2571
1.3627865 -1.7422297 0.09614867 124 13574200 61 28 58 2214
1.5644827 -1.8562508 0.082271114 21 13574200 12 29 45 2429
1.8399465 -2.0305443 0.067590334 18 13574200 14 30 59 2741
1.4253368 -1.4619331 0.030506384 58 13574200 24 31 72 2042
1.4415721 -1.8431505 0.01633615 94 13574200 52 32 99 2340
1.5138054 -1.7974589 -0.0059472034 91 13574200 50 33 80 2350
1.6239573 -1.7926211 -0.028877463 29 13574200 17 34 92 2419
0 -0 -0 6 13574200 0 35 89 0
1.5219215 -1.9478438 -0.073407769 59 13574200 36 36 140 2473
1.5164814 -1.8033175 -0.092163414 88 13574200 49 37 68 2358
0 -0 -0 8 13574200 0 38 74 0
0 -0 -0 0 13574200 0 39 84 0
1.4772173 -1.8936925 -0.15939553 45 13574200 26 40 88 2407
0 -0 -0 7 13574200 0 41 108 0
1.6603866 -1.8354076 -0.21131173 56 13574200 34 42 157 2484
1.7068702 -1.7547957 -0.23230961 280 13574200 170 43 77 2459
0 -0 -0 7 13574200 0 44 89 0
1.6126262 -1.9209805 -0.28257334 96 13574200 61 45 77 2524
1.6025851 -1.7733788 -0.29208478 217 13574200 126 46 116 2408
1.7104146 -1.7592995 -0.32399452 59 13574200 36 47 153 2475
1.4644755 -1.8819596 -0.33467105 95 13574200 55 48 97 2408
1.6180114 -1.9291041 -0.37777299 127 13574200 83 49 66 2546
1.600625 -1.7730752 -0.38179231 112 13574200 65 50 44 2419
1.5438035 -1.5888139 -0.37596673 107 13574200 54 51 73 2247
1.451198 -1.8683259 -0.42165402 76 13574200 44 52 98 2403
1.5483052 -1.8478943 -0.45304209 149 13574200 90 53 110 2453
0 -0 -0 7 13574200 0 54 88 0
1.3304064 -1.3691474 -0.39743462 11 13574200 4 55 57 1950
1.4113686 -1.8191444 -0.4994888 19 13574200 11 56 95 2356
1.3939847 -1.6654843 -0.49244088 15 13574200 8 57 66 2227
1.6441596 -1.8231546 -0.58170104 175 13574200 112 58 64 2523
1.5875564 -1.6340706 -0.56381524 210 13574200 116 59 94 2347
1.4584169 -1.8843315 -0.61148602 207 13574200 125 60 53 2460
1.4441503 -1.7283603 -0.60063457 204 13574200 111 61 41 2331
1.7201822 -1.9081901 -0.71227819 260 13574200 185 62 69 2666
1.787733 -1.8385708 -0.73975003 173 13574200 124 63 62 2669
1.0868708 -1.4076042 0.55509585 79 13672800 28 0 72 1863
1.0839678 -1.2984705 0.50768536 187 13672800 58 1 55 1766
1.1197892 -1.2433355 0.48451331 156 13672800 47 2 51 1742
1.1535205 -1.1876314 0.46247548 271 13672800 80 3 47 1719
1.0078049 -1.3038414 0.44517019 172 13672800 50 4 64 1707
1.1339463 -1.3595445 0.45939746 125 13672800 42 5 27 1829
1.1592977 -1.2881973 0.43170959 233 13672800 74 6 92 1786
1.2164459 -1.2549571 0.4177933 100 13672800 32 7 73 1797
1.0854747 -1.403769 0.4089236 18 13672800 6 8 78 1821
1.2460614 -1.4927992 0.42774168 41 13672800 16 9 38 1991
1.2516284 -1.3923082 0.393031 98 13672800 36 10 67 1913
1.2532387 -1.2951742 0.36077815 259 13672800 87 11 46 1838
1.3886212 -1.7952247 0.43545482 23 13672800 12 12 102 2311
1.4475956 -1.735594 0.41035372 19 13672800 10 13 77 2297
1.2246196 -1.36279 0.31462887 30 13672800 10 14 115 1859
1.2852855 -1.328943 0.30013514 214 13672800 75 15 58 1873
1.4173783 -1.8324682 0.35698158 26 13672800 14 16 53 2344
1.4564227 -1.7469831 0.32815829 20 13672800 11 17 90 2298
1.2326784 -1.3732517 0.24845169 14 13672800 5 18 74 1862
1.5104623 -1.5636787 0.27183539 10 13672800 5 19 85 2191
1.6036463 -2.0733609 0.30629298 33 13672800 23 20 85 2639
1.3775563 -1.6529105 0.23048122 18 13672800 9 21 93 2164
1.5369648 -1.7138627 0.22446375 13 13672800 7 22 74 2313
1.6247777 -1.6838441 0.20632164 17 13672800 9 23 148 2349
1.4681658 -1.8989509 0.19219738 28 13672800 16 24 73 2408
1.4307314 -1.7176286 0.15761182 20 13672800 10 25 81 2241
1.5100147 -1.683929 0.13782281 16 13672800 8 26 123 2266
1.7235603 -1.7883403 0.1278621 20 13672800 12 27 108 2487
1.3520707 -1.7505587 0.09614867 142 13672800 69 28 56 2214
1.4686649 -1.7644207 0.077800229 15 13672800 8 29 41 2297
1.9074578 -2.1311848 0.070549406 14 13672800 12 30 67 2861
1.7076535 -1.7731359 0.036780957 22 13672800 14 31 72 2462
1.3862283 -1.7949777 0.015833499 85 13672800 44 32 101 2268
1.4567063 -1.751359 -0.005764991 84 13672800 44 33 75 2278
1.6209288 -1.8114939 -0.029020717 28 13672800 17 34 108 2431
0 -0 -0 9 13672800 0 35 75 0
1.473307 -1.9096612 -0.071626745 94 13672800 55 36 151 2413
1.528371 -1.8402617 -0.093570493 101 13672800 58 37 66 2394
0 -0 -0 6 13672800 0 38 95 0
0 -0 -0 4 13672800 0 39 74 0
1.5240223 -1.9786084 -0.1657528 108 13672800 68 40 89 2503
0 -0 -0 7 13672800 0 41 91 0
1.5853602 -1.7742348 -0.20314507 73 13672800 41 42 146 2388
1.7209015 -1.791079 -0.23571065 201 13672800 125 43 84 2495
1.1278865 -1.4653708 -0.19089769 11 13672800 4 44 114 1859
1.5931981 -1.9216592 -0.28122988 76 13672800 48 45 90 2512
1.6630609 -1.863155 -0.3051849 108 13672800 68 46 120 2516
1.6171833 -1.6839546 -0.30828568 88 13672800 49 47 126 2355
1.4384196 -1.8720636 -0.33133543 123 13672800 70 48 95 2384
1.598574 -1.9298568 -0.37599245 315 13672800 202 49 56 2534
1.5897155 -1.7828631 -0.38179231 64 13672800 38 50 58 2419
1.5667951 -1.6323982 -0.38399804 108 13672800 57 51 69 2295
1.3606219 -1.7740784 -0.39849198 66 13672800 34 52 106 2271
1.5444562 -1.866446 -0.45525837 146 13672800 89 53 97 2465
0 -0 -0 7 13672800 0 54 71 0
0 -0 -0 8 13672800 0 55 57 0
1.378785 -1.7998415 -0.49185655 11 13672800 6 56 127 2320
1.3091776 -1.5838039 -0.46590617 12 13672800 5 57 72 2107
1.6484753 -1.8506471 -0.5872345 174 13672800 113 58 72 2547
1.5049094 -1.5681404 -0.53787059 285 13672800 143 59 70 2239
1.4538852 -1.9024801 -0.61446893 256 13672800 156 60 47 2472
1.4482776 -1.755075 -0.60681868 200 13672800 111 61 57 2355
1.6853716 -1.8928 -0.70266002 218 13672800 151 62 70 2630
1.8003787 -1.874452 -0.74972796 186 13672800 136 63 62 2705
1.0712684 -1.4051372 0.55152035 91 13771200 31 0 87 1851
1.0759801 -1.3050971 0.50768536 182 13771200 57 1 75 1766
1.1198003 -1.258795 0.48785096 151 13771200 46 2 42 1754
1.1462115 -1.1946869 0.46247548 258 13771200 76 3 31 1719
1.0700694 -1.402092 0.47646511 35 13771200 12 4 101 1827
1.1403527 -1.3844074 0.46542561 124 13771200 42 5 28 1853
1.1823156 -1.330098 0.44331208 207 13771200 70 6 107 1834
1.1925796 -1.2455374 0.41221344 89 13771200 28 7 70 1773
1.1619947 -1.521934 0.44126025 20 13771200 8 8 103 1965
1.5798 -1.9164038 0.54633206 17 13771200 11 9 52 2543
1.1962764 -1.3472712 0.37823841 212 13771200 72 10 54 1841
1.2127475 -1.2688155 0.3513563 218 13771200 70 11 20 1790
1.2702824 -1.6632231 0.40153795 17 13771200 8 12 115 2131
1.6921487 -2.054297 0.48324198 14 13771200 11 13 63 2705
1.6637359 -1.8744584 0.43039337 12 13771200 8 14 112 2543
1.3016536 -1.3624984 0.30590385 70 13771200 26 15 69 1909
1.4061078 -1.8411305 0.35698158 24 13771200 13 16 71 2344
1.6268573 -1.9759455 0.36928517 26 13771200 18 17 91 2586
1.4293629 -1.6121569 0.29008269 12 13771200 6 18 71 2174
1.3035586 -1.3661623 0.23610349 18 13771200 7 19 75 1903
1.5330216 -2.0073817 0.29515085 28 13771200 18 20 104 2543
1.4735442 -1.7903078 0.2483744 22 13771200 12 21 94 2332
1.4234705 -1.6070358 0.20932481 10 13771200 5 22 64 2157
0 -0 0 8 13771200 0 23 146 0
1.3330963 -1.7462888 0.17591487 21 13771200 10 24 65 2204
1.4581884 -1.7725966 0.16183168 17 13771200 9 25 75 2301
1.6267208 -1.8366257 0.14950065 19 13771200 11 26 129 2458
1.8778194 -1.9724777 0.14020102 17 13771200 13 27 96 2727
1.3776538 -1.8064867 0.098754331 119 13771200 62 28 97 2274
1.442579 -1.7548697 0.076987334 26 13771200 13 29 38 2273
1.6957072 -1.9181529 0.06315171 25 13771200 16 30 47 2561
1.9034933 -2.0009136 0.041262798 24 13771200 19 31 72 2762
1.4333974 -1.8797861 0.016503699 100 13771200 56 32 105 2364
1.4840169 -1.8066275 -0.0059168343 64 13771200 35 33 94 2338
1.5303203 -1.7314966 -0.027588185 44 13771200 24 34 105 2311
1.7794006 -1.8728904 -0.055422802 14 13771200 10 35 83 2584
1.4106827 -1.8518736 -0.069133312 54 13771200 29 36 132 2329
1.4257994 -1.7383505 -0.08794219 112 13771200 57 37 64 2250
0 -0 -0 0 13771200 0 38 94 0
0 -0 -0 7 13771200 0 39 65 0
1.5046051 -1.9783919 -0.16495815 130 13771200 81 40 112 2491
1.5231457 -1.8587558 -0.18208286 11 13771200 6 41 98 2410
1.5586203 -1.7660002 -0.20110342 26 13771200 14 42 164 2364
1.7674464 -1.8622599 -0.2436464 177 13771200 118 43 67 2579
0 -0 -0 7 13771200 0 44 140 0
1.60404 -1.9590781 -0.28526023 36 13771200 24 45 73 2548
1.6594748 -1.8822591 -0.30664051 86 13771200 55 46 112 2528
1.655946 -1.7456322 -0.31771097 128 13771200 75 47 135 2427
1.4340882 -1.8903219 -0.33300325 96 13771200 55 48 92 2396
1.5416187 -1.8845173 -0.36530915 294 13771200 178 49 77 2462
1.5552509 -1.7659063 -0.37611037 44 13771200 25 50 68 2383
1.5730292 -1.6591522 -0.38801369 120 13771200 65 51 78 2319
1.4210296 -1.8765754 -0.41954836 74 13771200 42 52 89 2391
1.5553632 -1.9032837 -0.46190718 162 13771200 101 53 96 2501
1.416178 -1.6090151 -0.42395318 15 13771200 7 54 91 2185
0 -0 -0 6 13771200 0 55 59 0
1.3464923 -1.7802085 -0.48422426 21 13771200 11 56 113 2284
1.3882431 -1.7005969 -0.49774787 10 13771200 5 57 67 2251
1.6293759 -1.8519603 -0.58446777 172 13771200 110 58 51 2535
1.4872452 -1.5688909 -0.53498787 306 13771200 152 59 88 2227
1.4141808 -1.8742512 -0.60253745 344 13771200 202 60 46 2424
1.4667804 -1.7998811 -0.619187 194 13771200 112 61 48 2403
1.5897214 -1.8075886 -0.66739345 212 13771200 132 62 81 2498
1.8047148 -1.9021922 -0.75637984 199 13771200 148 63 56 2729
1.0350705 -1.3750762 0.53721839 123 13869500 40 0 52 1803
1.0824655 -1.3295004 0.51458484 124 13869500 40 1 74 1790
1.1348798 -1.2916191 0.49786386 172 13869500 55 2 37 1790
1.1706601 -1.2352527 0.47538927 228 13869500 71 3 40 1767
0.9917289 -1.3161105 0.44517019 21 13869500 6 4 79 1707
1.1098474 -1.3643467 0.45638335 136 13869500 45 5 28 1817
1.1587671 -1.3198271 0.43751082 192 13869500 63 6 96 1810
1.2570922 -1.329146 0.43732285 88 13869500 31 7 71 1881
1.2793361 -1.6971123 0.48976514 18 13869500 9 8 95 2181
1.1980519 -1.4716227 0.41742948 19 13869500 7 9 47 1943
1.1879872 -1.3545861 0.37823841 94 13869500 32 10 65 1841
1.2372504 -1.3104559 0.36077815 215 13869500 73 11 39 1838
1.53678 -2.0379603 0.4897218 30 13869500 20 12 110 2599
1.3740332 -1.689113 0.3953473 17 13869500 8 13 56 2213
1.8081326 -2.0624971 0.47101247 16 13869500 12 14 114 2783
1.27701 -1.3532301 0.30205804 85 13869500 30 15 48 1885
1.2376926 -1.6413929 0.31677547 20 13869500 8 16 48 2080
1.6296881 -2.0043211 0.3727124 25 13869500 17 17 100 2610
1.7328447 -1.9787767 0.35413039 18 13869500 13 18 69 2654
0 -0 0 8 13869500 0 19 86 0
1.463269 -1.9406165 0.28400865 27 13869500 16 20 94 2447
1.5678937 -1.9289403 0.26626757 22 13869500 14 21 107 2500
1.2720282 -1.4539411 0.18836322 17 13869500 7 22 76 1941
1.5466334 -1.6427331 0.19894359 15 13869500 8 23 147 2265
1.4663514 -1.9454812 0.19507076 24 13869500 15 24 78 2444
1.4472846 -1.7815105 0.16183168 23 13869500 12 25 93 2301
1.5602152 -1.7834674 0.1443916 20 13869500 11 26 133 2374
1.7096946 -1.8180866 0.12847903 17 13869500 11 27 98 2499
1.3449095 -1.7861738 0.097190939 137 13869500 69 28 71 2238
1.4317842 -1.7636882 0.076987334 23 13869500 12 29 50 2273
1.7233567 -1.9737035 0.064631246 17 13869500 11 30 46 2621
1.8336642 -1.9513483 0.040007886 16 13869500 12 31 91 2678
1.400184 -1.8597863 0.016252374 110 13869500 60 32 81 2328
1.4351047 -1.7691032 -0.005764991 90 13869500 47 33 79 2278
1.5038853 -1.7227749 -0.027301678 65 13869500 34 34 86 2287
1.6693559 -1.7787952 -0.052334223 15 13869500 9 35 69 2440
1.5723274 -2.0905602 -0.077682219 15 13869500 10 36 138 2617
1.5056731 -1.8588786 -0.093570493 70 13869500 40 37 70 2394
1.5402281 -1.7658999 -0.11406991 10 13869500 6 38 76 2346
0 -0 -0 4 13869500 0 39 60 0
1.4708688 -1.9588621 -0.16257417 125 13869500 75 40 108 2455
1.3762224 -1.7006383 -0.16576339 13 13869500 6 41 100 2194
0 -0 -0 10 13869500 0 42 151 0
1.7069633 -1.8207777 -0.23684433 125 13869500 79 43 67 2507
0 -0 -0 7 13869500 0 44 99 0
1.5844915 -1.9596107 -0.28391677 29 13869500 19 45 64 2536
1.6009605 -1.8385084 -0.29790705 96 13869500 58 46 136 2456
1.6208004 -1.7297165 -0.31299832 201 13869500 115 47 147 2391
1.5079527 -2.013221 -0.35301679 274 13869500 177 48 98 2540
1.4778241 -1.8293223 -0.35284531 51 13869500 29 49 77 2378
1.7154806 -1.9721048 -0.41777766 136 13869500 96 50 75 2647
1.5951673 -1.7033141 -0.39604506 99 13869500 56 51 62 2367
1.4165624 -1.8947212 -0.42165402 215 13869500 124 52 103 2403
1.5362489 -1.9036137 -0.4596909 169 13869500 105 53 86 2489
0 -0 -0 7 13869500 0 54 78 0
1.3371022 -1.4277031 -0.40721765 14 13869500 6 55 64 1998
1.3425606 -1.7978331 -0.48676834 18 13869500 9 56 119 2296
1.3410578 -1.6635277 -0.4844805 17 13869500 8 57 65 2191
1.5796864 -1.817854 -0.57063419 180 13869500 110 58 78 2475
1.4935145 -1.5949928 -0.54075336 285 13869500 145 59 81 2251
1.4165417 -1.9015357 -0.60850322 353 13869500 211 60 50 2448
1.4920563 -1.8540119 -0.63464731 169 13869500 102 61 49 2463
1.548267 -1.7823886 -0.65456921 258 13869500 155 62 73 2450
1.7614723 -1.8795786 -0.74307603 227 13869500 163 63 63 2681
1.0539446 -1.4181775 0.55152035 73 13966620 25 0 69 1851
1.0958933 -1.3629888 0.52493399 62 13966620 21 1 71 1826
1.081604 -1.2463257 0.47783804 162 13966620 48 2 53 1718
1.1551602 -1.2339751 0.47216082 246 13966620 76 3 30 1755
1.0942719 -1.470886 0.49524203 24 13966620 9 4 105 1899
1.1087295 -1.3801863 0.45939746 126 13966620 42 5 43 1829
1.1506469 -1.3269123 0.43751082 171 13966620 56 6 109 1810
1.1931401 -1.2771353 0.4177933 223 13966620 72 7 79 1797
1.2200279 -1.6392659 0.47090214 18 13966620 8 8 87 2097
1.1743132 -1.4606782 0.41227338 19 13966620 7 9 45 1919
1.1488963 -1.3263427 0.36837667 121 13966620 39 10 87 1793
1.2291864 -1.3180228 0.36077815 154 13966620 52 11 53 1838
1.2145879 -1.6314216 0.39023232 41 13966620 18 12 115 2071
1.3266714 -1.6514883 0.38462844 24 13966620 11 13 63 2153
1.3309377 -1.5370964 0.34915513 15 13966620 6 14 101 2063
1.2283002 -1.3177179 0.29244345 78 13966620 26 15 53 1825
1.5038074 -2.0199716 0.38804993 23 13966620 15 16 57 2548
1.5355617 -1.9124111 0.35386258 22 13966620 14 17 93 2478
1.619531 -1.8724383 0.3333149 14 13966620 9 18 74 2498
1.5950158 -1.7132267 0.29267901 10 13966620 6 19 78 2359
1.4726859 -1.97824 0.28818697 34 13966620 21 20 97 2483
1.503746 -1.8733901 0.257321 29 13966620 17 21 90 2416
1.3645983 -1.5791985 0.20350215 15 13966620 7 22 75 2097
1.5039624 -1.6171788 0.19472755 15 13966620 7 23 150 2217
1.4543865 -1.9544419 0.19507076 17 13966620 10 24 83 2444
1.5636667 -1.9490852 0.1761792 20 13966620 13 25 94 2505
1.5883979 -1.8383231 0.14804092 17 13966620 10 26 127 2434
1.6495702 -1.7758597 0.12477735 14 13966620 8 27 86 2427
1.3410769 -1.8040136 0.097712062 137 13966620 69 28 90 2250
1.4059322 -1.7537255 0.076174445 82 13966620 41 29 42 2249
1.6798755 -1.9479022 0.063447617 10 13966620 6 30 50 2573
1.4951459 -1.6107965 0.03283694 13 13966620 6 31 84 2198
1.3529538 -1.8201895 0.015833499 101 13966620 52 32 104 2268
1.4542327 -1.8153373 -0.0058864662 68 13966620 37 33 73 2326
1.5089569 -1.7501456 -0.027588185 60 13966620 32 34 75 2311
1.7073467 -1.841795 -0.053878512 12 13966620 8 35 66 2512
1.5666212 -2.1097987 -0.078038424 16 13966620 11 36 151 2629
1.4867489 -1.8587185 -0.093101472 44 13966620 25 37 65 2382
1.6701746 -1.9387735 -0.1245725 12 13966620 8 38 99 2562
0 -0 -0 2 13966620 0 39 76 0
1.5158674 -2.0448008 -0.16893145 264 13966620 172 40 107 2551
0 -0 -0 10 13966620 0 41 125 0
0 -0 -0 4 13966620 0 42 132 0
1.6551744 -1.7873905 -0.23117591 66 13966620 40 43 78 2447
0 -0 -0 7 13966620 0 44 114 0
1.6394027 -2.0531621 -0.29600787 30 13966620 21 45 59 2644
1.6906208 -1.9656972 -0.3168295 139 13966620 95 46 122 2612
1.6182376 -1.74836 -0.31456923 159 13966620 92 47 124 2403
1.4673086 -1.9842165 -0.3463456 436 13966620 271 48 128 2492
1.510976 -1.8940166 -0.36352861 36 13966620 21 49 57 2450
1.6956258 -1.9736059 -0.41588372 246 13966620 171 50 66 2635
1.5605843 -1.6870155 -0.39002153 102 13966620 56 51 78 2331
1.3908784 -1.8843675 -0.41744274 164 13966620 93 52 106 2379
1.5098394 -1.8945582 -0.45525837 199 13966620 121 53 104 2465
0 -0 -0 9 13966620 0 54 97 0
1.4320291 -1.5479913 -0.43901241 18 13966620 9 55 58 2154
1.4358903 -1.9476253 -0.52492964 28 13966620 17 56 129 2476
1.338114 -1.6808809 -0.48713395 14 13966620 7 57 57 2203
1.5532929 -1.8097913 -0.56510079 190 13966620 114 58 63 2451
1.4836997 -1.6041268 -0.54075336 238 13966620 121 59 92 2251
1.3910743 -1.8914642 -0.60253745 349 13966620 205 60 74 2424
