# .PCD v0.7 - Point Cloud Data file format
VERSION 0.7
FIELDS x y z intensity t reflectivity ring noise range
SIZE 4 4 4 4 4 2 1 2 4
TYPE F F F F U U U U U
COUNT 1 1 1 1 1 1 1 1 1
WIDTH 804
HEIGHT 1
VIEWPOINT 0 0 0 1 0 0 0
POINTS 804
DATA ascii
4.4685082 -3.3212171 -0.32385263 292 11026530 907 39 49 5577
3.180166 -2.9554577 -0.28813043 441 11026530 835 40 76 4351
3.5479572 -3.0650616 -0.35525045 347 11026530 768 41 85 4702
3.9456935 -3.1639879 -0.43181092 338 11026530 871 42 87 5076
4.4462628 -3.308419 -0.52593231 315 11026530 978 43 58 5567
3.2071617 -2.9826329 -0.45213693 375 11026530 727 44 96 4403
3.5931652 -3.1066363 -0.53514284 326 11026530 746 45 65 4780
4.0003715 -3.2112761 -0.62686634 342 11026530 914 46 77 5168
4.5065217 -3.3549685 -0.74184924 261 11026530 839 47 72 5667
3.2143376 -2.9943323 -0.61652857 414 11026530 815 48 70 4436
3.5909734 -3.1074805 -0.71251607 336 11026530 774 49 46 4802
4.0048833 -3.2183478 -0.82119274 322 11026530 871 50 36 5203
4.5375524 -3.3800397 -0.96024615 278 11026530 914 51 44 5739
3.2151406 -3.0004301 -0.78382367 410 11026530 819 52 71 4467
3.6139374 -3.1305528 -0.89851195 308 11026530 730 53 71 4865
4.0280929 -3.2390823 -1.0223383 294 11026530 815 54 45 5269
4.5459294 -3.3861563 -1.1800752 278 11026530 931 55 37 5790
3.2248995 -3.0129089 -0.95742416 369 11026530 753 56 94 4516
3.6213837 -3.1403236 -1.0868195 331 11026530 801 57 61 4915
4.0418911 -3.2514558 -1.2291116 276 11026530 783 58 44 5331
4.6013169 -3.4280374 -1.419988 277 11026530 966 59 44 5911
3.2239544 -3.0190942 -1.1334864 337 11026530 700 60 38 4560
3.6174016 -3.1421838 -1.2777978 324 11026530 796 61 38 4959
4.1185536 -3.3144283 -1.4657006 216 11026530 649 62 53 5486
4.6375384 -3.452003 -1.6676942 200 11026530 723 63 39 6017
1.5388923 -1.4444149 0.65878528 265 11122830 129 0 48 2211
1.501991 -1.3058507 0.59737831 119 11122830 52 1 60 2078
1.6352127 -1.3171959 0.60800582 189 11122830 90 2 47 2186
1.0587863 -0.78902608 0.36885041 16 11122830 3 3 29 1371
1.2612889 -1.1826543 0.46707663 13 11122830 4 4 52 1791
1.06389 -0.92577535 0.36596066 8 11122830 2 5 12 1457
1.0772582 -0.86843491 0.34469086 12 11122830 3 6 63 1426
1.0076039 -0.75247175 0.30061591 11 11122830 2 7 37 1293
0 -0 0 0 11122830 0 8 53 0
1.1666826 -1.0144364 0.34008795 83 11122830 21 9 5 1583
1.1370479 -0.91764987 0.30674085 95 11122830 21 10 21 1493
1.1604255 -0.8681764 0.29011431 97 11122830 21 11 11 1478
1.071389 -1.003891 0.28169838 107 11122830 24 12 41 1495
1.0992581 -0.95655197 0.26457721 92 11122830 20 13 24 1481
1.1126876 -0.89834285 0.2455764 75 11122830 16 14 41 1451
1.1671515 -0.87365323 0.2366789 70 11122830 15 15 31 1477
1.0760236 -1.0082688 0.22722548 80 11122830 18 16 8 1492
1.0346452 -0.90073967 0.19792314 78 11122830 15 17 37 1386
1.1022038 -0.89086413 0.19080876 67 11122830 14 18 42 1430
1.1775227 -0.88253927 0.18399446 45 11122830 10 19 50 1483
1.0690269 -1.0017478 0.17119443 51 11122830 11 20 56 1475
1.0647649 -0.92725533 0.15123999 117 11122830 24 21 18 1420
1.1397495 -0.92209899 0.14294642 81 11122830 18 22 43 1473
1.2501488 -0.93802851 0.13781126 32 11122830 8 23 79 1569
1.1926682 -1.1180378 0.13089855 56 11122830 15 24 42 1640
1.1709962 -1.0203066 0.1095054 14 11122830 3 25 53 1557
1.1624013 -0.94049233 0.091111459 25 11122830 6 26 76 1498
1.2096645 -0.9087742 0.077889457 47 11122830 11 27 63 1515
1.3157469 -1.2346236 0.07843022 89 11122830 29 28 109 1806
3.4297302 -2.9904821 0.15421177 286 11122830 592 29 39 4553
3.8432887 -3.115581 0.12203741 250 11122830 612 30 39 4949
4.3077221 -3.2386959 0.080523707 282 11122830 821 31 59 5390
3.1937923 -2.9971914 0.03057792 90 11122830 173 32 103 4380
3.4614837 -3.0204029 -0.01162615 348 11122830 734 33 53 4594
3.8826368 -3.1482649 -0.059676904 243 11122830 608 34 73 4999
4.3354712 -3.2639432 -0.11642221 286 11122830 841 35 56 5428
3.1217873 -2.9324892 -0.12719461 370 11122830 679 36 145 4285
3.4626558 -3.0258994 -0.1798711 375 11122830 793 37 55 4602
3.8855343 -3.1533132 -0.24360198 334 11122830 839 38 104 5010
4.3523374 -3.2765219 -0.31688434 299 11122830 892 39 59 5457
3.1270888 -2.9420958 -0.28495178 413 11122830 765 40 94 4303
3.475044 -3.0395072 -0.34981063 386 11122830 828 41 74 4630
3.9076416 -3.1730647 -0.42976925 332 11122830 848 42 103 5052
4.3686376 -3.2924976 -0.51913029 308 11122830 929 43 55 5495
3.1453462 -2.9613435 -0.44597563 382 11122830 721 44 87 4343
3.5022557 -3.0657907 -0.52439517 358 11122830 784 45 53 4684
3.9251349 -3.1906812 -0.61813289 326 11122830 847 46 83 5096
4.3908625 -3.3109305 -0.72614044 293 11122830 902 47 95 5547
3.1699679 -2.9895387 -0.61152512 396 11122830 767 48 73 4400
3.5182834 -3.0825334 -0.70183277 347 11122830 776 49 41 4730
3.9391055 -3.2054646 -0.81172287 337 11122830 890 50 46 5143
4.4222851 -3.3365622 -0.94016778 274 11122830 864 51 56 5619
3.1623201 -2.987649 -0.77540118 389 11122830 760 52 69 4419
3.5325944 -3.0982339 -0.88299805 341 11122830 780 53 68 4781
3.9533718 -3.2191386 -1.0083681 294 11122830 795 54 59 5197
4.4594178 -3.3644564 -1.1629549 263 11122830 855 55 44 5706
3.1722722 -3.0004063 -0.94724786 405 11122830 809 56 84 4468
3.5492804 -3.1161575 -1.0708988 310 11122830 726 57 50 4843
4.0128112 -3.2688205 -1.2263448 273 11122830 771 58 37 5319
4.4965115 -3.3930578 -1.3940434 242 11122830 813 59 54 5803
3.1800632 -3.0148284 -1.1245377 347 11122830 710 60 37 4524
3.5545199 -3.126035 -1.2623376 320 11122830 767 61 27 4899
4.0174613 -3.2738914 -1.4368463 225 11122830 650 62 46 5378
4.5610313 -3.4387467 -1.6477385 183 11122830 646 63 39 5945
1.5300006 -1.4538301 0.65878528 261 11220870 127 0 43 2211
1.5457137 -1.3606068 0.61807674 230 11220870 106 1 51 2150
1.6360317 -1.3344903 0.61134344 224 11220870 108 2 29 2198
1.0262507 -0.77461922 0.35916507 17 11220870 3 3 26 1335
1.1615858 -1.1026385 0.43265221 14 11220870 4 4 49 1659
1.241212 -1.0935323 0.42925656 9 11220870 3 5 18 1709
1.0989702 -0.89711887 0.35339269 9 11220870 2 6 63 1462
1.0960507 -0.82904756 0.32851529 13 11220870 3 7 30 1413
0 -0 0 8 11220870 0 8 58 0
1.0900623 -0.95962316 0.31946355 95 11220870 21 9 18 1487
1.1313958 -0.92460942 0.30674085 104 11220870 23 10 32 1493
1.1644549 -0.8823868 0.2924698 109 11220870 24 11 19 1490
1.0908595 -1.0347778 0.28848174 107 11220870 25 12 58 1531
1.1199456 -0.98669416 0.27100852 70 11220870 16 13 13 1517
1.1346235 -0.92761052 0.25166926 73 11220870 16 14 61 1487
1.1617688 -0.88079828 0.2366789 75 11220870 16 15 31 1477
1.0870255 -1.0311769 0.23088057 101 11220870 23 16 1 1516
1.0736486 -0.94633836 0.20649125 62 11220870 13 17 26 1446
1.1059201 -0.90514272 0.19240995 68 11220870 14 18 28 1442
1.1910536 -0.90414703 0.18697213 57 11220870 13 19 58 1507
1.0888013 -1.0328976 0.17537273 31 11220870 7 20 49 1511
1.0501056 -0.92588013 0.14996192 54 11220870 11 21 38 1408
1.1155925 -0.91393739 0.14061737 94 11220870 20 22 48 1449
1.1777494 -0.89505231 0.13043322 56 11220870 12 23 85 1485
1.177109 -1.1171006 0.12994075 46 11220870 12 24 33 1628
1.2455032 -1.0987422 0.11710115 27 11220870 7 25 52 1665
1.1010175 -0.90206116 0.086732276 24 11220870 5 26 89 1426
1.3089741 -0.996005 0.084675863 35 11220870 9 27 52 1647
3.0291634 -2.877553 0.18161416 399 11220870 697 28 52 4182
3.3933344 -2.9955959 0.15339887 296 11220870 607 29 32 4529
3.8055544 -3.1238811 0.12144559 299 11220870 725 30 37 4925
4.2304921 -3.2214518 0.079448067 298 11220870 842 31 45 5318
1.3310337 -1.2645478 0.012817594 80 11220870 27 32 65 1836
3.3889267 -2.9939158 -0.011443938 345 11220870 705 33 56 4522
3.8076043 -3.1263428 -0.058817387 295 11220870 717 34 68 4927
4.258121 -3.2468369 -0.11487792 267 11220870 765 35 46 5356
3.1037352 -2.9515889 -0.12719461 278 11220870 510 36 117 4285
3.4170823 -3.0232522 -0.17846401 359 11220870 748 37 50 4566
3.8105519 -3.1314361 -0.24010111 320 11220870 780 38 121 4938
4.2845187 -3.2668471 -0.31340018 305 11220870 890 39 59 5397
3.0569568 -2.9116793 -0.28018385 457 11220870 819 40 80 4231
3.4294543 -3.0369737 -0.34709075 336 11220870 710 41 71 4594
3.8142157 -3.1362317 -0.42160264 333 11220870 818 42 100 4956
4.2818809 -3.268501 -0.51119453 314 11220870 918 43 46 5411
3.0925546 -2.9476449 -0.44104657 416 11220870 768 44 77 4295
3.4298337 -3.039767 -0.51633447 348 11220870 739 45 47 4612
3.8503039 -3.1692855 -0.60939944 297 11220870 751 46 80 5024
4.3231907 -3.3017061 -0.71828604 307 11220870 925 47 94 5487
3.0999937 -2.9596958 -0.60151833 400 11220870 750 48 74 4328
3.4549146 -3.0646882 -0.69293004 344 11220870 749 49 42 4670
3.8644936 -3.1843615 -0.80035907 299 11220870 768 50 38 5071
4.3453264 -3.3205335 -0.92812079 302 11220870 928 51 54 5547
3.0927038 -2.9580026 -0.76276731 362 11220870 685 52 88 4347
3.469424 -3.080698 -0.87191671 379 11220870 846 53 68 4721
3.8790495 -3.1984022 -0.99439818 322 11220870 845 54 54 5125
4.3640118 -3.3346913 -1.1433889 270 11220870 848 55 49 5610
3.1029801 -2.9711514 -0.93198335 364 11220870 703 56 108 4396
3.4951053 -3.1067765 -1.0602847 330 11220870 758 57 41 4795
3.9026015 -3.2190804 -1.1986777 309 11220870 834 58 52 5199
4.3923116 -3.3569231 -1.3680987 271 11220870 880 59 71 5695
3.1363471 -3.0101388 -1.1155893 349 11220870 702 60 38 4488
3.4833145 -3.1015236 -1.2437851 332 11220870 773 61 27 4827
3.9348629 -3.2469609 -1.4144038 234 11220870 655 62 41 5294
4.439045 -3.3896956 -1.6111528 196 11220870 661 63 36 5813
1.5293064 -1.4711319 0.66236073 242 11317230 119 0 48 2223
1.5373361 -1.3700655 0.61807674 278 11317230 128 1 48 2150
1.6100384 -1.3298229 0.60466814 231 11317230 109 2 39 2174
1.2142969 -0.92830777 0.42696252 18 11317230 5 3 15 1587
1.0044448 -0.96525753 0.37632138 30 11317230 6 4 53 1443
0 -0 0 5 11317230 0 5 17 0
0 -0 0 7 11317230 0 6 65 0
0 -0 0 6 11317230 0 7 29 0
0 -0 0 9 11317230 0 8 48 0
1.0929027 -0.97409153 0.32204157 96 11317230 22 9 1 1499
1.1166534 -0.92404693 0.30427542 98 11317230 21 10 28 1481
1.1590188 -0.88951516 0.2924698 104 11317230 23 11 16 1490
1.0674893 -1.0251259 0.28395951 86 11317230 19 12 52 1507
1.1403036 -1.0171254 0.27743983 80 11317230 19 13 27 1553
1.11069 -0.91947138 0.24760734 70 11317230 15 14 61 1463
1.0905788 -0.83741289 0.22321847 101 11317230 20 15 35 1393
1.0464611 -1.0049675 0.22357036 99 11317230 21 16 12 1468
1.0678217 -0.95290834 0.20649125 74 11317230 15 17 47 1446
1.0911885 -0.9043228 0.19080876 71 11317230 14 18 37 1430
1.1666038 -0.89692283 0.18399446 58 11317230 13 19 56 1483
1.030864 -0.99002326 0.16701613 33 11317230 7 20 50 1439
1.0978117 -0.97998071 0.15763041 58 11317230 13 21 40 1480
1.1559248 -0.95889223 0.14644003 75 11317230 17 22 33 1509
1.2101258 -0.93142611 0.13464925 45 11317230 11 23 71 1533
3.0334036 -2.9143462 0.3368243 236 11317230 420 24 39 4220
1.2655214 -1.1302853 0.11963307 61 11317230 18 25 40 1701
1.3627974 -1.1305827 0.10789835 10 11317230 3 26 78 1774
1.3692852 -1.0552247 0.088994481 34 11317230 10 27 36 1731
2.9941673 -2.8794651 0.18057188 433 11317230 748 28 39 4158
3.3212373 -2.9684079 0.15096021 292 11317230 579 29 34 4457
3.749413 -3.1164999 0.12026197 249 11317230 591 30 41 4877
4.1536384 -3.2033832 0.078372426 311 11317230 855 31 57 5246
3.0270414 -2.9113848 0.029321296 216 11317230 382 32 70 4200
3.3347154 -2.9826534 -0.011322462 370 11317230 742 33 58 4474
3.7514429 -3.1189623 -0.058244374 278 11317230 663 34 65 4879
4.1526599 -3.206907 -0.11256148 271 11317230 745 35 50 5248
1.3055149 -1.2568628 -0.053816531 91 11317230 30 36 116 1813
3.3627415 -3.0121605 -0.17658792 354 11317230 722 37 51 4518
3.7083466 -3.0857599 -0.23484981 341 11317230 796 38 107 4830
4.1885395 -3.2344987 -0.30782551 295 11317230 828 39 47 5301
3.0131755 -2.905448 -0.27779984 427 11317230 752 40 93 4195
3.366209 -3.0180209 -0.34255758 364 11317230 749 41 92 4534
3.7213912 -3.0983737 -0.41343597 349 11317230 825 42 98 4860
4.214489 -3.2581792 -0.50552613 339 11317230 970 43 46 5351
3.0314612 -2.9251227 -0.43488526 420 11317230 754 44 78 4235
3.3667405 -3.020936 -0.50961721 374 11317230 774 45 46 4552
3.7758851 -3.1470935 -0.60066605 331 11317230 813 46 80 4952
4.2463884 -3.2844985 -0.70886075 255 11317230 748 47 97 5415
3.0305071 -2.9291086 -0.59151155 401 11317230 727 48 85 4256
3.3918989 -3.0461829 -0.68402731 306 11317230 649 49 51 4610
3.7993894 -3.1700563 -0.79088926 325 11317230 815 50 42 5011
4.2687335 -3.3036876 -0.9160738 328 11317230 982 51 44 5475
3.0490341 -2.9522698 -0.75645047 392 11317230 729 52 77 4311
3.3890624 -3.046736 -0.85640281 346 11317230 745 53 72 4637
3.8141685 -3.1844206 -0.98275638 306 11317230 784 54 49 5065
4.2877231 -3.3182645 -1.1287143 273 11317230 836 55 46 5538
3.0594296 -2.9656479 -0.92435104 366 11317230 696 56 95 4360
3.4063849 -3.0655353 -1.039057 345 11317230 763 57 67 4699
3.8469279 -3.2130246 -1.1876107 309 11317230 819 58 40 5151
4.3163619 -3.3410304 -1.3508023 247 11317230 779 59 53 5623
3.0761359 -2.988827 -1.1006749 364 11317230 713 60 45 4428
3.4125457 -3.0762579 -1.2252327 358 11317230 809 61 30 4755
3.8616223 -3.2265563 -1.3951675 281 11317230 765 62 55 5222
4.3543186 -3.3674943 -1.5878711 204 11317230 668 63 42 5729
1.5120445 -1.4724962 0.65878528 235 11415370 115 0 48 2211
1.537434 -1.387172 0.62152648 275 11415370 129 1 72 2162
1.6106904 -1.3470716 0.60800582 212 11415370 101 2 28 2186
1.1720237 -0.90743881 0.4140487 11 11415370 3 3 24 1539
1.0732353 -1.0441062 0.40448681 23 11415370 5 4 50 1551
1.1414945 -1.0308338 0.39911565 11 11415370 3 5 16 1589
0 -0 0 6 11415370 0 6 55 0
1.2978817 -1.0069875 0.39268386 16 11415370 4 7 37 1689
1.0038757 -0.97625417 0.32269257 12 11415370 2 8 48 1437
1.1130083 -1.0043335 0.32977575 102 11415370 24 9 1 1535
1.1289661 -0.94596642 0.30920631 93 11415370 21 10 23 1505
1.1349585 -0.88216794 0.28775886 114 11415370 24 11 16 1466
1.0527291 -1.0234417 0.28169838 45 11415370 10 12 64 1495
1.0902276 -0.98453689 0.26672098 93 11415370 21 13 23 1493
1.1050273 -0.92626911 0.24760734 81 11415370 17 14 64 1463
1.1508726 -0.89498866 0.2366789 96 11415370 21 15 21 1477
1.0572823 -1.0279042 0.22722548 84 11415370 19 16 1 1492
1.0267031 -0.92759377 0.19963677 80 11415370 16 17 37 1398
1.1038394 -0.92629075 0.19401115 75 11415370 16 18 46 1454
1.0765226 -0.83822536 0.17059501 57 11415370 11 19 47 1375
1.0931355 -1.0627981 0.17815828 42 11415370 10 20 31 1535
1.1448915 -1.0346999 0.16529892 43 11415370 10 21 44 1552
1.1317288 -0.95060349 0.14411096 90 11415370 20 22 38 1485
1.166677 -0.90943772 0.13043322 66 11415370 15 23 74 1485
2.955441 -2.8745239 0.33011976 360 11415370 615 24 49 4136
1.2496836 -1.1300006 0.1187891 72 11415370 20 25 29 1689
1.2457782 -1.0464742 0.099139981 19 11415370 5 26 66 1630
1.2399688 -0.96775293 0.080974184 18 11415370 5 27 58 1575
2.9334929 -2.8559678 0.17796624 402 11415370 675 28 41 4098
3.2584968 -2.9484966 0.14892799 302 11415370 583 29 42 4397
3.6567931 -3.0776496 0.11789469 273 11415370 623 30 34 4781
4.077168 -3.1844945 0.077296786 309 11415370 829 31 58 5174
2.9661334 -2.8880479 0.028902421 365 11415370 626 32 73 4140
3.2718766 -2.9627852 -0.011170619 342 11415370 666 33 54 4414
3.6587985 -3.080101 -0.057098348 276 11415370 633 34 62 4783
4.0951033 -3.2027631 -0.11153196 289 11415370 780 35 48 5200
1.2548293 -1.2229903 -0.052035511 64 11415370 20 36 105 1753
3.2909019 -2.9844067 -0.17377377 346 11415370 683 37 52 4446
3.6985087 -3.1161785 -0.23543328 336 11415370 788 38 116 4842
4.130868 -3.2306182 -0.30503818 285 11415370 785 39 53 5253
3.0209959 -2.9489737 -0.28018385 123 11415370 220 40 112 4231
3.2944672 -2.9903655 -0.33711773 370 11415370 737 41 67 4462
3.7114515 -3.1288559 -0.41445681 351 11415370 833 42 116 4872
4.1097608 -3.2176962 -0.495323 339 11415370 931 43 40 5243
2.9963784 -2.9269865 -0.43242073 388 11415370 689 44 90 4211
3.3128355 -3.0094647 -0.50424337 364 11415370 738 45 49 4504
3.7018859 -3.1241093 -0.59193259 328 11415370 782 46 74 4880
4.1512318 -3.2518017 -0.69629365 299 11415370 847 47 87 5319
2.9869959 -2.9227154 -0.58650821 421 11415370 750 48 88 4220
3.3292418 -3.0270212 -0.67512459 357 11415370 738 49 37 4550
3.7165043 -3.1397793 -0.77763146 331 11415370 803 50 40 4927
4.1738896 -3.2714319 -0.90001112 308 11415370 893 51 59 5379
2.9886789 -2.929574 -0.74592227 406 11415370 734 52 78 4251
3.3441386 -3.043659 -0.8497541 360 11415370 763 53 72 4601
3.7226372 -3.1469653 -0.96412963 315 11415370 777 54 54 4969
4.1933098 -3.2865348 -1.1091484 279 11415370 825 55 37 5442
3.0160646 -2.959723 -0.91671884 400 11415370 748 56 81 4324
3.3529077 -3.0548513 -1.028443 319 11415370 691 57 58 4651
3.7468979 -3.1687081 -1.1627104 315 11415370 800 58 46 5043
4.2224402 -3.3099606 -1.3277406 291 11415370 890 59 67 5527
3.0080197 -2.9587412 -1.0827777 353 11415370 669 60 44 4356
3.3593488 -3.0658746 -1.2128644 342 11415370 757 61 26 4707
3.7799542 -3.1979082 -1.3727251 295 11415370 778 62 44 5138
4.2881885 -3.3586016 -1.5712413 210 11415370 674 63 38 5669
1.4703518 -1.4495779 0.64448327 129 11513360 60 0 38 2163
1.5458655 -1.4120826 0.62842596 300 11513360 144 1 75 2186
1.6463761 -1.3941734 0.62469399 204 11513360 103 2 38 2246
0 -0 0 8 11513360 0 3 32 0
1.1245854 -1.1075748 0.42639324 16 11513360 4 4 53 1635
1.057995 -0.96728075 0.37198886 13 11513360 3 5 25 1481
0 -0 0 6 11513360 0 6 55 0
0 -0 0 8 11513360 0 7 40 0
0 -0 0 7 11513360 0 8 48 0
1.072214 -0.97952509 0.31946355 98 11513360 22 9 8 1487
1.1589615 -0.98326653 0.31906804 96 11513360 23 10 32 1553
1.1572616 -0.91094899 0.29482526 96 11513360 22 11 15 1502
1.1220244 -1.1042813 0.3020485 51 11513360 13 12 53 1603
1.0667381 -0.97527421 0.26243344 99 11513360 21 13 28 1469
1.090306 -0.92537898 0.2455764 68 11513360 14 14 65 1451
1.1267482 -0.88737613 0.23283306 80 11513360 17 15 32 1453
1.0340499 -1.0177335 0.22357036 96 11513360 21 16 3 1468
1.0735754 -0.98197258 0.20991847 83 11513360 18 17 39 1470
1.0618829 -0.90224421 0.18760636 78 11513360 16 18 63 1406
1.1835595 -0.93329012 0.18846095 45 11513360 10 19 42 1519
1.0950881 -1.0778462 0.17955105 44 11513360 10 20 46 1547
1.1121122 -1.017542 0.16146466 38 11513360 9 21 54 1516
1.0803849 -0.91884172 0.1382883 70 11513360 14 22 47 1425
1.1610749 -0.91657919 0.13043322 61 11513360 14 23 66 1485
2.8951304 -2.8506417 0.32533076 340 11513360 566 24 59 4076
1.1897507 -1.0891508 0.11372526 49 11513360 13 25 36 1617
1.2393337 -1.0540985 0.099139981 35 11513360 9 26 78 1630
1.2716153 -1.0050677 0.083441965 25 11513360 7 27 58 1623
2.8902984 -2.8486669 0.17640285 408 11513360 673 28 52 4062
3.2315004 -2.9603333 0.14852154 269 11513360 518 29 59 4385
3.573925 -3.045563 0.11582334 284 11513360 626 30 34 4697
4.0010877 -3.1647897 0.076221138 307 11513360 798 31 51 5102
2.9141726 -2.8724983 0.028567318 382 11513360 640 32 72 4092
3.235945 -2.9665873 -0.011109882 359 11513360 691 33 41 4390
3.603303 -3.071358 -0.056525335 285 11513360 638 34 57 4735
4.0283508 -3.1905859 -0.11024505 317 11513360 839 35 63 5140
2.9208057 -2.8818521 -0.12185155 370 11513360 624 36 100 4105
3.2371972 -2.9721055 -0.17189768 372 11513360 721 37 60 4398
3.6063707 -3.076582 -0.23076546 349 11513360 786 38 103 4746
4.0358381 -3.1964011 -0.29946351 306 11513360 815 39 61 5157
1.2398887 -1.2252761 -0.11568924 107 11513360 33 40 58 1747
3.2584352 -2.9943306 -0.33530447 406 11513360 800 41 70 4438
3.6194308 -3.0894701 -0.40629014 353 11513360 805 42 123 4776
4.0524964 -3.2131643 -0.49078828 318 11513360 859 43 63 5195
2.9529004 -2.9201372 -0.42872396 316 11513360 551 44 95 4175
3.2679765 -3.0055189 -0.50021303 351 11513360 702 45 59 4468
3.619257 -3.0925989 -0.58174354 348 11513360 801 46 81 4796
4.0752792 -3.2328503 -0.68686837 276 11513360 760 47 96 5247
2.9436781 -2.915899 -0.58150482 435 11513360 762 48 74 4184
3.2669494 -3.0072067 -0.66622186 351 11513360 707 49 53 4490
3.643141 -3.1163092 -0.76626766 350 11513360 824 50 41 4855
4.088872 -3.2454941 -0.88595629 348 11513360 974 51 53 5295
2.9454896 -2.9228926 -0.73960531 389 11513360 692 52 85 4215
3.2820346 -3.0241628 -0.83867276 381 11513360 787 53 66 4541
3.6674843 -3.1391282 -0.95481622 335 11513360 810 54 42 4921
4.1270556 -3.2756844 -1.0969197 296 11513360 856 55 54 5382
2.9562492 -2.9368482 -0.90399843 400 11513360 727 56 98 4264
3.2910888 -3.0356934 -1.0151757 314 11513360 663 57 59 4591
3.6830375 -3.1536658 -1.1488769 336 11513360 833 58 38 4983
4.1473112 -3.2923512 -1.3104441 284 11513360 844 59 49 5455
2.9568629 -2.9443362 -1.0708463 346 11513360 642 60 35 4308
3.314925 -3.0628235 -1.2035881 363 11513360 791 61 43 4671
3.7075679 -3.1759043 -1.3534889 300 11513360 771 62 58 5066
4.1681328 -3.3060355 -1.5346556 211 11513360 646 63 46 5537
1.4776453 -1.4747564 0.65163428 136 11608170 65 0 39 2187
1.5118572 -1.3981307 0.61807674 297 11608170 138 1 67 2150
1.5940385 -1.3667358 0.60800582 138 11608170 66 2 40 2186
1.2784637 -1.0151861 0.45601857 8 11608170 2 3 19 1695
1.1341758 -1.1308131 0.43265221 21 11608170 6 4 48 1659
0.98384565 -0.91063452 0.34787616 12 11608170 2 5 18 1385
0 -0 0 8 11608170 0 6 48 0
1.1940998 -0.95016807 0.36478448 12 11608170 3 7 30 1569
1.0001024 -0.99675453 0.32538733 11 11608170 2 8 40 1449
1.0833917 -1.0020009 0.32461962 96 11608170 22 9 1 1511
1.0994556 -0.9444443 0.30427542 85 11608170 19 10 30 1481
1.1608512 -0.92536712 0.29718068 111 11608170 25 11 14 1514
1.106879 -1.1028271 0.29978737 63 11608170 16 12 51 1591
1.0174091 -0.9417004 0.25171456 101 11608170 20 13 33 1409
1.0666677 -0.9166351 0.24151447 66 11608170 13 14 51 1427
1.0564593 -0.84257382 0.21937266 81 11608170 15 15 30 1369
1.0781949 -1.0742854 0.23453568 73 11608170 17 16 5 1540
1.1198171 -1.0369598 0.2202002 95 11608170 23 17 44 1542
1.0563269 -0.90874279 0.18760636 69 11608170 14 18 40 1406
1.1126783 -0.88852364 0.17803915 54 11608170 11 19 49 1435
1.0968971 -1.092958 0.18094382 28 11608170 7 20 40 1559
1.0795875 -1.0000218 0.15763041 32 11608170 7 21 61 1480
1.1109279 -0.95662665 0.14294642 50 11608170 11 22 34 1473
1.1180818 -0.89382964 0.12621719 67 11608170 14 23 82 1437
2.8267539 -2.8176844 0.31958401 337 11608170 540 24 50 4004
1.1830453 -1.0964304 0.11372526 16 11608170 4 25 42 1617
1.2872993 -1.1085794 0.10351916 37 11608170 11 26 63 1702
1.1718625 -0.93796396 0.077272505 37 11608170 8 27 56 1503
2.8388178 -2.8324769 0.17431834 408 11608170 657 28 38 4014
1.375443 -1.2756348 0.063574672 52 11608170 18 29 59 1877
3.546088 -3.0595984 0.11552744 306 11608170 671 30 27 4685
3.9534993 -3.1667769 0.075683326 329 11608170 843 31 47 5066
2.837034 -2.8309932 0.027980894 384 11608170 617 32 77 4008
3.1737041 -2.9455705 -0.010958039 372 11608170 698 33 75 4330
3.5571377 -3.0698905 -0.056095578 260 11608170 573 34 53 4699
3.9244685 -3.1476853 -0.10792861 314 11608170 794 35 48 5032
2.8776088 -2.8742898 -0.12078294 409 11608170 677 36 94 4069
3.201334 -2.9755857 -0.17095962 361 11608170 692 37 64 4374
3.5148604 -3.035974 -0.22609764 367 11608170 793 38 126 4650
3.9787683 -3.1911235 -0.29667619 301 11608170 785 39 45 5109
2.8745363 -2.8757343 -0.26985326 197 11608170 327 40 91 4075
3.1961977 -2.973516 -0.33077127 363 11608170 696 41 74 4378
3.5461285 -3.0647116 -0.40016517 349 11608170 773 42 93 4704
3.9674983 -3.1856134 -0.48285252 358 11608170 934 43 57 5111
1.230912 -1.232285 -0.17980735 116 11608170 36 44 78 1751
3.2145638 -2.9930108 -0.49483919 369 11608170 720 45 52 4420
3.5912054 -3.1069551 -0.58028805 363 11608170 832 46 71 4784
4.0089927 -3.2205417 -0.67901397 309 11608170 832 47 91 5187
2.8921664 -2.9002478 -0.57483363 418 11608170 715 48 94 4136
3.2050271 -2.9867432 -0.65731907 392 11608170 768 49 54 4430
3.579165 -3.0998163 -0.75679785 376 11608170 864 50 43 4795
4.0043325 -3.2186384 -0.87190151 331 11608170 898 51 54 5211
2.8941617 -2.9074199 -0.73118281 400 11608170 695 52 76 4167
3.2289214 -3.0120649 -0.82980758 406 11608170 820 53 64 4493
3.6036735 -3.1230245 -0.94317448 345 11608170 814 54 50 4861
4.0610938 -3.2641459 -1.0846908 324 11608170 916 55 48 5322
2.9216356 -2.9383001 -0.89891022 380 11608170 683 56 89 4240
3.2296331 -3.0158932 -1.0019083 345 11608170 709 57 64 4531
3.6371493 -3.1532583 -1.1405767 332 11608170 811 58 46 4947
4.0634804 -3.2666478 -1.2902648 281 11608170 812 59 71 5371
2.9141836 -2.9376681 -1.0618978 378 11608170 689 60 37 4272
3.2791343 -3.0672648 -1.1974041 323 11608170 697 61 41 4647
3.6355956 -3.1531341 -1.3342526 282 11608170 702 62 45 4994
4.1297908 -3.3171082 -1.5280038 237 11608170 719 63 42 5513
1.4282786 -1.4430877 0.63375682 158 11707080 71 0 40 2127
1.5116403 -1.4152361 0.62152648 337 11707080 157 1 57 2162
1.6552562 -1.4369407 0.63470685 186 11707080 97 2 34 2282
0 -0 0 5 11707080 0 3 28 0
1.1924436 -1.2035884 0.45768815 10 11707080 3 4 52 1755
0 -0 0 6 11707080 0 5 22 0
0 -0 0 3 11707080 0 6 84 0
1.0610161 -0.85495555 0.32572532 10 11707080 2 7 42 1401
1.0845155 -1.0942311 0.35502923 15 11707080 4 8 41 1581
1.0943332 -1.0246502 0.32977575 98 11707080 23 9 9 1535
1.1025013 -0.95887965 0.30674085 94 11707080 21 10 30 1493
1.1459956 -0.92508179 0.29482526 119 11707080 27 11 8 1502
1.0751992 -1.0844908 0.29300401 44 11707080 11 12 68 1555
1.089152 -1.020584 0.27100852 90 11707080 21 13 17 1517
1.141325 -0.99303079 0.25979307 64 11707080 15 14 48 1535
1.1342038 -0.91602087 0.2366789 76 11707080 17 15 30 1477
1.1049829 -1.1145706 0.24184588 48 11707080 12 16 12 1588
1.139428 -1.0681804 0.22534107 68 11707080 17 17 29 1578
1.113506 -0.96988535 0.19881473 81 11707080 18 18 40 1490
1.1442409 -0.9252826 0.18399446 47 11707080 10 19 37 1483
1.1321267 -1.1419899 0.18790767 50 11707080 13 20 48 1619
2.5791359 -2.4186261 0.37873903 31 11707080 39 21 45 3556
1.0600256 -0.92418182 0.13712376 51 11707080 10 22 32 1413
1.1404488 -0.92323709 0.12937921 76 11707080 17 23 80 1473
2.8009918 -2.8264797 0.3186262 347 11707080 554 24 68 3992
3.079319 -2.8891962 0.29771122 343 11707080 614 25 50 4233
1.262417 -1.1007141 0.10205944 57 11707080 16 26 86 1678
1.2778059 -1.0356888 0.084675863 21 11707080 6 27 54 1647
2.7960806 -2.8242829 0.17275493 354 11707080 561 28 60 3978
1.3151305 -1.2347953 0.061136004 91 11707080 30 29 37 1805
3.4369018 -3.0023756 0.11256835 302 11707080 629 30 26 4565
3.8501265 -3.1229482 0.074069858 317 11707080 778 31 57 4958
2.8027258 -2.8312917 0.027813343 376 11707080 597 32 66 3984
3.1643155 -2.9732053 -0.010988407 191 11707080 361 33 78 4342
3.4749844 -3.036392 -0.055092804 258 11707080 549 34 53 4615
3.8585179 -3.1338878 -0.1066417 308 11707080 760 35 56 4972
2.8261814 -2.8577781 -0.11935813 379 11707080 613 36 116 4021
3.1131556 -2.9294353 -0.16720742 409 11707080 749 37 67 4278
3.4781213 -3.0417032 -0.22493069 377 11707080 806 38 129 4626
3.875421 -3.1475041 -0.29040471 346 11707080 864 39 57 5001
2.8231859 -2.8592372 -0.26667464 433 11707080 703 40 74 4027
3.1343398 -2.9520519 -0.3262381 378 11707080 705 41 93 4318
3.4822667 -3.047045 -0.39506105 401 11707080 865 42 114 4644
3.8922622 -3.1646788 -0.47605047 364 11707080 923 43 44 5039
1.2400951 -1.256808 -0.18227187 137 11707080 43 44 63 1775
3.1527522 -2.9717827 -0.48812193 376 11707080 714 45 45 4360
3.4914331 -3.0582952 -0.56718785 367 11707080 803 46 82 4676
3.9153256 -3.1850204 -0.66644686 326 11707080 846 47 84 5091
2.9076738 -2.951803 -0.58150482 154 11707080 270 48 115 4184
3.1348486 -2.9574909 -0.64663583 339 11707080 645 49 64 4358
3.5066204 -3.0748448 -0.74543405 341 11707080 760 50 36 4723
3.9569809 -3.2207427 -0.86587793 305 11707080 816 51 52 5175
2.8348527 -2.8830051 -0.72065461 402 11707080 679 52 88 4107
3.1675072 -2.9913335 -0.8187263 366 11707080 720 53 69 4433
3.513654 -3.0829654 -0.92454773 318 11707080 723 54 69 4765
3.9498732 -3.2148426 -1.0602334 328 11707080 886 55 52 5202
2.8624637 -2.9143391 -0.88618976 366 11707080 640 56 104 4180
3.1940589 -3.0195739 -0.9966014 341 11707080 694 57 62 4507
3.5475285 -3.1138933 -1.118443 304 11707080 714 58 42 4851
3.9981914 -3.2547495 -1.2758512 320 11707080 901 59 51 5311
2.8716979 -2.930588 -1.0529491 356 11707080 638 60 47 4236
3.1929002 -3.0235479 -1.1726675 304 11707080 629 61 34 4551
3.5640445 -3.129602 -1.3150163 290 11707080 704 62 62 4922
4.0199122 -3.2696326 -1.4947441 218 11707080 633 63 45 5393
1.427405 -1.4600152 0.63733232 163 11805270 74 0 47 2139
1.5196117 -1.4402977 0.62842596 328 11805270 157 1 62 2186
1.6031196 -1.4090227 0.61801875 226 11805270 111 2 37 2222
0 -0 0 7 11805270 0 3 23 0
1.5010457 -1.5337844 0.57973832 17 11805270 8 4 43 2223
1.1242796 -1.0665309 0.40212974 9 11805270 2 5 20 1601
1.196352 -1.0523188 0.39690208 10 11805270 3 6 64 1642
1.1371356 -0.92785698 0.35083479 17 11805270 4 7 34 1509
1.077781 -1.100865 0.35502923 12 11805270 3 8 50 1581
1.0880255 -1.0313456 0.32977575 99 11805270 23 9 1 1535
1.0965968 -0.96562642 0.30674085 87 11805270 19 10 20 1493
1.1676286 -0.9544366 0.30189162 92 11805270 22 11 16 1538
1.1757208 -1.2005253 0.3223986 75 11805270 22 12 50 1711
1.0743034 -1.0191218 0.26886475 89 11805270 20 13 3 1505
1.1263357 -0.99219745 0.25776213 83 11805270 19 14 59 1523
1.0643781 -0.87047207 0.22321847 101 11805270 20 15 39 1393
0.99024707 -1.0111738 0.21808772 50 11805270 10 16 8 1432
1.1070077 -1.0506235 0.2202002 64 11805270 15 17 36 1542
1.036176 -0.91377115 0.18600519 67 11805270 13 18 41 1394
1.1201165 -0.9171986 0.18101682 65 11805270 14 19 39 1459
2.8179579 -2.87761 0.47063965 44 11805270 72 20 41 4055
2.6075132 -2.4754813 0.38512945 15 11805270 19 21 53 3616
1.072243 -0.9464761 0.13945283 36 11805270 7 22 45 1437
1.125518 -0.92263925 0.12832521 63 11805270 13 23 92 1461
2.7668612 -2.8265171 0.31671062 319 11805270 502 24 54 3968
3.0181379 -2.8668165 0.29349136 358 11805270 624 25 72 4173
1.2287008 -1.0846589 0.09986984 47 11805270 13 26 74 1642
1.2251091 -1.0054948 0.081591129 54 11805270 13 27 55 1587
2.7619343 -2.8242435 0.17171267 38 11805270 60 28 66 3954
3.0721502 -2.9201612 0.14364421 283 11805270 509 29 29 4241
3.3824711 -2.9916172 0.11138472 328 11805270 669 30 27 4517
3.77526 -3.1008196 0.072994217 318 11805270 760 31 67 4886
2.776911 -2.8398557 0.027729567 344 11805270 543 32 58 3972
1.3288318 -1.2640177 -0.0046413494 96 11805270 32 33 46 1834
3.3933783 -3.002003 -0.05409003 280 11805270 574 34 54 4531
3.8021522 -3.1270216 -0.10561218 355 11805270 862 35 61 4924
2.7750661 -2.8407447 -0.11793331 380 11805270 600 36 123 3973
3.0690763 -2.9236698 -0.16580035 388 11805270 699 37 81 4242
3.4145231 -3.0232596 -0.22201328 383 11805270 798 38 122 4566
3.8282771 -3.1483958 -0.28831422 355 11805270 874 39 53 4965
2.7721474 -2.8422194 -0.26349598 459 11805270 727 40 67 3979
3.0728672 -2.9299421 -0.32170492 362 11805270 657 41 77 4258
3.4277062 -3.0366402 -0.39097774 374 11805270 790 42 87 4596
3.7989893 -3.1277564 -0.46698105 380 11805270 930 43 60 4943
2.7986724 -2.8714197 -0.41393682 373 11805270 607 44 72 4031
3.0999506 -2.9581425 -0.48274812 384 11805270 713 45 50 4312
3.4369552 -3.0480475 -0.5613656 358 11805270 768 46 78 4628
3.8314314 -3.1560373 -0.65545076 312 11805270 783 47 88 5007
1.1657478 -1.1980559 -0.23460329 120 11805270 34 48 45 1688
3.1166427 -2.9766703 -0.64663583 352 11805270 669 49 65 4358
3.4256582 -3.0412345 -0.7321763 361 11805270 776 50 42 4639
3.8549781 -3.1772408 -0.84780747 346 11805270 887 51 51 5067
2.8171096 -2.9003453 -0.72065461 269 11805270 454 52 97 4107
3.1235197 -2.986263 -0.81207752 378 11805270 732 53 70 4397
3.4418659 -3.0575576 -0.91057765 328 11805270 721 54 56 4693
3.9028752 -3.2166028 -1.0528961 275 11805270 733 55 47 5166
2.8200293 -2.9065974 -0.8785575 371 11805270 637 56 86 4144
3.1416516 -3.0067482 -0.98598742 356 11805270 707 57 56 4459
3.4847145 -3.0968189 -1.1046095 350 11805270 803 58 31 4791
3.9062374 -3.2199464 -1.2527893 297 11805270 809 59 69 5215
2.8294103 -2.9230981 -1.0440006 371 11805270 654 60 51 4200
3.1408083 -3.0109866 -1.1602992 343 11805270 695 61 30 4503
3.510205 -3.1206784 -1.302192 293 11805270 695 62 44 4874
3.9463749 -3.2502565 -1.4747882 250 11805270 707 63 34 5321
1.4025046 -1.4522663 0.63018125 141 11902450 63 0 26 2115
1.5107456 -1.4495947 0.62842596 311 11902450 149 1 72 2186
1.6030548 -1.4264952 0.62135637 213 11902450 106 2 36 2234
1.0990505 -0.90620077 0.39790648 16 11902450 3 3 24 1479
1.5077101 -1.5596241 0.58599734 36 11902450 18 4 43 2247
0 -0 0 4 11902450 0 5 24 0
0 -0 0 7 11902450 0 6 48 0
1.1044289 -0.91251504 0.34246495 11 11902450 2 7 39 1473
1.1766838 -1.2167323 0.39006057 10 11902450 3 8 42 1737
1.0985889 -1.0542315 0.33493182 105 11902450 26 9 5 1559
1.1169497 -0.99578232 0.31413716 103 11902450 24 10 24 1529
1.0982997 -0.90906489 0.2854034 92 11902450 19 11 11 1454
1.7746907 -1.8345156 0.4897218 246 11902450 166 12 64 2599
1.1020933 -1.0584075 0.27743983 72 11902450 17 13 22 1553
1.1025736 -0.98334581 0.2537002 80 11902450 18 14 60 1499
1.1228774 -0.92987031 0.2366789 76 11902450 17 15 22 1477
1.058238 -1.0939494 0.23453568 41 11902450 10 16 11 1540
1.0662824 -1.0244812 0.21334572 79 11902450 18 17 49 1494
1.1015201 -0.98347676 0.19881473 61 11902450 13 18 34 1490
1.1419665 -0.94685477 0.18548331 57 11902450 13 19 50 1495
2.7339535 -2.8263125 0.45949748 189 11902450 296 20 48 3959
1.0265868 -0.98665196 0.15251808 10 11902450 2 21 55 1432
1.1287527 -1.0087473 0.14760455 43 11902450 10 22 42 1521
1.1934181 -0.99060571 0.13675724 46 11902450 11 23 78 1557
2.7078915 -2.8004456 0.31192166 330 11902450 503 24 53 3908
2.9832342 -2.8686874 0.29180339 343 11902450 590 25 57 4149
1.1952301 -1.0682321 0.097680248 36 11902450 9 26 86 1606
1.2281332 -1.0206528 0.082208075 50 11902450 13 27 51 1599
1.9949026 -2.0651059 0.12481087 18 11902450 15 28 36 2874
3.0023234 -2.8890617 0.14120553 334 11902450 580 29 31 4169
3.3372402 -2.9883077 0.110497 287 11902450 576 30 47 4481
3.7008119 -3.0778916 0.071918577 340 11902450 789 31 73 4814
2.7260873 -2.8223174 0.027394468 352 11902450 542 32 80 3924
3.0411541 -2.928575 -0.01068472 102 11902450 182 33 88 4222
3.3570182 -3.0067568 -0.05380353 288 11902450 586 34 70 4507
3.7183599 -3.0965505 -0.10381051 332 11902450 779 35 69 4840
2.7242675 -2.8231931 -0.11650849 399 11902450 615 36 91 3925
1.3076054 -1.2610484 -0.07105729 62 11902450 21 37 77 1818
3.360209 -3.0121522 -0.21967939 361 11902450 737 38 127 4518
3.7444465 -3.1181638 -0.28343639 319 11902450 761 39 66 4881
2.7297328 -2.833307 -0.261112 451 11902450 702 40 78 3943
3.0031762 -2.8988805 -0.31626511 396 11902450 694 41 73 4186
3.3556044 -3.0097151 -0.38485274 399 11902450 816 42 119 4524
3.7613742 -3.1357083 -0.46471369 352 11902450 851 43 40 4919
2.7478859 -2.8541422 -0.40900782 400 11902450 635 44 97 3983
3.0388601 -2.9356823 -0.47603086 391 11902450 706 45 42 4252
3.382736 -3.0372474 -0.5555433 386 11902450 811 46 74 4580
3.7754498 -3.1490066 -0.64916718 325 11902450 800 47 82 4959
2.7641785 -2.8758829 -0.55982351 138 11902450 224 48 98 4028
3.0300684 -2.9297462 -0.63239139 377 11902450 686 49 61 4262
3.3981202 -3.0542755 -0.73028231 361 11902450 772 50 50 4627
3.8081603 -3.1780932 -0.84178394 359 11902450 908 51 51 5031
1.1307458 -1.1785387 -0.29110444 121 11902450 33 52 95 1659
3.0542915 -2.9561598 -0.7987799 378 11902450 708 53 85 4325
3.4142876 -3.0707469 -0.90824932 357 11902450 783 54 89 4681
3.792866 -3.1652169 -1.0284384 313 11902450 796 55 29 5046
2.76157 -2.8815124 -0.86583704 372 11902450 620 56 114 4084
3.0643086 -2.9689643 -0.96741307 358 11902450 686 57 65 4375
3.4222453 -3.0790925 -1.090776 318 11902450 711 58 51 4731
3.8595784 -3.2214613 -1.2441411 308 11902450 827 59 63 5179
2.7792907 -2.9067996 -1.0320692 351 11902450 604 60 51 4152
3.0640304 -2.9736753 -1.1386547 383 11902450 747 61 41 4419
3.4394209 -3.095741 -1.2829556 282 11902450 649 62 45 4802
3.8643742 -3.2227187 -1.4515066 232 11902450 636 63 31 5237
1.3935673 -1.4608445 0.63018125 153 12001360 68 0 34 2115
1.4935784 -1.4508289 0.62497616 275 12001360 130 1 72 2174
1.5942718 -1.4363046 0.62135637 209 12001360 104 2 36 2234
1.3507564 -1.1277338 0.49153152 16 12001360 5 3 15 1827
1.5861187 -1.6610076 0.62042177 78 12001360 44 4 41 2379
1.3193095 -1.2826672 0.47748199 10 12001360 4 5 24 1901
0 -0 0 3 12001360 0 6 71 0
0 -0 0 4 12001360 0 7 33 0
0.9914943 -1.0379089 0.33077675 11 12001360 2 8 43 1473
1.108912 -1.0772853 0.34008795 58 12001360 15 9 1 1583
1.0846646 -0.97901064 0.30674085 97 12001360 22 10 37 1493
1.1107374 -0.9309029 0.29011431 76 12001360 17 11 13 1478
1.8041105 -1.8879721 0.50102741 214 12001360 152 12 73 2659
1.1209749 -1.0898411 0.28387114 44 12001360 11 13 22 1589
1.0614071 -0.95838845 0.2455764 73 12001360 15 14 58 1451
1.0717688 -0.89868939 0.22706431 72 12001360 14 15 38 1417
1.174409 -1.2290428 0.26194891 16 12001360 5 16 21 1720
1.06849 -1.0392857 0.21505934 60 12001360 14 17 41 1506
1.1395775 -1.0300915 0.20682068 79 12001360 19 18 43 1550
1.1634935 -0.97681266 0.18994978 49 12001360 11 19 27 1531
2.6671557 -2.7913299 0.45114085 208 12001360 315 20 61 3887
1.0889277 -1.0594977 0.16274275 26 12001360 6 21 45 1528
2.8583858 -2.5862124 0.37585303 16 12001360 24 22 36 3873
1.1049602 -0.92869061 0.12727121 43 12001360 9 23 70 1449
2.6576092 -2.7824082 0.30809048 334 12001360 498 24 60 3860
2.9741533 -2.895288 0.29264739 256 12001360 444 25 70 4161
3.3024719 -2.9882226 0.27138808 76 12001360 152 26 82 4462
1.212678 -1.0204531 0.081591129 38 12001360 9 27 56 1587
0 -0 0 7 12001360 0 28 35 0
2.9759493 -2.8990605 0.14079909 231 12001360 399 29 30 4157
3.2921782 -2.9845562 0.10960927 303 12001360 598 30 33 4445
3.6267893 -3.0541687 0.070842937 338 12001360 761 31 70 4742
2.6838679 -2.8129456 0.027143141 358 12001360 542 32 76 3888
2.9457953 -2.8717904 -0.010411402 399 12001360 675 33 54 4114
3.2851729 -2.9789369 -0.052944008 284 12001360 559 34 86 4435
3.6534309 -3.0806384 -0.1025236 323 12001360 737 35 47 4780
2.6820657 -2.8138087 -0.11543988 385 12001360 583 36 95 3889
1.3255826 -1.2941777 -0.072464369 91 12001360 31 37 41 1854
3.2884099 -2.9843833 -0.21617852 375 12001360 741 38 117 4446
3.6611335 -3.0870242 -0.27855858 330 12001360 758 39 52 4797
2.6710241 -2.8066349 -0.2571387 423 12001360 638 40 94 3883
2.9853325 -2.917253 -0.31626511 241 12001360 423 41 87 4186
3.3105192 -3.0061347 -0.38179028 404 12001360 814 42 111 4488
3.6781611 -3.1047881 -0.45677793 362 12001360 845 43 55 4835
2.7138696 -2.8536499 -0.40654328 382 12001360 599 44 84 3959
2.9866886 -2.9209228 -0.47065699 364 12001360 643 45 39 4204
3.3287797 -3.0258977 -0.549721 350 12001360 720 46 80 4532
3.7015224 -3.1260569 -0.6397419 336 12001360 803 47 100 4887
2.6973872 -2.8410809 -0.54981667 442 12001360 692 48 62 3956
3.0035539 -2.9399819 -0.63061082 361 12001360 651 49 43 4250
3.3179662 -3.0192428 -0.71702456 358 12001360 738 50 47 4543
3.6891859 -3.1174037 -0.8196978 316 12001360 758 51 42 4899
1.1397462 -1.2026041 -0.29531571 162 12001360 46 52 46 1683
3.0024002 -2.9418294 -0.78991485 365 12001360 668 53 67 4277
3.3431561 -3.0440853 -0.89427924 361 12001360 767 54 81 4609
3.737479 -3.1581001 -1.0186555 347 12001360 866 55 34 4998
2.7277133 -2.8813703 -0.86074895 191 12001360 314 56 138 4060
3.0293243 -2.9713211 -0.96210617 354 12001360 671 57 63 4351
3.360126 -3.0607171 -1.0769423 299 12001360 651 58 53 4671
3.7596672 -3.1774111 -1.2181964 332 12001360 855 59 61 5071
2.7055361 -2.8646462 -1.0111891 383 12001360 633 60 45 4068
3.0126436 -2.9599159 -1.1262865 339 12001360 647 61 51 4371
3.3947194 -3.0934205 -1.2733375 308 12001360 699 62 41 4766
3.7652433 -3.1794209 -1.4215728 258 12001360 678 63 35 5129
1.4160006 -1.5027152 0.64448327 158 12097970 74 0 24 2163
1.5338178 -1.5083182 0.64567459 285 12097970 144 1 68 2246
1.5939448 -1.4538273 0.62469399 238 12097970 120 2 36 2246
1.5379909 -1.3001517 0.5625574 23 12097970 10 3 16 2091
1.5599989 -1.6538539 0.61416268 186 12097970 103 4 51 2355
1.1789621 -1.1603743 0.42925656 12 12097970 3 5 9 1709
0 -0 0 5 12097970 0 6 61 0
0 -0 0 6 12097970 0 7 38 0
1.161664 -1.2310803 0.39006057 10 12097970 3 8 37 1737
1.2109076 -1.190901 0.3736026 38 12097970 11 9 4 1739
1.0959762 -1.0014919 0.31167173 90 12097970 21 10 35 1517
1.1050045 -0.93770075 0.29011431 82 12097970 18 11 21 1478
1.7844026 -1.8904362 0.49876627 187 12097970 131 12 81 2647
1.1058518 -1.0884166 0.28172737 39 12097970 10 13 17 1577
1.0904233 -0.99680203 0.2537002 74 12097970 17 14 64 1499
1.1565294 -0.98191059 0.24629347 96 12097970 23 15 27 1537
1.2563944 -1.3310989 0.28205201 14 12097970 5 16 24 1852
1.1128703 -1.0958217 0.22534107 55 12097970 14 17 44 1578
1.0455011 -0.95677561 0.19080876 80 12097970 16 18 53 1430
1.0576824 -0.89910042 0.17357266 45 12097970 9 19 60 1399
2.6336162 -2.790307 0.44835535 199 12097970 296 20 45 3863
1.1334097 -1.1163971 0.17041126 30 12097970 8 21 55 1600
2.7103581 -2.4826939 0.35838503 38 12097970 51 22 47 3693
1.0810342 -0.91995901 0.12516318 31 12097970 6 23 87 1425
2.6158602 -2.7725611 0.30521709 343 12097970 502 24 64 3824
2.9051771 -2.8630691 0.28758356 217 12097970 364 25 58 4089
1.3851699 -1.2689074 0.11446714 86 12097970 31 26 68 1882
1.2793702 -1.0900525 0.086526699 49 12097970 14 27 53 1683
2.6190281 -2.7786379 0.16598023 105 12097970 153 28 40 3822
2.7104697 -2.6730494 0.12901221 11 12097970 16 29 34 3809
3.2296124 -2.9641421 0.10812973 310 12097970 595 30 39 4385
3.57146 -3.0452249 0.070125841 352 12097970 775 31 56 4694
2.6254067 -2.7856975 0.026724264 365 12097970 535 32 76 3828
2.8939548 -2.8560944 -0.010289927 385 12097970 637 33 65 4066
3.2226362 -2.9584649 -0.052227736 315 12097970 602 34 57 4375
3.5979631 -3.0718379 -0.10149408 329 12097970 736 35 45 4732
2.6483052 -2.8127465 -0.11472747 394 12097970 589 36 111 3865
2.9294586 -2.895376 -0.1611101 281 12097970 477 37 51 4122
3.2347324 -2.9720671 -0.21384461 378 12097970 731 38 118 4398
3.61479 -3.0860949 -0.27646807 338 12097970 765 39 47 4761
2.6291492 -2.7967989 -0.25475472 426 12097970 631 40 83 3847
1.2490485 -1.2356374 -0.13312449 102 12097970 32 41 89 1762
3.2303963 -2.9697473 -0.37464446 334 12097970 648 42 105 4404
3.5954719 -3.0729673 -0.4488422 370 12097970 834 43 46 4751
2.6554453 -2.8267484 -0.40038198 423 12097970 644 44 79 3899
2.9856579 -2.9559731 -0.47334391 357 12097970 639 45 62 4228
3.2575619 -2.9978697 -0.54098755 405 12097970 806 46 87 4460
3.6370628 -3.1100521 -0.6318875 324 12097970 755 47 90 4827
2.6555164 -2.831574 -0.54481328 433 12097970 666 48 84 3920
2.95174 -2.9249442 -0.62348866 377 12097970 665 49 48 4202
3.2732332 -3.0154586 -0.71134269 380 12097970 771 50 57 4507
3.6699884 -3.1399815 -0.8196978 351 12097970 844 51 65 4899
2.6825087 -2.8654633 -0.69959819 326 12097970 519 52 79 3987
2.9424274 -2.918669 -0.77883345 362 12097970 644 53 67 4217
3.2897933 -3.0326259 -0.88496584 351 12097970 729 54 57 4561
3.66447 -3.135149 -1.003981 357 12097970 867 55 61 4926
1.116032 -1.1934838 -0.35447589 198 12097970 55 56 78 1672
2.9778178 -2.9568686 -0.95149219 340 12097970 629 57 51 4303
3.2983632 -3.0416973 -1.0631088 341 12097970 726 58 58 4611
3.6869969 -3.1549795 -1.2009 354 12097970 886 59 61 4999
2.6879079 -2.8811932 -1.0111891 314 12097970 520 60 68 4068
2.9615419 -2.9456389 -1.1139182 357 12097970 667 61 34 4323
3.3076792 -3.0514636 -1.247689 307 12097970 669 62 45 4670
3.7018464 -3.1650012 -1.404943 274 12097970 703 63 57 5069
1.3989489 -1.5029905 0.64090776 136 12197170 63 0 57 2151
1.500098 -1.4933746 0.63532537 276 12197170 135 1 65 2210
1.5680577 -1.4479408 0.61801875 208 12197170 103 2 34 2222
1.6792511 -1.4373266 0.61744106 46 12197170 24 3 14 2295
1.5577189 -1.6718707 0.61729223 246 12197170 138 4 52 2367
1.3034698 -1.2987605 0.47748199 10 12197170 4 5 12 1901
0 -0 0 5 12197170 0 6 55 0
0.99885511 -0.85670656 0.31456557 18 12197170 3 7 40 1353
1.2736831 -1.3664943 0.43048134 13 12197170 5 8 42 1917
1.2617147 -1.2561913 0.39164898 14 12197170 5 9 25 1823
1.0984313 -1.016173 0.31413716 88 12197170 21 10 23 1529
1.1260043 -0.96746778 0.29718068 103 12197170 24 11 11 1514
1.7647328 -1.8927299 0.4965052 310 12197170 215 12 88 2635
1.0991526 -1.0951815 0.28172737 47 12197170 12 13 20 1577
1.0408862 -0.96330822 0.24354543 81 12197170 17 14 55 1439
1.0696421 -0.9194954 0.22898722 90 12197170 18 15 35 1429
1.2886417 -1.382156 0.29118973 12 12197170 4 16 20 1912
1.0640676 -1.0607045 0.21677297 45 12197170 10 17 45 1518
1.0745069 -0.99550289 0.19721353 84 12197170 18 18 37 1478
1.2145928 -1.0453902 0.20037159 45 12197170 12 19 50 1615
2.5839348 -2.771543 0.44278428 181 12197170 264 20 63 3815
1.1011913 -1.0980557 0.16657701 25 12197170 6 21 37 1564
2.703831 -2.5073986 0.35954958 43 12197170 58 22 55 3705
1.1659265 -1.0046021 0.13570325 33 12197170 8 23 95 1545
2.5661781 -2.7535567 0.30138594 343 12197170 489 24 43 3776
2.8536587 -2.8470235 0.28420767 173 12197170 283 25 62 4041
1.3597933 -1.2610931 0.1130074 57 12197170 20 26 114 1858
1.2182124 -1.0509137 0.08282502 32 12197170 8 27 59 1611
2.5855906 -2.7771065 0.16493796 399 12197170 575 28 57 3798
0 -0 0 8 12197170 0 29 38 0
3.141058 -2.9185767 0.10576246 71 12197170 131 30 79 4289
3.5163784 -3.0357182 0.069408752 355 12197170 767 31 66 4646
2.5837357 -2.7754054 0.026472941 357 12197170 514 32 62 3792
2.8593976 -2.8568349 -0.01022919 386 12197170 630 33 50 4042
3.178055 -2.9536767 -0.051797979 296 12197170 558 34 75 4339
3.5245898 -3.046782 -0.099949792 356 12197170 774 35 76 4660
2.5983219 -2.7938104 -0.11330265 392 12197170 571 36 106 3817
2.8607795 -2.8624089 -0.15829594 390 12197170 639 37 48 4050
3.1813309 -2.9592061 -0.2115107 398 12197170 753 38 136 4350
3.5414073 -3.0612116 -0.27228707 349 12197170 768 39 64 4689
2.5874965 -2.7865558 -0.25237074 425 12197170 618 40 68 3811
2.9746728 -2.9790695 -0.31898499 67 12197170 119 41 115 4222
3.1771042 -2.9569297 -0.37056115 366 12197170 694 42 113 4356
3.5313807 -3.0558844 -0.44317377 374 12197170 822 43 51 4691
2.6136932 -2.8167391 -0.39668518 419 12197170 626 44 86 3863
1.2493109 -1.2521623 -0.19927913 61 12197170 19 45 104 1780
3.2042458 -2.985323 -0.53516531 350 12197170 682 46 79 4412
3.5549519 -3.0778012 -0.62089127 335 12197170 754 47 95 4743
2.6300166 -2.839097 -0.54314554 405 12197170 619 48 83 3908
2.8918469 -2.9009778 -0.61458594 386 12197170 663 49 63 4142
3.2113404 -2.9950755 -0.70187277 369 12197170 729 50 50 4447
3.5791154 -3.1004705 -0.80363518 400 12197170 922 51 41 4803
2.608731 -2.8211522 -0.68485874 410 12197170 625 52 93 3903
2.8828537 -2.8948853 -0.76775211 399 12197170 690 53 70 4157
3.2366979 -3.020627 -0.87565243 351 12197170 716 54 58 4513
3.600765 -3.1191149 -0.99175227 340 12197170 804 55 46 4866
1.116645 -1.2089239 -0.35701999 128 12197170 36 56 127 1684
2.9266043 -2.9418976 -0.94087833 354 12197170 640 57 42 4255
3.2369618 -3.0220361 -1.0492753 359 12197170 743 58 47 4551
3.6235492 -3.139405 -1.1864864 345 12197170 840 59 53 4939
1.1106052 -1.2052095 -0.42058307 121 12197170 35 60 77 1692
2.9107301 -2.9308472 -1.1015499 329 12197170 601 61 39 4275
3.2550893 -3.0401299 -1.2348648 306 12197170 653 62 54 4622
3.6300523 -3.1423783 -1.3849872 256 12197170 638 63 38 4997
1.3974533 -1.5199786 0.64448327 136 12295480 63 0 45 2163
1.5070976 -1.5188683 0.64222491 285 12295480 142 1 75 2234
1.5507234 -1.4496635 0.61468107 191 12295480 93 2 41 2210
1.6441978 -1.4248956 0.60775572 124 12295480 63 3 24 2259
1.5631211 -1.6984456 0.62355119 239 12295480 137 4 64 2391
0 -0 0 7 12295480 0 5 23 0
0.95943469 -0.89759934 0.32728711 10 12295480 2 6 55 1354
0 -0 0 6 12295480 0 7 38 0
0 -0 0 6 12295480 0 8 42 0
0.96507865 -0.97271794 0.30141717 11 12295480 2 9 19 1403
1.1007472 -1.0309217 0.31660262 108 12295480 26 10 32 1541
