# .PCD v0.7 - Point Cloud Data file format
VERSION 0.7
FIELDS x y z intensity t reflectivity ring noise range
SIZE 4 4 4 4 4 2 1 2 4
TYPE F F F F U U U U U
COUNT 1 1 1 1 1 1 1 1 1
WIDTH 789
HEIGHT 1
VIEWPOINT 0 0 0 1 0 0 0
POINTS 789
DATA ascii
1.7109004 -0.31665847 0.012147394 200 2049940 61 32 60 1740
1.7549101 -0.25951228 -0.0044895057 159 2049940 50 33 64 1774
1.7242601 -0.19163384 -0.020712029 182 2049940 55 34 77 1735
1.7267753 -0.12919475 -0.037148722 186 2049940 56 35 56 1732
1.6874294 -0.31316733 -0.0509669 229 2049940 68 36 114 1717
1.7138491 -0.2547242 -0.067774117 207 2049940 62 37 43 1734
1.6855346 -0.18804468 -0.082562104 266 2049940 77 38 134 1698
1.7411844 -0.13024226 -0.10156325 185 2049940 57 39 64 1749
1.6665653 -0.31064939 -0.1125106 204 2049940 59 40 62 1699
1.6194077 -0.24143881 -0.12405812 170 2049940 46 41 67 1642
1.6278901 -0.18207391 -0.13985366 104 2049940 28 42 140 1644
1.5714657 -0.11840218 -0.14955108 175 2049940 44 43 77 1583
1.6065366 -0.3000403 -0.16871701 146 2049940 40 44 79 1643
1.796542 -0.26858518 -0.20465295 230 2049940 77 45 45 1828
1.8189352 -0.20440599 -0.2236729 259 2049940 88 46 97 1844
1.8298512 -0.13831991 -0.24230863 252 2049940 86 47 122 1851
1.8882222 -0.35428584 -0.269627 302 2049940 113 48 48 1940
1.8679743 -0.28009769 -0.28340393 231 2049940 84 49 54 1910
1.8437343 -0.20817047 -0.29656374 285 2049940 101 50 83 1879
1.9140515 -0.14522225 -0.32577091 243 2049940 92 51 75 1947
1.9416485 -0.3660996 -0.35216796 245 2049940 99 52 84 2007
5.7660294 -0.86758488 -1.0957597 465 2049940 1637 53 114 5933
5.8144884 -0.65834635 -1.1573824 451 2049940 1605 54 104 5965
5.8513761 -0.44385085 -1.221653 436 2049940 1568 55 76 5994
8.6230011 -1.6308626 -1.903824 114 2049940 920 56 100 8980
10.560205 -1.5945947 -2.4215178 105 2049940 1263 57 82 10951
10.73504 -1.217564 -2.5598996 483 2049940 5960 58 62 11103
10.61141 -0.80585027 -2.63362 516 2049940 6204 59 89 10963
8.5523539 -1.6278619 -2.2341614 82 2049940 660 60 41 8988
10.331358 -1.5688925 -2.7867279 36 2049940 416 61 54 10815
7.9069462 -0.89834034 -2.2062991 454 2049940 3098 62 73 8258
7.8458352 -0.59252203 -2.2696939 297 2049940 1994 63 67 8189
8.2381487 -1.5778264 2.6181576 77 2148350 597 0 75 8787
8.3191729 -1.2671249 2.5257778 22 2148350 172 1 85 8786
7.9382944 -0.90562981 2.3135374 229 2148350 1581 2 56 8318
8.0122404 -0.60952812 2.2445798 131 2148350 909 3 52 8343
8.2185116 -1.5697533 2.2602754 53 2148350 400 4 92 8667
7.67483 -1.1724092 2.0146675 32 2148350 203 5 43 8021
2.346499 -0.26860997 0.58834326 273 2148350 162 6 100 2434
2.2895095 -0.17650481 0.54892039 260 2148350 145 7 92 2361
2.3173628 -0.44216013 0.54365951 234 2148350 137 8 87 2421
2.2814922 -0.34762496 0.50766128 270 2148350 151 9 82 2363
2.2566082 -0.25955698 0.4768557 283 2148350 152 10 57 2321
2.1956427 -0.17119592 0.44086382 231 2148350 116 11 40 2246
2.1831455 -0.41619566 0.42641032 271 2148350 139 12 136 2263
2.140759 -0.32702294 0.39320356 223 2148350 108 13 58 2201
2.0903714 -0.24084292 0.36134085 244 2148350 111 14 109 2135
2.1147709 -0.16541018 0.3443622 206 2148350 95 15 57 2149
2.0543125 -0.39167204 0.32225811 277 2148350 124 16 40 2116
2.0487013 -0.31343591 0.29902673 278 2148350 122 17 79 2094
1.9985011 -0.23135376 0.27086839 229 2148350 94 18 82 2030
2.0011611 -0.15775397 0.25099176 178 2148350 73 19 83 2023
1.9659625 -0.37486294 0.23386902 246 2148350 100 20 72 2015
1.9263898 -0.29503283 0.20875378 238 2148350 92 21 75 1960
1.942645 -0.22581543 0.19069229 249 2148350 96 22 83 1965
1.9036037 -0.1510998 0.16837741 225 2148350 83 23 108 1917
1.8760182 -0.35808593 0.15292782 239 2148350 88 24 41 1916
1.8664737 -0.2863566 0.13313663 236 2148350 85 25 60 1893
1.9016371 -0.22111589 0.11665674 232 2148350 85 26 111 1918
1.842669 -0.14736347 0.095163941 198 2148350 68 27 94 1851
1.807459 -0.34591523 0.079993613 294 2148350 100 28 14 1842
1.8067131 -0.27783361 0.061948895 182 2148350 61 29 22 1829
1.8279222 -0.21429084 0.045397226 180 2148350 61 30 37 1841
1.7720916 -0.14237288 0.026562367 216 2148350 68 31 68 1778
1.7796392 -0.34068763 0.012650044 202 2148350 66 32 47 1812
1.7414249 -0.26844707 -0.0044591371 193 2148350 60 33 49 1762
1.7707212 -0.20780437 -0.021285042 184 2148350 59 34 84 1783
1.6900759 -0.1368821 -0.036376577 191 2148350 55 35 79 1696
1.6972557 -0.32577634 -0.051323101 200 2148350 60 36 106 1729
1.7359529 -0.26890647 -0.068712167 211 2148350 65 37 49 1758
1.6843491 -0.19838339 -0.082562104 263 2148350 76 38 123 1698
1.6925899 -0.13705598 -0.098775931 201 2148350 58 39 67 1701
1.6058415 -0.30953792 -0.10853729 167 2148350 45 40 79 1639
1.6060719 -0.2495337 -0.12315148 165 2148350 44 41 91 1630
1.6029943 -0.18925525 -0.137812 117 2148350 31 42 151 1620
1.6183369 -0.13192479 -0.15408579 170 2148350 45 43 67 1631
1.6163853 -0.31215554 -0.16994926 179 2148350 49 44 81 1655
1.8066427 -0.28143895 -0.20599641 223 2148350 75 45 42 1840
1.8058182 -0.21416013 -0.22221732 248 2148350 83 46 88 1832
1.828968 -0.14954506 -0.24230863 248 2148350 85 47 134 1851
1.8860128 -0.36586508 -0.269627 284 2148350 107 48 61 1940
1.8662205 -0.29155409 -0.28340393 243 2148350 89 49 38 1910
1.8894879 -0.22508621 -0.30413961 279 2148350 104 50 74 1927
1.9249157 -0.15793133 -0.32777873 255 2148350 98 51 84 1959
1.9741521 -0.38478678 -0.35848483 207 2148350 87 52 80 2043
5.7955518 -0.90842712 -1.1024086 487 2148350 1736 53 99 5969
5.7986503 -0.69261479 -1.155054 478 2148350 1694 54 100 5953
5.8485427 -0.47974584 -1.221653 469 2148350 1683 55 52 5994
8.4632101 -1.6544917 -1.8707508 117 2148350 911 56 111 8824
10.319005 -1.6229947 -2.3684485 78 2148350 896 57 107 10711
10.704179 -1.2806358 -2.5543661 594 2148350 7295 58 75 11079
10.617875 -0.87189883 -2.6365027 551 2148350 6640 59 83 10975
8.4395599 -1.6601167 -2.2073154 111 2148350 873 60 39 8880
10.207012 -1.614144 -2.7558074 66 2148350 750 61 49 10695
7.9127669 -0.94821543 -2.2095051 405 2148350 2772 62 79 8270
7.842052 -0.64065206 -2.2696939 386 2148350 2591 63 67 8189
7.9249125 -1.5683035 2.5216191 45 2246070 326 0 60 8463
8.1750231 -1.2965424 2.484381 20 2246070 151 1 92 8642
7.921144 -0.95294446 2.3101997 206 2246070 1418 2 46 8306
7.973793 -0.65583658 2.2348945 74 2246070 507 3 57 8307
8.0155115 -1.5820172 2.2070739 59 2246070 423 4 101 8463
7.6445494 -1.2158301 2.0086393 35 2246070 222 5 36 7997
2.3794873 -0.28718853 0.59704512 299 2246070 182 6 115 2470
2.323276 -0.1934551 0.55729026 231 2246070 133 7 69 2397
2.3490241 -0.46315706 0.55174369 235 2246070 142 8 98 2457
2.2677412 -0.359781 0.5050832 247 2246070 137 9 68 2351
2.2433143 -0.27198485 0.47439024 268 2246070 143 10 59 2309
2.2180014 -0.18663819 0.44557479 217 2246070 112 11 39 2270
2.1805508 -0.42958337 0.42641032 289 2246070 148 12 128 2263
2.1736932 -0.34571579 0.39963484 253 2246070 127 13 74 2237
2.0888543 -0.25366467 0.36134085 260 2246070 119 14 93 2135
2.0901101 -0.17639086 0.34051633 280 2246070 127 15 60 2125
2.0402341 -0.40197703 0.32043055 276 2246070 122 16 32 2104
2.0232813 -0.32226422 0.29559949 267 2246070 115 17 85 2070
2.0088489 -0.24505204 0.27246958 240 2246070 100 18 74 2042
2.0001554 -0.17002991 0.25099176 208 2246070 85 19 77 2023
1.9636253 -0.38691878 0.23386902 236 2246070 96 20 58 2015
1.9363263 -0.30872604 0.21003188 214 2246070 83 21 63 1972
1.9293679 -0.23627922 0.18952775 226 2246070 86 22 93 1953
1.9026407 -0.16277725 0.16837741 222 2246070 82 23 129 1917
1.9089925 -0.37653452 0.15580121 262 2246070 100 24 28 1952
1.8765019 -0.2996915 0.1339806 239 2246070 87 25 50 1905
1.8883556 -0.23132357 0.11592687 201 2246070 73 26 128 1906
1.8178504 -0.15660983 0.093930058 190 2246070 63 27 88 1827
1.7935416 -0.35467336 0.079472482 292 2246070 98 28 31 1830
1.8286591 -0.29270527 0.062761784 186 2246070 64 29 12 1853
1.7789491 -0.21962325 0.044213593 163 2246070 52 30 35 1793
1.7592306 -0.15220928 0.026383091 202 2246070 63 31 80 1766
1.7775154 -0.35160089 0.012650044 208 2246070 68 32 67 1812
1.7515934 -0.28102818 -0.0044895057 198 2246070 62 33 52 1774
1.7694129 -0.21866541 -0.021285042 193 2246070 61 34 93 1783
1.6772523 -0.14620776 -0.036119197 191 2246070 54 35 78 1684
1.7069904 -0.33851764 -0.051679306 207 2246070 63 36 99 1741
1.6987561 -0.27382836 -0.067305095 213 2246070 63 37 30 1722
1.7187842 -0.21313967 -0.084312543 245 2246070 74 38 132 1734
1.691717 -0.14743893 -0.098775931 203 2246070 59 39 68 1701
1.6273983 -0.32406214 -0.11012662 146 2246070 41 40 58 1663
1.6045105 -0.25938368 -0.12315148 162 2246070 43 41 92 1630
1.6373985 -0.20351164 -0.14087449 126 2246070 34 42 149 1656
1.5936958 -0.1397649 -0.15181844 162 2246070 42 43 64 1607
1.6378514 -0.32673809 -0.1724138 155 2246070 44 44 80 1679
1.7931108 -0.29061127 -0.20465295 272 2246070 91 45 28 1828
1.8162898 -0.22671174 -0.2236729 245 2246070 83 46 120 1844
1.828016 -0.16076458 -0.24230863 261 2246070 89 47 142 1851
1.8837324 -0.37743056 -0.269627 287 2246070 108 48 56 1940
1.8643963 -0.30299953 -0.28340393 248 2246070 90 49 44 1910
1.8880712 -0.23667565 -0.30413961 258 2246070 96 50 82 1927
1.9239104 -0.16973941 -0.32777873 253 2246070 97 51 95 1959
1.925428 -0.38756779 -0.35006231 211 2246070 84 52 80 1995
5.7898688 -0.94397086 -1.1024086 519 2246070 1850 53 98 5969
5.8176517 -0.73111737 -1.1597108 440 2246070 1573 54 86 5977
5.8454885 -0.51562279 -1.221653 472 2246070 1698 55 58 5994
8.2000017 -1.6553375 -1.814781 123 2246070 901 56 121 8560
10.135611 -1.6579422 -2.3286462 65 2246070 720 57 128 10531
10.707705 -1.3477495 -2.557133 575 2246070 7075 58 91 11091
10.600722 -0.93600792 -2.63362 451 2246070 5424 59 80 10963
8.2127895 -1.6679163 -2.1506412 70 2246070 521 60 40 8652
9.9909754 -1.6428784 -2.70015 84 2246070 927 61 71 10479
7.952692 -1.0025346 -2.2223294 258 2246070 1788 62 69 8318
7.8609447 -0.69077647 -2.2763457 357 2246070 2405 63 51 8213
7.8029084 -1.5939738 2.4858642 45 2344160 315 0 78 8343
2.5307794 -0.41731158 0.76986492 12 2344160 9 1 114 2678
7.9608884 -1.0073174 2.32355 207 2344160 1447 2 68 8354
7.9465933 -0.70271438 2.2284374 81 2344160 553 3 44 8283
7.8240294 -1.5941634 2.1570022 39 2344160 268 4 101 8271
7.6254859 -1.2608186 2.0056252 44 2344160 278 5 48 7985
2.3661292 -0.30031723 0.59414452 310 2344160 187 6 103 2458
2.345295 -0.20978647 0.56287009 256 2344160 150 7 69 2421
2.3346794 -0.47522929 0.54904902 247 2344160 148 8 93 2445
2.2770545 -0.37559623 0.50766128 249 2344160 139 9 72 2363
2.253253 -0.28722948 0.4768557 262 2344160 141 10 63 2321
2.181658 -0.19706841 0.43850839 228 2344160 114 11 49 2234
2.1778738 -0.4429549 0.42641032 263 2344160 135 12 127 2263
2.1482334 -0.35519475 0.3953473 253 2344160 124 13 79 2213
2.0872583 -0.26647684 0.36134085 261 2344160 119 14 103 2135
2.0771918 -0.18814373 0.33859345 271 2344160 121 15 70 2113
2.0261071 -0.41212407 0.31860298 272 2344160 119 16 58 2092
2.0564184 -0.34049317 0.30074036 253 2344160 112 17 81 2106
2.0073075 -0.25737348 0.27246958 230 2344160 96 18 71 2042
2.0227909 -0.18446216 0.25396943 240 2344160 101 19 72 2047
1.9612143 -0.39896008 0.23386902 250 2344160 102 20 73 2015
1.9579377 -0.32450315 0.21258804 227 2344160 90 21 53 1996
1.9752645 -0.25421119 0.1941859 210 2344160 84 22 76 2001
1.8897026 -0.17335656 0.16732341 222 2344160 81 23 121 1905
1.8949249 -0.38585404 0.1548434 209 2344160 79 24 44 1940
1.8864363 -0.31316018 0.13482456 227 2344160 83 25 41 1917
1.8750209 -0.24137662 0.115197 200 2344160 72 26 128 1894
1.7810551 -0.16445537 0.092079215 179 2344160 57 27 119 1791
1.7913315 -0.36567163 0.079472482 272 2344160 91 28 13 1830
1.791337 -0.29801565 0.061542448 186 2344160 61 29 24 1817
1.8132583 -0.23516324 0.045101319 175 2344160 58 30 54 1829
1.7104739 -0.15857048 0.025665998 179 2344160 53 31 77 1718
1.7518104 -0.35769957 0.012482494 187 2344160 60 32 65 1788
1.7735091 -0.29571778 -0.0045502433 189 2344160 61 33 45 1798
1.7442392 -0.22642878 -0.020998536 202 2344160 63 34 94 1759
1.6882688 -0.15761162 -0.036376577 190 2344160 55 35 94 1696
1.7166322 -0.35139057 -0.052035511 218 2344160 67 36 96 1753
1.697044 -0.28424659 -0.067305095 223 2344160 66 37 50 1722
1.741215 -0.22677787 -0.085479498 252 2344160 78 38 128 1758
1.75042 -0.16338304 -0.10226008 190 2344160 59 39 70 1761
1.6136507 -0.33163115 -0.10933196 192 2344160 52 40 50 1651
1.5910883 -0.26724187 -0.12224484 110 2344160 29 41 85 1618
1.636119 -0.2135547 -0.14087449 147 2344160 40 42 153 1656
1.6047022 -0.15065768 -0.15295212 147 2344160 39 43 60 1619
1.5773588 -0.32474652 -0.16625248 124 2344160 33 44 89 1619
1.791294 -0.30160815 -0.20465295 257 2344160 86 45 37 1828
1.8148645 -0.23785201 -0.2236729 253 2344160 86 46 126 1844
1.8269951 -0.17197804 -0.24230863 247 2344160 85 47 130 1851
1.8581063 -0.38416967 -0.26629141 285 2344160 105 48 77 1916
1.9210101 -0.32431105 -0.29230669 248 2344160 96 49 41 1970
1.8865834 -0.24825618 -0.30413961 277 2344160 103 50 77 1927
1.9110543 -0.18042907 -0.32577091 283 2344160 107 51 86 1947
1.9461477 -0.40417919 -0.35427359 222 2344160 91 52 82 2019
5.7839675 -0.97947907 -1.1024086 535 2344160 1906 53 105 5969
5.8363981 -0.76987904 -1.1643674 467 2344160 1683 54 91 6001
5.8539109 -0.55258441 -1.2240987 472 2344160 1704 55 61 6006
7.9945154 -1.6649724 -1.7715313 145 2344160 1011 56 135 8356
9.4445267 -1.6044594 -2.1720912 80 2344160 774 57 96 9823
10.699233 -1.4134254 -2.557133 569 2344160 7003 58 78 11091
10.617973 -1.0032265 -2.6393857 542 2344160 6546 59 81 10987
7.9976254 -1.6753803 -2.0969498 118 2344160 837 60 48 8436
9.5578203 -1.6319454 -2.5857434 64 2344160 649 61 61 10035
10.365273 -1.3713322 -2.8988066 291 2344160 3430 62 74 10850
7.8565583 -0.73899734 -2.2763457 363 2344160 2445 63 57 8213
7.6360564 -1.6087606 2.435807 46 2441290 310 0 77 8175
8.6909418 -1.4879216 2.6465182 52 2441290 442 1 96 9206
7.9659839 -1.0576627 2.3268876 33 2441290 228 2 50 8366
7.9651446 -0.75363791 2.2348945 58 2441290 398 3 42 8307
7.6780553 -1.6135507 2.1194484 57 2441290 378 4 96 8127
7.6519494 -1.3134791 2.0146675 26 2441290 165 5 39 8021
2.3757839 -0.31636685 0.59704512 272 2441290 166 6 114 2470
2.3439634 -0.22417298 0.56287009 261 2441290 153 7 73 2421
2.3546076 -0.49435103 0.55443841 258 2441290 157 8 96 2469
2.2862585 -0.39153916 0.5102393 266 2441290 150 9 65 2375
2.2281675 -0.29793683 0.47192484 269 2441290 142 10 61 2297
2.2038319 -0.21271197 0.4432193 276 2441290 141 11 42 2258
2.2212508 -0.46598843 0.43545482 268 2441290 143 12 125 2311
2.1460135 -0.36836937 0.3953473 252 2441290 123 13 57 2213
2.1324732 -0.2855579 0.36946467 250 2441290 119 14 90 2183
2.0759983 -0.20088559 0.33859345 264 2441290 118 15 79 2113
2.0699694 -0.43428937 0.32591322 278 2441290 127 16 43 2140
2.0894065 -0.35914066 0.30588123 246 2441290 113 17 73 2142
2.0174773 -0.2712701 0.27407077 213 2441290 90 18 69 2054
1.9979184 -0.19456209 0.25099176 224 2441290 92 19 68 2023
1.9703944 -0.41343394 0.2352618 234 2441290 96 20 79 2027
1.9676689 -0.33853385 0.21386613 227 2441290 92 21 60 2008
1.9263232 -0.25993773 0.18952775 230 2441290 88 22 81 1953
1.9480869 -0.19077344 0.17259344 222 2441290 86 23 132 1965
1.9159343 -0.40239102 0.15675899 235 2441290 91 24 42 1964
1.8608866 -0.32066378 0.13313663 233 2441290 83 25 50 1893
1.8378941 -0.24807045 0.1130074 219 2441290 76 26 106 1858
1.8515707 -0.1824311 0.095780887 193 2441290 67 27 104 1863
1.8477117 -0.38900554 0.082078137 233 2441290 83 28 35 1890
1.7894747 -0.30900148 0.061542448 176 2441290 58 29 19 1817
1.7880071 -0.24305302 0.0445095 170 2441290 55 30 44 1805
1.7691708 -0.17496717 0.026562367 205 2441290 65 31 71 1778
1.7495826 -0.36844173 0.012482494 179 2441290 57 32 73 1788
1.7361887 -0.30045554 -0.0044591371 188 2441290 59 33 71 1762
1.6952586 -0.23065619 -0.020425523 179 2441290 52 34 106 1711
1.6872699 -0.16796768 -0.036376577 204 2441290 59 35 69 1696
1.6674995 -0.35200712 -0.050610691 215 2441290 63 36 80 1705
1.7070817 -0.29670742 -0.067774117 206 2441290 62 37 51 1734
1.7160393 -0.23421575 -0.084312543 227 2441290 68 38 119 1734
1.7613055 -0.17530686 -0.10295692 187 2441290 59 39 76 1773
1.5530179 -0.3291145 -0.10535866 199 2441290 50 40 70 1591
1.6247827 -0.28316271 -0.12496475 118 2441290 32 41 86 1654
1.5873928 -0.21710885 -0.13679115 135 2441290 35 42 142 1608
1.5918607 -0.15931149 -0.15181844 161 2441290 42 43 69 1607
1.5986893 -0.33937633 -0.16871701 194 2441290 53 44 66 1643
1.8246496 -0.31874973 -0.20868331 270 2441290 94 45 44 1864
1.848773 -0.25384417 -0.22803961 276 2441290 98 46 114 1880
1.802231 -0.18080989 -0.23916687 224 2441290 75 47 129 1827
1.8324692 -0.3906087 -0.26295581 235 2441290 84 48 57 1892
1.8956054 -0.33199751 -0.28874558 246 2441290 93 49 24 1946
1.8967633 -0.2614454 -0.30603358 239 2441290 90 50 69 1939
1.9099112 -0.19215168 -0.32577091 251 2441290 95 51 82 1947
1.9436311 -0.41611293 -0.35427359 210 2441290 86 52 78 2019
5.7894645 -1.0169908 -1.1046249 485 2441290 1735 53 106 5981
5.8315639 -0.80567604 -1.1643674 433 2441290 1560 54 93 6001
5.8387213 -0.58731711 -1.221653 482 2441290 1730 55 50 5994
7.8006935 -1.6746113 -1.7308261 157 2441290 1046 56 117 8164
9.2155209 -1.6237944 -2.121675 92 2441290 850 57 78 9595
10.713492 -1.4822487 -2.5626664 322 2441290 3978 58 110 11115
10.611618 -1.0683583 -2.6393857 406 2441290 4906 59 64 10987
7.7940474 -1.6827211 -2.046241 123 2441290 831 60 44 8232
9.0795212 -1.6076748 -2.4589686 35 2441290 315 61 48 9543
10.310845 -1.4285585 -2.8859823 497 2441290 5803 62 80 10802
7.8862934 -0.79064089 -2.2863238 344 2441290 2338 63 47 8249
7.4357405 -1.6142707 2.3750236 34 2538870 219 0 70 7971
8.6250668 -1.5311754 2.6292698 93 2538870 780 1 86 9146
7.9479275 -1.104934 2.32355 16 2538870 115 2 60 8354
0 -0 0 6 2538870 0 3 48 0
7.384953 -1.5993313 2.0412109 61 2538870 376 4 74 7827
7.6208749 -1.3563353 2.0086393 18 2538870 113 5 44 7997
2.3737979 -0.33093846 0.59704512 319 2538870 195 6 79 2470
2.2960994 -0.23382144 0.55171037 282 2538870 159 7 74 2373
2.3515298 -0.5087893 0.55443841 251 2538870 153 8 105 2469
2.283813 -0.40556002 0.5102393 266 2538870 150 9 82 2375
2.2379279 -0.31323084 0.47439024 256 2538870 136 10 54 2309
2.1790752 -0.22382587 0.43850839 268 2538870 134 11 46 2234
2.1837931 -0.47213781 0.42867145 246 2538870 127 12 101 2275
2.1902101 -0.38980553 0.40392241 269 2538870 138 13 86 2261
2.0955436 -0.29371229 0.36337182 236 2538870 109 14 119 2147
2.0982919 -0.21604624 0.34243926 256 2538870 117 15 63 2137
2.0556736 -0.44447583 0.32408565 272 2538870 123 16 51 2128
2.0403922 -0.36361915 0.29902673 251 2538870 110 17 83 2094
2.0275512 -0.28530109 0.27567196 226 2538870 97 18 84 2066
1.9966869 -0.20681742 0.25099176 218 2538870 89 19 95 2023
1.9678205 -0.42551628 0.2352618 243 2538870 100 20 61 2027
2.0242863 -0.36107698 0.22025655 220 2538870 94 21 71 2068
1.9483441 -0.27509207 0.19185682 217 2538870 85 22 87 1977
1.9231009 -0.20024708 0.17048544 237 2538870 89 23 131 1941
1.9368112 -0.41920015 0.15867457 218 2538870 86 24 27 1988
1.8942353 -0.33839116 0.13566855 226 2538870 84 25 65 1929
1.8719176 -0.26436782 0.115197 206 2538870 74 26 119 1894
1.8623354 -0.19503693 0.096397839 202 2538870 71 27 94 1875
1.8101416 -0.39271012 0.080514744 279 2538870 96 28 15 1854
1.8229614 -0.32631531 0.062761784 193 2538870 66 29 6 1853
1.8339896 -0.26077452 0.045693133 180 2538870 62 30 38 1853
1.8038628 -0.18958168 0.027100187 204 2538870 67 31 75 1814
1.7472889 -0.37917006 0.012482494 183 2538870 59 32 67 1788
1.7461238 -0.31322169 -0.0044895057 210 2538870 66 33 57 1774
1.6938114 -0.24105376 -0.020425523 169 2538870 50 34 94 1711
1.6981382 -0.17957908 -0.036633957 199 2538870 58 35 71 1708
1.7004702 -0.36988038 -0.051679306 215 2538870 65 36 95 1741
1.681627 -0.30292472 -0.066836067 243 2538870 71 37 37 1710
1.7027043 -0.24304706 -0.083729066 230 2538870 68 38 126 1722
1.7244565 -0.18233183 -0.10086642 216 2538870 65 39 70 1737
1.6094595 -0.35140815 -0.10933196 188 2538870 51 40 64 1651
1.6347899 -0.29525355 -0.12587139 107 2538870 30 41 80 1666
1.621539 -0.23192343 -0.13985366 146 2538870 39 42 141 1644
1.6502502 -0.17538868 -0.15748683 158 2538870 44 43 53 1667
1.5732549 -0.34407869 -0.16625248 202 2538870 53 44 71 1619
1.857861 -0.33631182 -0.21271369 218 2538870 79 45 42 1900
1.83539 -0.26349059 -0.22658403 233 2538870 81 46 115 1868
1.8484068 -0.19690554 -0.24545039 234 2538870 82 47 136 1875
1.830038 -0.40184516 -0.26295581 278 2538870 99 48 49 1892
1.8818562 -0.34150353 -0.28696504 220 2538870 82 49 40 1934
1.8716666 -0.26969877 -0.30224565 266 2538870 98 50 68 1915
1.8969321 -0.20261055 -0.32376307 255 2538870 96 51 84 1935
1.9410412 -0.428031 -0.35427359 234 2538870 96 52 77 2019
5.7831154 -1.0524951 -1.1046249 462 2538870 1653 53 93 5981
5.8381619 -0.84312528 -1.1666958 473 2538870 1711 54 79 6013
5.8700523 -0.62687427 -1.2289902 469 2538870 1707 55 76 6030
7.5956101 -1.679404 -1.6875767 174 2538870 1102 56 132 7960
8.9175653 -1.6277721 -2.0553381 89 2538870 771 57 85 9295
10.657969 -1.5412725 -2.5515995 48 2538870 592 58 76 11067
10.639611 -1.1371638 -2.6480339 321 2538870 3903 59 94 11023
7.5906887 -1.6876285 -1.9955326 133 2538870 855 60 46 8028
8.1343107 -1.4918431 -2.2054188 46 2538870 334 61 40 8559
10.336219 -1.4967695 -2.8956006 327 2538870 3844 62 81 10838
7.8468981 -0.83535373 -2.2763457 400 2538870 2701 63 63 8213
7.2915468 -1.6298789 2.3321178 40 2637520 248 0 63 7827
8.4685574 -1.55705 2.5844233 98 2637520 792 1 110 8990
8.1120996 -1.1785387 2.3736145 21 2637520 157 2 58 8534
7.8288851 -0.837798 2.1993816 32 2637520 212 3 37 8175
7.2619305 -1.6193999 2.0099161 54 2637520 322 4 87 7707
7.6923695 -1.4178084 2.0297379 14 2637520 88 5 53 8081
2.3717227 -0.34549758 0.59704512 262 2637520 160 6 102 2470
2.3410361 -0.25292015 0.56287009 283 2637520 166 7 64 2421
2.3369501 -0.52066553 0.55174369 240 2637520 145 8 112 2457
2.2697551 -0.41744572 0.50766128 262 2637520 147 9 77 2363
2.2592049 -0.33035505 0.47932115 263 2637520 143 10 69 2333
2.1893582 -0.23846628 0.44086382 261 2637520 131 11 45 2246
2.1923585 -0.48808947 0.43093258 264 2637520 138 12 103 2287
2.1761656 -0.40109691 0.40177861 262 2637520 133 13 60 2249
2.1054041 -0.30827823 0.36540279 248 2637520 116 14 119 2159
2.0616019 -0.2250607 0.33667052 246 2637520 109 15 91 2101
2.0644844 -0.45965838 0.32591322 282 2637520 129 16 45 2140
2.0614822 -0.38044286 0.30245396 259 2637520 116 17 92 2118
2.037529 -0.29946589 0.27727315 239 2637520 103 18 82 2078
2.0190527 -0.22166388 0.25396943 221 2637520 93 19 76 2047
1.9884404 -0.44276363 0.23804732 239 2637520 101 20 64 2051
1.9281665 -0.35615289 0.21003188 257 2637520 100 21 71 1972
1.9466195 -0.28704169 0.19185682 216 2637520 85 22 78 1977
1.9455991 -0.2146651 0.17259344 236 2637520 91 23 153 1965
1.9225274 -0.42847425 0.15771678 240 2637520 94 24 36 1976
1.868582 -0.34565291 0.1339806 230 2637520 84 25 61 1905
1.8584107 -0.27410102 0.11446714 208 2637520 74 26 134 1882
1.8611038 -0.20646033 0.096397839 198 2637520 70 27 95 1875
1.7842972 -0.39858222 0.079472482 249 2637520 83 28 14 1830
1.8327173 -0.33968028 0.063168228 211 2637520 73 29 19 1865
1.832355 -0.27202278 0.045693133 178 2637520 61 30 44 1853
1.7311155 -0.19268249 0.026024545 202 2637520 61 31 67 1742
1.7800623 -0.39773408 0.01273382 191 2637520 64 32 59 1824
1.744169 -0.32392979 -0.0044895057 177 2637520 56 33 23 1774
1.7279071 -0.25673267 -0.020855283 187 2637520 57 34 103 1747
1.6850817 -0.18866043 -0.036376577 192 2637520 55 35 77 1696
1.7098736 -0.38292864 -0.052035511 197 2637520 61 36 121 1753
1.6915244 -0.31543547 -0.067305095 229 2637520 68 37 56 1722
1.7011809 -0.25349009 -0.083729066 225 2637520 67 38 126 1722
1.6994945 -0.19024403 -0.099472761 196 2637520 58 39 72 1713
1.6306374 -0.36652878 -0.11092128 183 2637520 51 40 69 1675
1.6447095 -0.30747777 -0.12677802 112 2637520 32 41 80 1678
1.6555617 -0.24716504 -0.14291614 184 2637520 52 42 153 1680
1.6135286 -0.18150489 -0.15408579 133 2637520 35 43 47 1631
1.6176944 -0.36421275 -0.17118151 251 2637520 70 44 69 1667
1.8088801 -0.33892098 -0.20733987 231 2637520 79 45 45 1852
1.8455187 -0.27651235 -0.22803961 253 2637520 89 46 108 1880
1.8353419 -0.20691067 -0.2438795 208 2637520 72 47 120 1863
1.8623114 -0.42092612 -0.26795921 284 2637520 106 48 60 1928
1.8563988 -0.34866285 -0.28340393 234 2637520 85 49 26 1910
1.8582586 -0.27941605 -0.30035168 253 2637520 92 50 71 1903
1.9191653 -0.21690342 -0.32777873 247 2637520 95 51 70 1959
1.9614199 -0.44516245 -0.35848483 225 2637520 94 52 71 2043
5.8113179 -1.0945083 -1.1112736 453 2637520 1640 53 110 6017
5.821238 -0.8771776 -1.1643674 430 2637520 1550 54 75 6001
5.8544216 -0.66156125 -1.2265444 479 2637520 1736 55 66 6018
7.4136386 -1.6869484 -1.6494154 155 2637520 937 56 136 7780
8.6199198 -1.6281568 -1.9890015 111 2637520 902 57 65 8995
10.521306 -1.5874767 -2.5211656 94 2637520 1129 58 63 10935
10.609283 -1.1998078 -2.6422684 380 2637520 4602 59 70 10999
7.4102311 -1.6952895 -1.9507897 131 2637520 804 60 57 7848
8.2275286 -1.5611804 -2.2332475 65 2637520 485 61 44 8667
10.086726 -1.523887 -2.8282733 28 2637520 318 62 76 10586
7.8645396 -0.88606745 -2.2829978 409 2637520 2778 63 69 8237
7.1474466 -1.6437795 2.2892118 53 2735150 315 0 72 7683
8.2668962 -1.5724719 2.5257778 112 2735150 865 1 108 8786
8.1503019 -1.2352 2.3869653 18 2735150 129 2 57 8582
7.8465657 -0.88841993 2.2058384 31 2735150 206 3 41 8199
7.0599046 -1.6198846 1.9567146 58 2735150 328 4 75 7503
8.2311945 -1.5694026 2.1744144 37 2735150 274 5 47 8657
2.3925824 -0.36354211 0.60284644 236 2735150 147 6 114 2494
2.3278444 -0.26595491 0.56008017 281 2735150 163 7 79 2409
2.3451092 -0.53760791 0.55443841 236 2735150 144 8 80 2469
2.3016908 -0.4379366 0.51539546 253 2735150 146 9 86 2399
2.2687449 -0.34598151 0.48178655 280 2735150 154 10 55 2345
2.1878538 -0.25189543 0.44086382 272 2735150 137 11 57 2246
2.2122972 -0.50679547 0.43545482 277 2735150 148 12 123 2311
2.1736636 -0.41444206 0.40177861 266 2735150 135 13 80 2249
2.1151643 -0.32297614 0.3674337 246 2735150 116 14 88 2171
2.0954826 -0.24177924 0.34243926 275 2735150 125 15 55 2137
2.0847459 -0.47761416 0.3295683 258 2735150 121 16 46 2164
2.0124438 -0.38417631 0.29559949 270 2735150 116 17 89 2070
2.0121422 -0.3083593 0.27407077 261 2735150 110 18 78 2054
1.9703428 -0.22856018 0.24801412 245 2735150 98 19 101 1999
2.0089219 -0.46027982 0.24083285 254 2735150 109 20 23 2075
1.9493843 -0.37245563 0.21258804 233 2735150 93 21 81 1996
1.933017 -0.29716578 0.19069229 223 2735150 86 22 80 1965
1.9204988 -0.22383142 0.17048544 230 2735150 87 23 123 1941
1.9082031 -0.43758893 0.15675899 238 2735150 92 24 23 1964
1.9016969 -0.36386037 0.13651252 222 2735150 84 25 58 1941
1.8330165 -0.28185806 0.1130074 212 2735150 73 26 131 1858
1.8598019 -0.21787597 0.096397839 197 2735150 69 27 116 1875
1.7935021 -0.41220838 0.079993613 242 2735150 82 28 34 1842
1.7834839 -0.3418875 0.061542448 207 2735150 68 29 27 1817
1.8306514 -0.28326076 0.045693133 187 2735150 64 30 55 1853
1.717984 -0.20190032 0.025845272 206 2735150 62 31 64 1730
1.7425044 -0.40058342 0.012482494 202 2735150 65 32 72 1788
1.7539332 -0.33688927 -0.0045198747 179 2735150 57 33 65 1786
1.7500148 -0.27100262 -0.021141788 185 2735150 58 34 88 1771
1.6481494 -0.19477236 -0.035604432 223 2735150 62 35 71 1660
1.7074918 -0.39341301 -0.052035511 195 2735150 60 36 115 1753
1.7131048 -0.33034939 -0.068243138 224 2735150 68 37 46 1746
1.7351252 -0.26944113 -0.085479498 245 2735150 76 38 136 1758
1.7101922 -0.2020741 -0.10016959 208 2735150 62 39 63 1725
1.605026 -0.37113225 -0.10933196 191 2735150 52 40 83 1651
1.595799 -0.30847967 -0.12315148 181 2735150 48 41 81 1630
1.6185708 -0.25180474 -0.13985366 206 2735150 56 42 145 1644
1.5886586 -0.18858545 -0.15181844 138 2735150 36 43 67 1607
1.5689142 -0.36335903 -0.16625248 221 2735150 58 44 67 1619
1.8184733 -0.35228157 -0.20868331 224 2735150 78 45 61 1864
1.8320184 -0.28599381 -0.22658403 251 2735150 88 46 126 1868
1.7985976 -0.21395242 -0.23916687 225 2735150 75 47 114 1827
1.8365438 -0.42696321 -0.26462361 266 2735150 97 48 66 1904
1.9008229 -0.36909524 -0.29052612 239 2735150 92 49 18 1958
1.9033364 -0.29814813 -0.30792755 263 2735150 100 50 70 1951
1.9177983 -0.22867511 -0.32777873 249 2735150 96 51 92 1959
1.9586515 -0.45718911 -0.35848483 231 2735150 97 52 75 2043
5.7929163 -1.1278914 -1.1090573 495 2735150 1786 53 95 6005
5.839005 -0.91653043 -1.1690241 454 2735150 1649 54 78 6025
5.8969145 -0.70303398 -1.2363275 485 2735150 1786 55 63 6066
7.2775421 -1.7030129 -1.6214304 173 2735150 1012 56 120 7648
8.403018 -1.64065 -1.9412388 134 2735150 1036 57 60 8779
10.361411 -1.6284366 -2.4851983 98 2735150 1141 58 93 10779
10.613288 -1.2662625 -2.6451511 539 2735150 6538 59 85 11011
7.2752299 -1.7114476 -1.9179782 141 2735150 837 60 47 7716
8.3657084 -1.6406423 -2.2734442 103 2735150 800 61 34 8823
10.008647 -1.574964 -2.8090372 23 2735150 259 62 61 10514
7.8475056 -0.93294549 -2.2796719 414 2735150 2804 63 64 8225
6.9477177 -1.642795 2.2284284 31 2833710 175 0 79 7479
7.9525976 -1.5633098 2.4326351 47 2833710 338 1 94 8462
7.9945569 -1.2618245 2.343576 19 2833710 132 2 45 8426
7.8065386 -0.93243665 2.1961532 26 2833710 171 3 40 8163
6.9258051 -1.6339127 1.9222902 46 2833710 252 4 71 7371
7.9592967 -1.5682342 2.1050901 43 2833710 300 5 39 8381
2.4248099 -0.38367528 0.6115483 208 2833710 133 6 92 2530
2.3377559 -0.2816292 0.56287009 317 2833710 186 7 96 2421
2.3303847 -0.54930425 0.55174369 227 2833710 137 8 81 2457
2.2874608 -0.44979006 0.51281738 236 2833710 135 9 80 2387
2.2549808 -0.3580541 0.47932115 261 2833710 142 10 61 2333
2.1862669 -0.26531512 0.44086382 256 2833710 129 11 51 2246
2.1862037 -0.51495636 0.43093258 278 2833710 145 12 107 2287
2.1594954 -0.42548913 0.39963484 232 2833710 116 13 72 2237
2.1248231 -0.33780542 0.36946467 235 2833710 112 14 120 2183
2.0586848 -0.25034279 0.33667052 264 2833710 117 15 78 2101
2.0586882 -0.48495817 0.32591322 290 2833710 133 16 38 2140
2.0333536 -0.40111449 0.29902673 258 2833710 113 17 70 2094
2.0337005 -0.32444698 0.27727315 252 2833710 109 18 90 2078
1.9807227 -0.24209028 0.24950296 221 2833710 89 19 92 2011
1.9828573 -0.4671315 0.23804732 227 2833710 96 20 78 2051
1.9470623 -0.38440979 0.21258804 218 2833710 87 21 45 1996
1.9193637 -0.30713379 0.18952775 226 2833710 86 22 83 1953
1.9072248 -0.23415452 0.16943143 235 2833710 87 23 112 1929
1.8938397 -0.44654408 0.15580121 246 2833710 94 24 50 1952
1.8759426 -0.37087888 0.13482456 253 2833710 93 25 50 1917
1.8194253 -0.29120693 0.11227755 210 2833710 72 26 107 1846
1.8703239 -0.2307508 0.097014785 214 2833710 76 27 78 1887
1.7909391 -0.42320535 0.079993613 244 2833710 83 28 32 1842
1.8519399 -0.36680526 0.063981116 198 2833710 71 29 25 1889
1.7933475 -0.2887668 0.044805408 177 2833710 58 30 44 1817
1.7405283 -0.21538498 0.026203819 196 2833710 60 31 66 1754
1.7750474 -0.41954824 0.01273382 213 2833710 71 32 67 1824
1.7636034 -0.34998065 -0.0045502433 220 2833710 71 33 52 1798
1.748319 -0.28173539 -0.021141788 195 2833710 61 34 71 1771
1.7183561 -0.21376798 -0.037148722 178 2833710 53 35 72 1732
1.6933738 -0.40111783 -0.051679306 204 2833710 62 36 112 1741
1.7345653 -0.3455399 -0.069181189 216 2833710 68 37 36 1770
1.6979421 -0.2743471 -0.083729066 217 2833710 64 38 114 1722
1.7445844 -0.21699995 -0.10226008 198 2833710 62 39 65 1761
1.6027186 -0.38097352 -0.10933196 179 2833710 49 40 72 1651
1.582142 -0.31592241 -0.12224484 124 2833710 33 41 92 1618
1.5815866 -0.25600001 -0.13679115 222 2833710 57 42 137 1608
1.5993257 -0.19981071 -0.15295212 141 2833710 37 43 69 1619
1.5782671 -0.37574336 -0.16748473 227 2833710 61 44 75 1631
1.792892 -0.35875347 -0.20599641 219 2833710 74 45 21 1840
1.8537438 -0.30104828 -0.22949518 270 2833710 97 46 127 1892
1.8444693 -0.2308953 -0.24545039 234 2833710 82 47 132 1875
1.9147962 -0.45755741 -0.27629817 256 2833710 101 48 56 1988
1.9101579 -0.38308504 -0.29230669 247 2833710 96 49 35 1970
1.8897759 -0.30791557 -0.30603358 264 2833710 99 50 71 1939
1.9046203 -0.23896538 -0.32577091 260 2833710 99 51 80 1947
1.9558094 -0.46919855 -0.35848483 217 2833710 91 52 90 2043
5.809011 -1.1680646 -1.11349 498 2833710 1811 53 94 6029
5.8565078 -0.9561342 -1.1736809 440 2833710 1610 54 100 6049
5.8691759 -0.73627889 -1.2314359 467 2833710 1706 55 75 6042
7.0845218 -1.7037613 -1.5807251 210 2833710 1168 56 107 7456
8.1862955 -1.6505444 -1.8934762 131 2833710 964 57 67 8563
10.074654 -1.6467749 -2.4187973 93 2833710 1024 58 110 10491
10.59376 -1.3299097 -2.6422684 577 2833710 6985 59 72 10999
7.0612283 -1.7068968 -1.8642868 139 2833710 785 60 61 7500
8.1509295 -1.6505213 -2.217787 67 2833710 494 61 41 8607
10.010207 -1.6382139 -2.8122432 64 2833710 714 62 67 10526
7.8416333 -0.98107934 -2.2796719 392 2833710 2654 63 78 8225
6.7594075 -1.6421272 2.1712203 58 2931530 310 0 77 7287
7.8414807 -1.5915016 2.4015875 46 2931530 323 1 78 8354
8.0094128 -1.3145882 2.3502512 21 2931530 146 2 56 8450
7.9038773 -0.99328923 2.2252092 31 2931530 210 3 40 8271
6.7580276 -1.6381699 1.8784775 59 2931530 308 4 68 7203
7.8584671 -1.5985197 2.0809777 52 2931530 355 5 38 8285
2.3994305 -0.3947657 0.60574698 165 2931530 104 6 106 2506
2.335984 -0.29596812 0.56287009 307 2931530 180 7 89 2421
2.3837953 -0.57735586 0.56521732 266 2931530 169 8 92 2517
2.3076289 -0.46848059 0.51797348 265 2931530 154 9 73 2411
2.2179799 -0.36614522 0.47192484 245 2931530 129 10 49 2297
2.2429576 -0.28617069 0.45264113 278 2931530 148 11 47 2306
2.1830029 -0.5283609 0.43093258 265 2931530 139 12 109 2287
2.1915541 -0.44579205 0.40606615 274 2931530 142 13 66 2273
2.0877044 -0.34505105 0.36337182 241 2931530 111 14 90 2147
2.0923579 -0.26747584 0.34243926 271 2931530 123 15 55 2137
2.078728 -0.50316125 0.3295683 262 2931530 123 16 51 2164
2.0424924 -0.41595349 0.30074036 277 2931530 123 17 100 2106
2.0316715 -0.3369194 0.27727315 254 2931530 110 18 69 2078
1.9910101 -0.25575629 0.25099176 233 2931530 95 19 91 2023
2.0147066 -0.48770198 0.24222563 258 2931530 112 20 57 2087
1.9563584 -0.39873239 0.21386613 224 2931530 90 21 84 2008
1.9527878 -0.32478344 0.19302136 218 2931530 86 22 65 1989
1.9294628 -0.24891144 0.17153944 217 2931530 83 23 128 1953
1.8794386 -0.45533949 0.1548434 230 2931530 86 24 43 1940
1.8501745 -0.37759522 0.13313663 236 2931530 85 25 63 1893
1.8648659 -0.31022736 0.115197 244 2931530 87 26 132 1894
1.8926424 -0.24530329 0.098248675 209 2931530 76 27 102 1911
1.811609 -0.43984351 0.081035875 250 2931530 87 28 36 1866
1.8379043 -0.37575933 0.063574672 178 2931530 63 29 17 1877
1.8507013 -0.30966383 0.046284951 173 2931530 61 30 44 1877
1.7867682 -0.23224698 0.026920913 198 2931530 64 31 57 1802
1.7724397 -0.43043184 0.01273382 177 2931530 59 32 62 1824
1.7261552 -0.35357139 -0.0044591371 227 2931530 70 33 40 1762
1.6992198 -0.284531 -0.020568775 213 2931530 63 34 79 1723
1.7051158 -0.22275348 -0.036891337 202 2931530 60 35 70 1720
1.7025354 -0.41433695 -0.052035511 184 2931530 57 36 100 1753
1.6736865 -0.34410268 -0.066836067 196 2931530 57 37 52 1710
1.6962268 -0.2847603 -0.083729066 243 2931530 72 38 133 1722
1.7194625 -0.2245972 -0.10086642 218 2931530 66 39 77 1737
1.5421915 -0.37659812 -0.10535866 199 2931530 50 40 64 1591
1.6856489 -0.34735945 -0.13040458 120 2931530 36 41 78 1726
1.5917771 -0.26768249 -0.137812 247 2931530 65 42 141 1620
1.6099144 -0.21117392 -0.15408579 154 2931530 41 43 56 1631
1.5527422 -0.37974897 -0.16502023 213 2931530 55 44 84 1607
1.8373698 -0.37939331 -0.21137023 229 2931530 81 45 50 1888
1.8401164 -0.31043547 -0.22803961 251 2931530 89 46 116 1880
1.8194271 -0.23910813 -0.24230863 263 2931530 90 47 131 1851
1.819625 -0.44663551 -0.26295581 263 2931530 94 48 54 1892
1.9077713 -0.39479834 -0.29230669 230 2931530 89 49 37 1970
1.8644841 -0.31555054 -0.30224565 261 2931530 96 50 76 1915
1.8913885 -0.24910258 -0.32376307 262 2931530 98 51 78 1935
1.9528936 -0.48119035 -0.35848483 220 2931530 92 52 86 2043
5.8363771 -1.2108734 -1.1201386 492 2931530 1809 53 124 6065
5.8505311 -0.99205106 -1.1736809 429 2931530 1571 54 89 6049
5.8761954 -0.77381146 -1.2338817 497 2931530 1822 55 86 6054
6.9031582 -1.7050189 -1.5425638 212 2931530 1123 56 106 7276
7.9812326 -1.6602259 -1.8483671 128 2931530 897 57 79 8359
9.48876 -1.6108451 -2.2804618 82 2931530 804 58 98 9891
10.585402 -1.3948867 -2.6422684 582 2931530 7044 59 86 10999
6.9603739 -1.727789 -1.8404238 184 2931530 1011 60 60 7404
7.9817514 -1.6673112 -2.1744981 110 2931530 781 61 41 8439
8.9511385 -1.5213447 -2.5172863 194 2931530 1726 62 65 9422
7.8583293 -1.0321794 -2.2863238 43 2931530 294 63 96 8249
5.9267406 -1.4784098 1.9066336 129 3029480 529 0 79 6399
7.629076 -1.5971932 2.3394923 42 3029480 280 1 88 8138
8.1943598 -1.3966309 2.406991 30 3029480 221 2 56 8654
7.840342 -1.0342106 2.2090669 26 3029480 172 3 49 8211
6.6579146 -1.6572201 1.8534415 69 3029480 350 4 72 7107
7.6325221 -1.6013913 2.0237098 54 3029480 348 5 46 8057
2.4543526 -0.41928494 0.62025017 104 3029480 69 6 104 2566
2.3456933 -0.31183389 0.56566006 283 3029480 168 7 72 2433
2.3915553 -0.59479398 0.56791198 219 3029480 140 8 89 2529
2.2932398 -0.48022899 0.51539546 247 3029480 142 9 84 2399
2.2504172 -0.38569921 0.47932115 250 3029480 136 10 62 2333
2.2178342 -0.29680631 0.44793022 253 3029480 132 11 47 2282
2.1911569 -0.54458815 0.43319368 273 3029480 144 12 86 2299
2.1772223 -0.45680636 0.40392241 260 3029480 133 13 52 2261
2.0972047 -0.35985458 0.36540279 231 3029480 108 14 109 2159
2.114157 -0.28345734 0.34628507 260 3029480 122 15 76 2161
2.0640917 -0.51304579 0.32774079 286 3029480 132 16 35 2152
2.0166547 -0.42359519 0.29731309 259 3029480 112 17 81 2082
2.0178456 -0.34736156 0.27567196 224 3029480 96 18 70 2066
2.0248053 -0.27273667 0.25545827 231 3029480 98 19 84 2059
1.9538418 -0.48567855 0.2352618 251 3029480 103 20 78 2027
1.9305218 -0.40581974 0.21130995 227 3029480 89 21 85 1984
1.9154502 -0.33066422 0.18952775 223 3029480 85 22 82 1953
1.9397451 -0.26234785 0.17259344 220 3029480 85 23 103 1965
1.8650016 -0.46397513 0.1538856 242 3029480 90 24 31 1928
1.87125 -0.39387164 0.13482456 237 3029480 87 25 53 1917
1.8629273 -0.32166412 0.115197 254 3029480 91 26 116 1894
1.8317262 -0.2488454 0.095163941 172 3029480 59 27 110 1851
1.7856108 -0.44515106 0.079993613 252 3029480 85 28 48 1842
1.812094 -0.38208073 0.062761784 190 3029480 65 29 29 1853
1.8014884 -0.31280449 0.045101319 191 3029480 64 30 57 1829
1.7615319 -0.23996687 0.026562367 216 3029480 68 31 87 1778
1.7930516 -0.44710577 0.012901369 173 3029480 59 32 72 1848
1.7591759 -0.37159643 -0.0045502433 204 3029480 66 33 43 1798
1.732908 -0.30111453 -0.020998536 166 3029480 51 34 97 1759
1.6799443 -0.22995758 -0.036376577 189 3029480 54 35 68 1696
1.6999609 -0.42477569 -0.052035511 175 3029480 54 36 99 1753
1.7184643 -0.36431289 -0.068712167 220 3029480 68 37 30 1758
1.7534876 -0.30544722 -0.086646453 231 3029480 73 38 108 1782
1.718052 -0.23514339 -0.10086642 208 3029480 63 39 69 1737
1.5863086 -0.39770088 -0.10853729 169 3029480 46 40 63 1639
1.6015549 -0.34028772 -0.12405812 83 3029480 22 41 83 1642
1.5901047 -0.27744442 -0.137812 239 3029480 63 42 161 1620
1.6677639 -0.22917995 -0.15975419 167 3029480 48 43 53 1691
1.5851146 -0.39798966 -0.16871701 200 3029480 54 44 71 1643
1.823344 -0.38817704 -0.21002677 253 3029480 89 45 45 1876
1.8029778 -0.31555977 -0.2236729 259 3029480 88 46 125 1844
1.8650681 -0.25675735 -0.24859215 250 3029480 90 47 127 1899
1.8514204 -0.46650276 -0.26795921 280 3029480 104 48 53 1928
1.905313 -0.40649676 -0.29230669 268 3029480 104 49 26 1970
1.9208683 -0.33722982 -0.31171548 281 3029480 110 50 80 1975
1.9367038 -0.26717028 -0.33179438 255 3029480 100 51 83 1983
1.9728109 -0.49895746 -0.36269614 218 3029480 93 52 88 2067
5.8057723 -1.2417288 -1.1157062 449 3029480 1639 53 103 6041
5.8443336 -1.0279306 -1.1736809 452 3029480 1654 54 103 6049
5.8829746 -0.81145781 -1.2363275 480 3029480 1767 55 78 6066
6.8470955 -1.7358164 -1.5323874 230 3029480 1201 56 117 7228
7.8106952 -1.6748155 -1.8112184 149 3029480 1001 57 89 8191
9.156703 -1.612339 -2.2029939 84 3029480 771 58 61 9555
10.634339 -1.4677746 -2.6566823 425 3029480 5200 59 92 11059
6.769424 -1.724553 -1.7926981 188 3029480 981 60 58 7212
7.7900105 -1.6772076 -2.125025 118 3029480 800 61 47 8247
8.8619175 -1.5621865 -2.4948437 76 3029480 666 62 65 9338
10.250521 -1.4104239 -2.9847763 227 3029480 2634 63 101 10769
5.7954893 -1.4835012 1.8673031 119 3127520 469 0 70 6267
7.416904 -1.6003397 2.2773972 58 3127520 366 1 76 7922
8.6510096 -1.529143 2.5438342 50 3127520 416 2 37 9146
7.9254389 -1.0949522 2.2348945 28 3127520 191 3 42 8307
6.557826 -1.6751043 1.8284055 166 3127520 818 4 75 7011
7.4749646 -1.6162812 1.9845266 63 3127520 391 5 45 7901
2.4975963 -0.44246143 0.63185263 36 3127520 25 6 128 2614
2.3321762 -0.32461193 0.56287009 320 3127520 188 7 61 2421
2.3765306 -0.60656524 0.56521732 254 3127520 161 8 103 2517
2.3017061 -0.49676347 0.51797348 265 3127520 154 9 88 2411
2.2480083 -0.39950025 0.47932115 254 3127520 138 10 52 2333
2.2043188 -0.30877683 0.44557479 284 3127520 146 11 49 2270
2.2562907 -0.57549876 0.44676042 258 3127520 145 12 115 2371
2.1743782 -0.47015694 0.40392241 281 3127520 144 13 76 2261
2.083313 -0.37064442 0.36337182 241 3127520 111 14 86 2147
2.0654581 -0.28984007 0.33859345 293 3127520 131 15 81 2113
2.095381 -0.53449541 0.33322343 270 3127520 129 16 39 2188
2.0256259 -0.43847394 0.29902673 265 3127520 116 17 90 2094
2.0390918 -0.36391526 0.27887437 243 3127520 106 18 83 2090
2.0348847 -0.28681743 0.2569471 225 3127520 97 19 94 2071
1.9277267 -0.49176556 0.23247623 227 3127520 91 20 81 2003
1.9746405 -0.42776218 0.21642229 247 3127520 102 21 89 2032
1.9721682 -0.35293049 0.19535041 226 3127520 92 22 82 2013
1.9380988 -0.27424496 0.17259344 225 3127520 87 23 120 1965
1.9084793 -0.48724577 0.15771678 236 3127520 92 24 30 1976
1.8570998 -0.40280864 0.1339806 217 3127520 79 25 56 1905
1.8844993 -0.33730957 0.11665674 235 3127520 86 26 128 1918
1.8420298 -0.26176608 0.095780887 185 3127520 64 27 111 1863
1.806075 -0.46204162 0.081035875 259 3127520 90 28 24 1866
1.8214352 -0.39573866 0.063168228 190 3127520 66 29 30 1865
1.8113419 -0.32597712 0.045397226 176 3127520 60 30 39 1841
1.7719051 -0.2524634 0.026741639 189 3127520 60 31 46 1790
1.7670243 -0.45214999 0.01273382 192 3127520 64 32 52 1824
1.7099609 -0.37217531 -0.0044287685 197 3127520 60 33 61 1750
1.7074095 -0.30748835 -0.020712029 189 3127520 57 34 81 1735
1.6666255 -0.23856124 -0.036119197 225 3127520 64 35 75 1684
1.6973226 -0.43519849 -0.052035511 180 3127520 55 36 105 1753
1.7279111 -0.37740901 -0.069181189 219 3127520 69 37 39 1770
1.7161949 -0.30981275 -0.084896013 231 3127520 70 38 118 1746
1.7165769 -0.24568073 -0.10086642 221 3127520 67 39 72 1737
1.6186268 -0.41637576 -0.11092128 135 3127520 38 40 78 1675
1.6111257 -0.35266691 -0.12496475 95 3127520 26 41 78 1654
1.6119038 -0.29145062 -0.13985366 202 3127520 54 42 155 1644
1.6190267 -0.2326131 -0.15521948 140 3127520 38 43 44 1643
1.5710834 -0.40473044 -0.16748473 205 3127520 55 44 87 1631
1.8209279 -0.39935756 -0.21002677 248 3127520 87 45 40 1876
1.824448 -0.33086765 -0.22658403 252 3127520 88 46 125 1868
1.8399068 -0.26480684 -0.24545039 253 3127520 89 47 136 1875
1.8255124 -0.47190565 -0.26462361 261 3127520 94 48 54 1904
1.9027829 -0.4181799 -0.29230669 235 3127520 91 49 47 1970
1.9304212 -0.35113025 -0.31360945 262 3127520 104 50 79 1987
1.8764796 -0.27060542 -0.32175523 258 3127520 96 51 86 1923
1.9354066 -0.5021522 -0.35637924 216 3127520 89 52 75 2031
5.8210788 -1.2824036 -1.1201386 469 3127520 1725 53 125 6065
5.8726606 -1.0701023 -1.180666 465 3127520 1722 54 100 6085
5.8778849 -0.84753978 -1.2363275 483 3127520 1778 55 84 6066
6.6433706 -1.727621 -1.489138 201 3127520 990 56 144 7024
7.6060033 -1.6798049 -1.7661093 141 3127520 902 57 75 7987
8.8939209 -1.6223935 -2.1421261 91 3127520 790 58 59 9291
9.4491529 -1.3633271 -2.3626428 61 3127520 591 59 99 9835
6.6012735 -1.7249174 -1.7509381 195 3127520 966 60 47 7044
7.6097746 -1.6873251 -2.078644 126 3127520 817 61 48 8067
8.135498 -1.4856591 -2.2928627 32 3127520 239 62 62 8582
8.2330923 -1.1843534 -2.3994067 19 3127520 139 63 49 8657
5.6422439 -1.4812214 1.8208216 226 3225090 845 0 93 6111
7.2723069 -1.6159024 2.2360003 46 3225090 278 1 117 7778
8.5734348 -1.5697402 2.5238082 81 3225090 664 2 43 9074
7.9872046 -1.153473 2.2542653 25 3225090 173 3 44 8379
6.4017396 -1.6771439 1.7877221 188 3225090 885 4 83 6855
7.2494907 -1.6141523 1.927259 56 3225090 328 5 39 7673
7.6372094 -1.4013543 1.934233 25 3225090 160 6 110 8002
2.3416901 -0.34059569 0.56566006 277 3225090 164 7 63 2433
2.3840764 -0.62409723 0.56791198 254 3225090 163 8 74 2529
2.321496 -0.5159626 0.52312958 251 3225090 149 9 59 2435
2.2570643 -0.41541201 0.48178655 242 3225090 133 10 60 2345
2.214025 -0.32400018 0.44793022 277 3225090 144 11 56 2282
2.218513 -0.58038414 0.43997705 266 3225090 145 12 115 2335
2.1599276 -0.48092374 0.40177861 256 3225090 130 13 79 2249
2.1275241 -0.39199245 0.37149563 255 3225090 123 14 93 2195
2.0753603 -0.30422598 0.34051633 278 3225090 125 15 43 2125
2.1150095 -0.5533461 0.33687851 245 3225090 120 16 29 2212
2.0576749 -0.45864645 0.3041676 247 3225090 112 17 101 2130
2.0134311 -0.37209749 0.27567196 252 3225090 108 18 67 2066
2.021306 -0.29756361 0.25545827 220 3225090 93 19 74 2059
1.9938575 -0.52168649 0.24083285 239 3225090 103 20 57 2075
1.9486877 -0.43467501 0.21386613 245 3225090 99 21 78 2008
1.9699655 -0.36502483 0.19535041 240 3225090 97 22 73 2013
1.9363796 -0.28613174 0.17259344 221 3225090 85 23 111 1965
1.9170252 -0.50197685 0.15867457 221 3225090 87 24 40 1988
1.8429109 -0.41158691 0.13313663 221 3225090 79 25 66 1893
1.8470625 -0.34231821 0.11446714 224 3225090 79 26 121 1882
1.8522434 -0.2748225 0.096397839 196 3225090 69 27 90 1875
1.7800137 -0.46702972 0.079993613 246 3225090 83 28 13 1842
1.7838612 -0.39905283 0.061948895 186 3225090 62 29 11 1829
1.7975142 -0.33488798 0.045101319 162 3225090 54 30 43 1829
1.7584546 -0.26156551 0.026562367 216 3225090 68 31 85 1778
1.7177899 -0.45079994 0.012398719 199 3225090 63 32 45 1776
1.7779025 -0.39840415 -0.0046109809 223 3225090 74 33 40 1822
1.7644701 -0.32895473 -0.021428294 183 3225090 59 34 85 1795
1.7007267 -0.25410137 -0.036891337 181 3225090 54 35 66 1720
1.7062206 -0.44865519 -0.052391715 193 3225090 60 36 105 1765
1.7138641 -0.38537365 -0.068712167 224 3225090 69 37 38 1758
1.7378254 -0.32474059 -0.086062975 185 3225090 58 38 100 1770
1.6913406 -0.2526688 -0.099472761 215 3225090 63 39 74 1713
1.6160415 -0.42629963 -0.11092128 139 3225090 39 40 77 1675
1.6206045 -0.36517629 -0.12587139 61 3225090 17 41 94 1666
1.6100851 -0.3013356 -0.13985366 238 3225090 64 42 148 1644
1.5939404 -0.23899995 -0.15295212 159 3225090 42 43 57 1619
1.5801113 -0.41741151 -0.16871701 198 3225090 54 44 70 1643
1.8300751 -0.413149 -0.21137023 241 3225090 86 45 46 1888
1.8223834 -0.34205604 -0.22658403 235 3225090 82 46 118 1868
1.8735417 -0.28139225 -0.25016305 221 3225090 81 47 142 1911
1.8800169 -0.49832159 -0.2729626 260 3225090 100 48 74 1964
1.8886064 -0.4272289 -0.29052612 249 3225090 95 49 34 1958
1.9398755 -0.36516052 -0.31550342 288 3225090 115 50 72 1999
1.8981822 -0.28563514 -0.32577091 282 3225090 107 51 78 1947
1.9665393 -0.52312934 -0.36269614 218 3225090 93 52 81 2067
