# .PCD v0.7 - Point Cloud Data file format
VERSION 0.7
FIELDS x y z intensity t reflectivity ring noise range
SIZE 4 4 4 4 4 2 1 2 4
TYPE F F F F U U U U U
COUNT 1 1 1 1 1 1 1 1 1
WIDTH 765
HEIGHT 1
VIEWPOINT 0 0 0 1 0 0 0
POINTS 765
DATA ascii
0.054228768 -1.4151964 0.38258037 439 23505740 94 4 9 1467
0.10716802 -1.4178624 0.36897478 428 23505740 92 5 1 1469
0.16529468 -1.4558697 0.36499521 406 23505740 93 6 73 1510
0.21421586 -1.4165305 0.34246495 445 23505740 97 7 60 1473
0.055237215 -1.4343169 0.33077675 393 23505740 85 8 18 1473
0.10823753 -1.4247332 0.31430742 378 23505740 81 9 1 1463
0.15877543 -1.4052324 0.29687914 420 23505740 88 10 64 1445
0.22244605 -1.4796864 0.29953614 149 23505740 35 11 33 1526
0.052633129 -1.3611377 0.26134828 415 23505740 80 12 75 1387
0.10448689 -1.3823905 0.25171456 419 23505740 83 13 19 1409
0.16293827 -1.4445611 0.24963829 162 23505740 35 14 79 1475
0.2234173 -1.4886212 0.24437056 173 23505740 40 15 55 1525
0.055119846 -1.426091 0.21991527 433 23505740 90 16 1 1444
0.10932811 -1.450821 0.20991847 204 23505740 44 17 56 1470
0.17002352 -1.5147347 0.20521949 138 23505740 33 18 82 1538
0.22103904 -1.4789295 0.18697213 297 23505740 68 19 75 1507
0.054256514 -1.4043895 0.1642306 415 23505740 83 20 48 1415
0.10945381 -1.4555404 0.15635233 412 23505740 89 21 37 1468
0.16682495 -1.4925836 0.14644003 206 23505740 47 22 80 1509
0.21610768 -1.4513055 0.12937921 315 23505740 68 23 137 1473
0.044876266 -1.1673987 0.093544573 232 23505740 32 24 65 1172
0.10800881 -1.4413708 0.10190965 417 23505740 88 25 71 1449
0.1607141 -1.4383647 0.088192001 412 23505740 87 26 141 1450
0.22019081 -1.4847741 0.077272505 369 23505740 83 27 90 1503
0.04478452 -1.1800354 0.051331405 278 23505740 39 28 60 1182
0.088681072 -1.1890131 0.040407345 254 23505740 36 29 28 1193
0.15773422 -1.4238541 0.035336353 367 23505740 75 30 47 1433
0.20923185 -1.414449 0.021363433 397 23505740 81 31 75 1430
0.045445561 -1.1991099 0.0083775129 239 23505740 34 32 77 1200
0.086889431 -1.1707765 -0.0029710708 293 23505740 40 33 82 1174
0.12878299 -1.1638129 -0.013979127 293 23505740 40 34 96 1171
0.20159335 -1.3689175 -0.029684659 365 23505740 70 35 81 1384
0.044429842 -1.1876453 -0.035293907 248 23505740 35 36 114 1189
0.088308908 -1.2018385 -0.047137015 312 23505740 45 37 57 1206
0.12804343 -1.1615802 -0.056889087 326 23505740 45 38 142 1170
0.19506836 -1.3244492 -0.077870972 358 23505740 64 39 87 1341
0.04363982 -1.1915781 -0.079134881 281 23505740 40 40 71 1195
0.084384322 -1.155602 -0.08779265 292 23505740 39 41 100 1162
0.13198034 -1.2003728 -0.10310379 264 23505740 39 42 173 1212
0.20623876 -1.4055675 -0.13481326 463 23505740 94 43 94 1427
0.047561225 -1.3111649 -0.13544597 427 23505740 74 44 73 1319
0.097882405 -1.3479007 -0.15225822 386 23505740 71 45 40 1360
0.15115413 -1.3814178 -0.16981673 386 23505740 76 46 119 1400
0.20216686 -1.3801643 -0.18418598 364 23505740 72 47 157 1407
0.047413655 -1.3380388 -0.187905 388 23505740 71 48 75 1352
0.10095534 -1.398665 -0.21040146 347 23505740 70 49 28 1418
0.14697799 -1.3497875 -0.21701711 453 23505740 86 50 127 1375
0.28110024 -1.9227753 -0.32978657 428 23505740 166 51 73 1971
0.044150088 -1.2780834 -0.2279353 354 23505740 60 52 69 1299
0.093934745 -1.3106377 -0.24692917 486 23505740 87 53 77 1337
0.20849009 -1.920296 -0.38204291 498 23505740 193 54 150 1969
0.2795932 -1.9122337 -0.40232614 447 23505740 174 55 95 1974
0.044744324 -1.3165973 -0.28578559 300 23505740 55 56 90 1348
0.13502619 -1.8979077 -0.43141097 470 23505740 179 57 60 1951
0.20538901 -1.895124 -0.45166561 453 23505740 174 58 90 1959
0.2771996 -1.8970194 -0.47445041 442 23505740 172 59 101 1975
0.062898912 -1.9168233 -0.4921717 479 23505740 188 60 25 1980
0.13355811 -1.899755 -0.50787246 442 23505740 172 61 17 1971
0.2054265 -1.8988731 -0.52953315 411 23505740 162 62 70 1982
0.28324145 -1.932708 -0.56347388 395 23505740 163 63 69 2033
0.047951367 -1.5141579 0.47285947 173 23602790 43 0 36 1587
0.097044453 -1.3892376 0.41799238 423 23602790 89 1 4 1454
0.1594471 -1.4802771 0.43111116 359 23602790 86 2 28 1550
0.2024363 -1.386655 0.39144957 411 23602790 87 3 34 1455
0.045916814 -1.4270812 0.38570985 429 23602790 94 4 1 1479
0.098466158 -1.4184934 0.36897478 415 23602790 90 5 1 1469
0.15387334 -1.4337012 0.35919395 404 23602790 89 6 88 1486
0.20384587 -1.4062678 0.33967504 444 23602790 95 7 58 1461
0.045678791 -1.411254 0.32538733 354 23602790 74 8 25 1449
0.099493496 -1.4253705 0.31430742 399 23602790 85 9 13 1463
0.15264395 -1.4295355 0.30181003 423 23602790 91 10 57 1469
0.21671832 -1.5043162 0.30424708 146 23602790 35 11 40 1550
0.045429666 -1.3967716 0.26813164 404 23602790 82 12 61 1423
0.097637989 -1.4065628 0.25600213 418 23602790 86 13 18 1433
0.15908539 -1.4925749 0.25776213 141 23602790 33 14 92 1523
0.21427909 -1.489964 0.24437056 146 23602790 34 15 37 1525
0.04559781 -1.4026948 0.21626016 456 23602790 92 16 1 1420
0.10370313 -1.4988594 0.21677297 140 23602790 32 17 52 1518
0.16198011 -1.5275759 0.20682068 146 23602790 35 18 91 1550
0.22208717 -1.5509803 0.1959051 151 23602790 38 19 97 1579
0.046412393 -1.4285212 0.16701613 387 23602790 80 20 13 1439
0.098877341 -1.4323778 0.15379617 439 23602790 91 21 37 1444
0.15766348 -1.4935791 0.14644003 133 23602790 30 22 83 1509
0.2055106 -1.4407704 0.12832521 256 23602790 55 23 135 1461
0.038098529 -1.1796075 0.09450236 225 23602790 32 24 69 1184
0.092592902 -1.3464698 0.095157869 359 23602790 66 25 51 1353
0.15314242 -1.4512354 0.088921867 433 23602790 92 26 131 1462
0.21107626 -1.4860972 0.077272505 318 23602790 72 27 97 1503
0.037161969 -1.1683054 0.050810274 280 23602790 38 28 61 1170
0.078927919 -1.1536394 0.039188009 263 23602790 35 29 38 1157
0.13651776 -1.3054823 0.032377273 328 23602790 57 30 65 1313
0.20391488 -1.4394662 0.02172198 398 23602790 84 31 72 1454
0.03732536 -1.1753788 0.0082099624 239 23602790 33 32 74 1176
0.079704046 -1.1712875 -0.0029710708 297 23602790 41 33 71 1174
0.12039302 -1.152647 -0.013835874 319 23602790 43 34 87 1159
0.18983993 -1.3463691 -0.029169895 300 23602790 56 35 76 1360
0.036017187 -1.151929 -0.034225293 238 23602790 32 36 125 1153
0.078516997 -1.1664665 -0.045729939 319 23602790 44 37 50 1170
0.1209137 -1.1623441 -0.056889087 320 23602790 44 38 114 1170
0.17690107 -1.2544469 -0.073689975 291 23602790 47 39 62 1269
0.03486843 -1.1439511 -0.07595624 262 23602790 35 40 75 1147
0.077292092 -1.156098 -0.08779265 289 23602790 39 41 103 1162
0.12214494 -1.1773747 -0.10106213 280 23602790 40 42 173 1188
0.19428697 -1.3831462 -0.1325459 449 23602790 88 43 76 1403
0.038796172 -1.2875698 -0.13298145 422 23602790 71 44 100 1295
0.088819325 -1.3365778 -0.15091476 405 23602790 74 45 34 1348
0.14145212 -1.3704706 -0.16836116 344 23602790 66 46 148 1388
0.19534649 -1.3931601 -0.18575685 421 23602790 85 47 146 1419
0.037810896 -1.2907907 -0.18123381 374 23602790 64 48 71 1304
0.089244574 -1.3518925 -0.20327927 358 23602790 67 49 34 1370
0.14111391 -1.3742391 -0.22080505 480 23602790 94 50 140 1399
0.26765746 -1.9127473 -0.32777873 452 23602790 174 51 83 1959
0.035971686 -1.2665213 -0.22582968 383 23602790 64 52 70 1287
0.087432861 -1.3347262 -0.25136173 346 23602790 64 53 48 1361
0.19550465 -1.9098283 -0.37971458 517 23602790 198 54 143 1957
0.26785469 -1.9139132 -0.40232614 436 23602790 170 55 84 1974
0.036664989 -1.3168472 -0.28578559 330 23602790 60 56 109 1348
0.12489603 -1.9220573 -0.43671793 476 23602790 186 57 37 1975
0.19494374 -1.9079647 -0.45443231 454 23602790 176 58 95 1971
0.26555449 -1.8986846 -0.47445041 432 23602790 169 59 94 1975
0.050516486 -1.8939346 -0.48620597 469 23602790 179 60 6 1956
0.12115677 -1.8889678 -0.50478041 420 23602790 161 61 38 1959
0.19259818 -1.8885938 -0.52632713 402 23602790 156 62 80 1970
0.26657176 -1.9001555 -0.553496 371 23602790 148 63 65 1997
0.038075119 -1.4915211 0.46570846 181 23700840 44 0 47 1563
0.091440625 -1.4356877 0.43179128 449 23700840 101 1 29 1502
0.14803311 -1.4582924 0.42443588 390 23700840 91 2 62 1526
0.19712289 -1.4107637 0.39790648 397 23700840 87 3 27 1479
0.03625505 -1.3925936 0.37632138 443 23700840 92 4 42 1443
0.090493828 -1.4306629 0.37198886 446 23700840 98 5 1 1481
0.14858799 -1.4693735 0.36789584 445 23700840 103 6 80 1522
0.19200654 -1.384371 0.33409515 438 23700840 91 7 66 1437
0.036712065 -1.3998182 0.32269257 416 23700840 86 8 20 1437
0.089257061 -1.4025618 0.30915132 391 23700840 81 9 22 1439
0.14386961 -1.4304452 0.30181003 430 23700840 93 10 49 1469
0.20748393 -1.5056176 0.30424708 146 23700840 35 11 31 1550
0.037169203 -1.4088049 0.27039275 402 23700840 83 12 38 1435
0.089750975 -1.4189188 0.2581459 387 23700840 81 13 29 1445
0.1511054 -1.5052906 0.25979307 131 23700840 31 14 89 1535
0.20997527 -1.5264541 0.25013933 123 23700840 30 15 59 1561
0.036677584 -1.3910923 0.21443263 438 23700840 87 16 1 1408
0.094504356 -1.4994675 0.21677297 194 23700840 45 17 83 1518
0.14787823 -1.4812055 0.20041592 124 23700840 28 18 66 1502
0.20610455 -1.5051249 0.18994978 146 23700840 34 19 76 1531
0.036704473 -1.3930348 0.16283783 364 23700840 72 20 21 1403
0.089337923 -1.4210492 0.15251808 405 23700840 83 21 10 1432
0.14495344 -1.458864 0.14294642 120 23700840 26 22 93 1473
0.20312765 -1.4893801 0.13254122 203 23700840 46 23 134 1509
0.031172648 -1.1917768 0.095460162 237 23700840 34 24 47 1196
0.083581448 -1.3350656 0.094313897 315 23700840 57 25 61 1341
0.14660268 -1.4759861 0.0903816 394 23700840 87 26 132 1486
0.19872896 -1.4636141 0.076038614 228 23700840 50 27 121 1479
0.030915536 -1.2044656 0.05237367 256 23700840 37 28 47 1206
0.073338196 -1.1780419 0.040000901 260 23700840 36 29 21 1181
0.12263263 -1.2466016 0.030897731 255 23700840 40 30 52 1253
0.18863861 -1.3931297 0.021004885 420 23700840 83 31 88 1406
0.030727215 -1.1995773 0.0083775129 241 23700840 35 32 99 1200
0.071774445 -1.1597775 -0.0029407023 279 23700840 38 33 73 1162
0.11683806 -1.189189 -0.014265634 311 23700840 44 34 69 1195
0.15433891 -1.1453824 -0.024794411 241 23700840 32 35 82 1156
0.029852262 -1.1881011 -0.035293907 206 23700840 29 36 125 1189
0.070626341 -1.1549579 -0.045260917 330 23700840 44 37 66 1158
0.11844728 -1.2107795 -0.059222996 318 23700840 47 38 143 1218
0.15320055 -1.1367844 -0.066721655 263 23700840 35 39 88 1149
0.028139977 -1.1561135 -0.076750904 262 23700840 35 40 77 1159
0.070196956 -1.1565504 -0.08779265 295 23700840 40 41 87 1162
0.11027524 -1.130502 -0.096978813 277 23700840 36 42 146 1140
0.18102908 -1.3487918 -0.12914488 475 23700840 89 43 94 1367
0.032040205 -1.3355161 -0.13791049 400 23700840 72 44 70 1343
0.081334218 -1.3490005 -0.15225822 379 23700840 70 45 63 1360
0.13074 -1.3476014 -0.16545002 352 23700840 65 46 140 1364
0.18205558 -1.3589584 -0.18104421 441 23700840 84 47 154 1383
0.030990291 -1.3385199 -0.187905 376 23700840 69 48 59 1352
0.081656866 -1.3642606 -0.20505981 358 23700840 68 49 28 1382
0.13154101 -1.3632843 -0.21891108 478 23700840 92 50 110 1387
0.2543484 -1.9026271 -0.32577091 450 23700840 171 51 91 1947
0.027936844 -1.2549073 -0.22372404 389 23700840 63 52 79 1275
0.078542814 -1.3234648 -0.24914546 353 23700840 64 53 61 1349
0.18152863 -1.8875562 -0.37505788 527 23700840 197 54 151 1933
0.25299233 -1.8922317 -0.39743462 479 23700840 182 55 92 1950
0.0278209 -1.2818739 -0.27815333 355 23700840 61 56 90 1312
0.11172577 -1.8994218 -0.43141097 464 23700840 177 57 58 1951
0.18211745 -1.8975017 -0.45166561 491 23700840 188 58 100 1959
0.25852743 -1.9349163 -0.48309863 420 23700840 170 59 99 2011
0.039133187 -1.9058298 -0.48918882 476 23700840 184 60 5 1968
0.10956399 -1.8896756 -0.50478041 436 23700840 167 61 31 1959
0.18210892 -1.901251 -0.52953315 426 23700840 168 62 61 1982
0.25797111 -1.9246109 -0.56014794 403 23700840 165 63 65 2021
0.030032873 -1.5489906 0.48358592 175 23797400 46 0 25 1623
0.080649212 -1.4017984 0.42144209 417 23797400 90 1 27 1466
0.1390824 -1.4591732 0.42443588 392 23797400 91 2 40 1526
0.18846288 -1.4119467 0.39790648 407 23797400 89 3 37 1479
0.027940007 -1.4043723 0.37945086 426 23797400 90 4 20 1455
0.081713744 -1.4311912 0.37198886 431 23797400 94 5 1 1481
0.13516763 -1.4238894 0.35629335 405 23797400 88 6 91 1474
0.18810588 -1.4202335 0.34246495 441 23797400 96 7 67 1473
0.028357094 -1.4117084 0.32538733 420 23797400 88 8 17 1449
0.08266706 -1.4381845 0.31688547 397 23797400 86 9 1 1475
0.1372969 -1.4546851 0.30674085 412 23797400 92 10 50 1493
0.19517218 -1.4835303 0.29953614 215 23797400 50 11 44 1526
0.028524239 -1.4090065 0.27039275 397 23797400 82 12 69 1435
0.08306203 -1.4548061 0.26457721 412 23797400 90 13 1 1481
0.14075723 -1.4944148 0.25776213 183 23797400 42 14 111 1523
0.20368943 -1.5512019 0.25398514 204 23797400 51 15 60 1585
0.028141312 -1.3912911 0.21443263 458 23797400 91 16 1 1408
0.08597634 -1.5118769 0.21848658 232 23797400 54 17 60 1530
0.1421134 -1.5176077 0.20521949 172 23797400 41 18 64 1538
0.19377933 -1.4827476 0.18697213 225 23797400 51 19 84 1507
0.027433809 -1.3574843 0.15865953 270 23797400 50 20 55 1367
0.081292413 -1.4334834 0.15379617 401 23797400 84 21 22 1444
0.13821517 -1.4835097 0.1452755 189 23797400 42 22 98 1497
0.19398516 -1.4905984 0.13254122 252 23797400 57 23 143 1509
0.024098849 -1.2039049 0.096417956 230 23797400 34 24 60 1208
0.067967318 -1.2040895 0.085030206 270 23797400 40 25 63 1209
0.135322 -1.4530054 0.088921867 409 23797400 87 26 131 1462
0.18974465 -1.464806 0.076038614 267 23797400 58 27 96 1479
0.022354117 -1.1447006 0.049768012 272 23797400 36 28 47 1146
0.066108488 -1.1784697 0.040000901 293 23797400 41 29 38 1181
0.11057661 -1.1995478 0.0297141 259 23797400 38 30 39 1205
0.18469803 -1.4299604 0.021542706 407 23797400 85 31 62 1442
0.022197861 -1.1397562 0.0079586376 217 23797400 28 32 92 1140
0.063989118 -1.1482148 -0.0029103337 305 23797400 40 33 64 1150
0.10513923 -1.142089 -0.013692621 303 23797400 40 34 72 1147
0.14730807 -1.1463078 -0.024794411 277 23797400 37 35 84 1156
0.021423129 -1.1282992 -0.033512887 241 23797400 31 36 143 1129
0.06353832 -1.1553694 -0.045260917 330 23797400 44 37 65 1158
0.10773459 -1.1756761 -0.057472561 316 23797400 44 38 115 1182
0.15080388 -1.1733491 -0.068812154 254 23797400 36 39 60 1185
0.022135176 -1.2161229 -0.080724202 262 23797400 39 40 83 1219
0.065705679 -1.2047511 -0.091419198 279 23797400 41 41 90 1210
0.10986304 -1.2025987 -0.10310379 307 23797400 45 42 142 1212
0.1742661 -1.3617269 -0.13027854 426 23797400 81 43 72 1379
0.024058091 -1.3476222 -0.13914275 466 23797400 86 44 55 1355
0.072410777 -1.337567 -0.15091476 429 23797400 78 45 22 1348
0.12354626 -1.3602408 -0.16690558 422 23797400 80 46 159 1376
0.17522103 -1.3718508 -0.1826151 428 23797400 83 47 159 1395
0.022574542 -1.326803 -0.1862372 409 23797400 73 48 48 1340
0.071375385 -1.3291856 -0.19971818 370 23797400 67 49 35 1346
0.12210792 -1.3522643 -0.21701711 396 23797400 75 50 115 1375
0.24266931 -1.9041519 -0.32577091 502 23797400 190 51 92 1947
0.020236352 -1.2550551 -0.22372404 376 23797400 61 52 77 1275
0.06854143 -1.2885909 -0.24249665 387 23797400 67 53 63 1313
0.16783337 -1.8651853 -0.37040117 544 23797400 198 54 147 1909
0.24286246 -1.9054023 -0.39988041 462 23797400 178 55 78 1962
0.019772431 -1.2702948 -0.27560925 362 23797400 61 56 101 1300
0.098222546 -1.8650113 -0.42345053 451 23797400 165 57 32 1915
0.17255963 -1.9218432 -0.45719904 450 23797400 177 58 80 1983
0.24076289 -1.8902451 -0.47156766 457 23797400 176 59 77 1963
0.026936574 -1.8711675 -0.48024026 451 23797400 168 60 1 1932
0.09916731 -1.9134707 -0.51096451 446 23797400 175 61 26 1983
0.17043965 -1.9023327 -0.52953315 394 23797400 155 62 74 1982
0.24323386 -1.9032837 -0.553496 384 23797400 153 63 66 1997
0.020224325 -1.5262378 0.47643495 169 23895590 43 0 45 1599
0.073225901 -1.4252235 0.42834157 412 23895590 91 1 32 1490
0.13114975 -1.4714801 0.42777354 389 23895590 92 2 45 1538
0.18417217 -1.4474719 0.40759182 415 23895590 95 3 33 1515
0.019481776 -1.416101 0.38258037 411 23895590 88 4 17 1467
0.072339654 -1.4200654 0.36897478 443 23895590 96 5 1 1469
0.12745753 -1.4362905 0.35919395 400 23895590 88 6 96 1486
0.17646514 -1.3982023 0.33688509 428 23895590 90 7 65 1449
0.019694481 -1.4118557 0.32538733 422 23895590 89 8 18 1449
0.072038747 -1.4035516 0.30915132 367 23895590 76 9 15 1439
0.12733677 -1.4438015 0.30427542 412 23895590 90 10 55 1481
0.18460257 -1.4730247 0.29718068 276 23895590 63 11 40 1514
0.019545741 -1.3855872 0.26587051 419 23895590 84 12 67 1411
0.072331905 -1.4199134 0.2581459 393 23895590 82 13 12 1445
0.12743789 -1.4481248 0.24963829 310 23895590 67 14 105 1475
0.17358705 -1.3878756 0.22706431 320 23895590 64 15 61 1417
0.01977106 -1.4032965 0.21626016 404 23895590 82 16 1 1420
0.07429181 -1.464929 0.2116321 370 23895590 81 17 35 1482
0.13279885 -1.5184511 0.20521949 188 23895590 45 18 77 1538
0.18026604 -1.4484602 0.18250564 328 23895590 71 19 74 1471
0.017594617 -1.2503676 0.14612462 242 23895590 38 20 76 1259
0.072495192 -1.4339552 0.15379617 450 23895590 94 21 44 1444
0.13014486 -1.4962282 0.14644003 285 23895590 65 22 87 1509
0.17895591 -1.4443091 0.12832521 340 23895590 73 23 168 1461
0.016711373 -1.20403 0.096417956 209 23895590 31 24 69 1208
0.06117915 -1.216439 0.085874178 308 23895590 46 25 64 1221
0.12640399 -1.4538084 0.088921867 379 23895590 81 26 137 1462
0.1807532 -1.4659426 0.076038614 346 23895590 76 27 102 1479
0.015329946 -1.1448163 0.049768012 268 23895590 35 28 56 1146
0.05827805 -1.1668749 0.039594453 280 23895590 38 29 22 1169
0.10115853 -1.1762993 0.029122286 289 23895590 40 30 54 1181
0.16860063 -1.3715217 0.020646339 395 23895590 76 31 80 1382
0.015684156 -1.1758667 0.0082099624 230 23895590 32 32 73 1176
0.058725152 -1.1845415 -0.0030014399 288 23895590 41 33 70 1186
0.10736928 -1.250309 -0.014981901 307 23895590 48 34 92 1255
0.14172781 -1.1590987 -0.025051793 297 23895590 41 35 70 1168
0.014807841 -1.1523968 -0.034225293 241 23895590 32 36 122 1153
0.056447912 -1.1557375 -0.045260917 317 23895590 43 37 60 1158
0.10051875 -1.1763149 -0.057472561 362 23895590 51 38 130 1182
0.14650989 -1.1980348 -0.070205823 300 23895590 44 39 90 1209
0.013950566 -1.1563718 -0.076750904 254 23895590 34 40 82 1159
0.057155624 -1.1812283 -0.089605927 240 23895590 34 41 98 1186
0.10045263 -1.1794236 -0.10106213 313 23895590 44 42 162 1188
0.16879487 -1.3864881 -0.1325459 482 23895590 95 43 96 1403
0.015369302 -1.3119372 -0.13544597 521 23895590 91 44 55 1319
0.065345325 -1.3618079 -0.15360168 412 23895590 77 45 52 1372
0.11519765 -1.3609732 -0.16690558 375 23895590 71 46 133 1376
0.1668002 -1.3729001 -0.1826151 427 23895590 83 47 151 1395
0.014174506 -1.3031509 -0.18290162 375 23895590 65 48 59 1316
0.062654704 -1.3177449 -0.19793762 399 23895590 71 49 46 1334
0.11082858 -1.3175644 -0.21133521 343 23895590 62 50 106 1339
0.2309811 -1.9056051 -0.32577091 490 23895590 186 51 96 1947
0.012771052 -1.278782 -0.2279353 385 23895590 65 52 58 1299
0.061741795 -1.3125483 -0.24692917 375 23895590 67 53 65 1337
0.1524535 -1.8192567 -0.3610878 537 23895590 186 54 147 1861
0.23116657 -1.9068567 -0.39988041 479 23895590 184 55 84 1962
0.012198803 -1.2938457 -0.28069744 361 23895590 63 56 115 1324
0.085689656 -1.8421983 -0.41814357 415 23895590 148 57 47 1891
0.15784563 -1.8879577 -0.44889891 470 23895590 178 58 88 1947
0.22916004 -1.8916868 -0.47156766 456 23895590 176 59 101 1963
0.014302889 -1.731822 -0.44444597 283 23895590 90 60 45 1788
0.086366519 -1.8908778 -0.50478041 467 23895590 179 61 11 1959
0.15876395 -1.9033426 -0.52953315 432 23895590 170 62 84 1982
0.23155096 -1.9047403 -0.553496 392 23895590 156 63 68 1997
0.010451654 -1.4690598 0.45855746 168 23991800 40 0 58 1539
0.062402323 -1.379719 0.41454262 370 23991800 77 1 43 1442
0.12497688 -1.5067184 0.43778646 366 23991800 91 2 68 1574
0.17251034 -1.4256269 0.40113491 401 23991800 89 3 18 1491
0.010439252 -1.3698561 0.37006238 376 23991800 76 4 28 1419
0.064144671 -1.4320862 0.37198886 418 23991800 92 5 1 1481
0.11864221 -1.4370456 0.35919395 389 23991800 86 6 78 1486
0.16927293 -1.4108468 0.33967504 439 23991800 94 7 60 1461
0.011122481 -1.4236431 0.32808203 430 23991800 92 8 8 1461
0.062896453 -1.3922594 0.30657327 388 23991800 79 9 1 1427
0.11559549 -1.4094416 0.29687914 414 23991800 86 10 24 1445
0.16582029 -1.3923417 0.28069246 375 23991800 77 11 38 1430
0.011419256 -1.4328198 0.27491501 421 23991800 90 12 32 1459
0.064146437 -1.4321256 0.26028964 406 23991800 86 13 17 1457
0.11854996 -1.4488795 0.24963829 393 23991800 85 14 112 1475
0.16786374 -1.4124389 0.23091015 316 23991800 66 15 66 1441
0.011065912 -1.3915317 0.21443263 452 23991800 90 16 1 1408
0.064244255 -1.4416267 0.20820487 400 23991800 85 17 40 1458
0.12058903 -1.4836766 0.20041592 223 23991800 50 18 74 1502
0.17417112 -1.473189 0.18548331 349 23991800 78 19 69 1495
0.0099221738 -1.250452 0.14612462 262 23991800 41 20 53 1259
0.065283209 -1.4701329 0.15763041 456 23991800 100 21 1 1480
0.11711404 -1.4493804 0.1417819 411 23991800 88 22 89 1461
0.17288452 -1.4691232 0.13043322 384 23991800 85 23 134 1485
0.0092306538 -1.1921487 0.095460162 246 23991800 35 24 66 1196
0.053186167 -1.2048329 0.085030206 288 23991800 42 25 64 1209
0.11362409 -1.4068011 0.086002409 366 23991800 73 26 132 1414
0.17175494 -1.4670241 0.076038614 406 23991800 89 27 101 1479
0.0084791277 -1.1688656 0.050810274 271 23991800 37 28 49 1170
0.052691326 -1.2031554 0.040813789 250 23991800 36 29 33 1205
0.094893485 -1.1888561 0.029418193 297 23991800 42 30 38 1193
0.15740022 -1.3486948 0.020287791 387 23991800 71 31 62 1358
0.0080367932 -1.1159439 0.007791087 239 23991800 30 32 88 1116
0.049373306 -1.1369249 -0.0028799647 298 23991800 39 33 71 1138
0.095882446 -1.2030994 -0.014408886 345 23991800 50 34 73 1207
0.13184701 -1.136112 -0.024537031 306 23991800 40 35 74 1144
0.0075755501 -1.1284771 -0.033512887 257 23991800 33 36 165 1129
0.049866829 -1.1680421 -0.045729939 325 23991800 45 37 60 1170
0.091404736 -1.1530131 -0.05630561 312 23991800 42 38 146 1158
0.13777491 -1.1870112 -0.069508985 333 23991800 48 39 86 1197
0.0067129903 -1.1324888 -0.075161584 261 23991800 34 40 89 1135
0.051926497 -1.2293769 -0.093232475 259 23991800 39 41 85 1234
0.096038595 -1.2157758 -0.10412462 299 23991800 45 42 140 1224
0.15617158 -1.3518955 -0.12914488 399 23991800 75 43 85 1367
0.007319117 -1.3120068 -0.13544597 457 23991800 80 44 75 1319
0.055991318 -1.3383549 -0.15091476 431 23991800 78 45 29 1348
0.10591292 -1.3497796 -0.16545002 376 23991800 70 46 158 1364
0.1556484 -1.3502607 -0.17947333 477 23991800 90 47 169 1371
0.0061219186 -1.2913299 -0.18123381 413 23991800 70 48 49 1304
0.055058856 -1.3299614 -0.19971818 363 23991800 66 49 28 1346
0.10366283 -1.3300333 -0.21322918 403 23991800 74 50 128 1351
0.21117505 -1.8364661 -0.31372389 492 23991800 173 51 109 1875
0.0049243532 -1.2788364 -0.2279353 360 23991800 61 52 89 1299
0.052723277 -1.289335 -0.24249665 404 23991800 70 53 57 1313
0.13217743 -1.7027915 -0.33780432 394 23991800 119 54 147 1741
0.21946196 -1.9082391 -0.39988041 489 23991800 188 55 79 1962
0.004259686 -1.2938961 -0.28069744 375 23991800 66 56 85 1324
0.062111672 -1.5386603 -0.34915322 291 23991800 72 57 56 1579
0.1471598 -1.9005325 -0.45166561 481 23991800 185 58 83 1959
0.21754855 -1.8930572 -0.47156766 477 23991800 184 59 95 1963
0.0028374586 -1.3366838 -0.34302875 281 23991800 53 60 25 1380
0.074304722 -1.8797865 -0.50168836 447 23991800 169 61 11 1947
0.14886327 -1.9273398 -0.53594524 422 23991800 170 62 79 2006
0.21853819 -1.8946713 -0.55017006 404 23991800 159 63 65 1985
0.0014486833 -1.4805514 0.46213296 186 24091340 45 0 40 1551
0.055730708 -1.4260147 0.42834157 324 24091340 72 1 46 1490
0.11220024 -1.461486 0.42443588 375 24091340 87 2 39 1526
0.16375962 -1.4266586 0.40113491 418 24091340 93 3 12 1491
0.0020853719 -1.4046487 0.37945086 340 24091340 72 4 40 1455
0.054459281 -1.4092395 0.36596066 409 24091340 87 5 1 1457
0.10982243 -1.4377465 0.35919395 394 24091340 87 6 83 1486
0.16061296 -1.4118589 0.33967504 437 24091340 93 7 69 1461
0.0023673563 -1.4119911 0.32538733 423 24091340 89 8 23 1449
0.054809589 -1.4043299 0.30915132 383 24091340 79 9 5 1439
0.10960952 -1.4452555 0.30427542 402 24091340 88 10 42 1481
0.1599135 -1.4167176 0.2854034 434 24091340 92 11 9 1454
0.002540984 -1.3857228 0.26587051 428 24091340 85 12 53 1411
0.056269735 -1.4560885 0.26457721 395 24091340 87 13 1 1481
0.10876544 -1.4377865 0.24760734 413 24091340 88 14 95 1463
0.16449679 -1.4605243 0.23860182 196 24091340 43 15 53 1489
0.0025489652 -1.4034333 0.21626016 442 24091340 89 16 1 1420
0.055397388 -1.4419938 0.20820487 447 24091340 95 17 22 1458
0.11949919 -1.5911222 0.21482666 121 24091340 31 18 63 1610
0.16247763 -1.4505633 0.18250564 269 24091340 58 19 85 1471
0.0021207209 -1.1789761 0.137768 271 24091340 38 20 75 1187
0.053524379 -1.3989677 0.14996192 401 24091340 79 21 56 1408
0.10555203 -1.414341 0.1382883 471 24091340 96 22 114 1425
0.15857019 -1.4226363 0.12621719 330 24091340 68 23 147 1437
0.0019155936 -1.1921829 0.095460162 247 24091340 35 24 74 1196
0.04670148 -1.2290598 0.086718149 251 24091340 38 25 62 1233
0.10053497 -1.3477489 0.082353085 339 24091340 62 26 110 1354
0.16275021 -1.4680504 0.076038614 383 24091340 84 27 103 1479
0.0013203489 -1.1808841 0.051331405 264 24091340 37 28 61 1182
0.044405513 -1.1794869 0.040000901 282 24091340 39 29 27 1181
0.088478126 -1.20138 0.0297141 302 24091340 44 30 53 1205
0.13726234 -1.2423004 0.018674329 295 24091340 46 31 80 1250
0.0012532814 -1.1759707 0.0082099624 234 24091340 32 32 65 1176
0.044184584 -1.1851729 -0.0030014399 260 24091340 37 33 63 1186
0.086738855 -1.1797314 -0.014122381 322 24091340 45 34 108 1183
0.12618333 -1.148825 -0.024794411 324 24091340 43 35 69 1156
0.00065812329 -1.1404971 -0.033869091 257 24091340 33 36 124 1141
0.042260982 -1.1563432 -0.045260917 301 24091340 40 37 45 1158
0.08520212 -1.1655061 -0.056889087 336 24091340 46 38 147 1170
0.1291808 -1.1759262 -0.068812154 336 24091340 47 39 81 1185
-0.00023595669 -1.1325086 -0.075161584 269 24091340 35 40 84 1135
0.043519016 -1.2057565 -0.091419198 210 24091340 31 41 91 1210
0.084234916 -1.1567175 -0.099020466 296 24091340 40 42 166 1164
0.14917164 -1.3647038 -0.13027854 322 24091340 61 43 70 1379
-0.000731343 -1.312027 -0.13544597 274 24091340 48 44 81 1319
0.048203595 -1.3505902 -0.15225822 470 24091340 87 45 58 1360
0.09419322 -1.3028826 -0.15962774 439 24091340 76 46 161 1316
0.14865023 -1.363017 -0.18104421 400 24091340 76 47 160 1383
-0.001834807 -1.3151102 -0.1845694 398 24091340 70 48 60 1328
0.047733542 -1.3539939 -0.20327927 392 24091340 74 49 33 1370
0.093803421 -1.3070059 -0.20944123 360 24091340 63 50 111 1327
0.1730358 -1.5907366 -0.27155939 333 24091340 88 51 116 1623
-0.0028955336 -1.2670287 -0.22582968 401 24091340 66 52 75 1287
0.045220617 -1.3014207 -0.24471292 404 24091340 71 53 94 1325
0.09487839 -1.327826 -0.26329723 397 24091340 73 54 156 1357
0.20647845 -1.8978705 -0.39743462 507 24091340 193 55 109 1950
-0.003579542 -1.2587163 -0.27306518 367 24091340 61 56 96 1288
0.046665341 -1.3635708 -0.30935106 273 24091340 53 57 55 1399
0.13549557 -1.9013996 -0.45166561 494 24091340 190 58 105 1959
0.20592888 -1.8943565 -0.47156766 485 24091340 187 59 111 1963
-0.0053643323 -1.336676 -0.34302875 249 24091340 47 60 28 1380
0.063929766 -1.9149719 -0.51096451 422 24091340 166 61 16 1983
0.13457531 -1.8936129 -0.52632713 419 24091340 163 62 73 1970
0.20815943 -1.9074384 -0.553496 387 24091340 154 63 69 1997
-0.0076949145 -1.4919871 0.46570846 169 24188900 41 0 45 1563
0.048493236 -1.4722787 0.44214049 186 24188900 44 1 59 1538
0.10323062 -1.462147 0.42443588 393 24188900 92 2 63 1526
0.15375522 -1.4161465 0.39790648 416 24188900 91 3 21 1479
-0.006856733 -1.4741428 0.39822781 199 24188900 46 4 42 1527
0.046188634 -1.4211564 0.36897478 431 24188900 93 5 1 1469
0.10099851 -1.4383932 0.35919395 419 24188900 93 6 74 1486
0.1506989 -1.4012136 0.33688509 410 24188900 86 7 58 1449
-0.0062443577 -1.4002856 0.32269257 401 24188900 83 8 34 1437
0.046576951 -1.4163533 0.31172937 375 24188900 79 9 2 1451
0.099923283 -1.4341853 0.30181003 412 24188900 89 10 50 1469
0.15121767 -1.4176722 0.2854034 422 24188900 89 11 24 1454
-0.0060631027 -1.4092822 0.27039275 434 24188900 89 12 64 1435
0.046950754 -1.4446057 0.26243344 445 24188900 96 13 1 1469
0.098301798 -1.4148299 0.24354543 403 24188900 83 14 90 1439
0.158039 -1.4850631 0.24244764 147 24188900 34 15 49 1513
-0.006062388 -1.4034226 0.21626016 455 24188900 92 16 1 1420
0.046165325 -1.4304358 0.20649125 450 24188900 94 17 20 1446
0.10155506 -1.4731802 0.19881473 122 24188900 27 18 73 1490
0.15232128 -1.4396918 0.18101682 158 24188900 34 19 78 1459
-0.0051133805 -1.1789669 0.137768 260 24188900 37 20 75 1187
0.043407436 -1.3515674 0.14484957 368 24188900 68 21 51 1360
0.0993191 -1.4507084 0.1417819 419 24188900 90 22 83 1461
0.15234059 -1.4473584 0.12832521 292 24188900 62 23 134 1461
-0.0052370108 -1.1562873 0.092586778 234 24188900 32 24 62 1160
0.03839701 -1.2053949 0.085030206 285 24188900 42 25 71 1209
0.086539567 -1.2646915 0.077244036 248 24188900 40 26 108 1270
0.15249199 -1.4571023 0.075421669 389 24188900 84 27 116 1467
-0.0058051315 -1.156893 0.050289147 259 24188900 35 28 63 1158
0.037167482 -1.1797372 0.040000901 270 24188900 38 29 26 1181
0.078681879 -1.1659929 0.028826375 268 24188900 37 30 35 1169
0.12590361 -1.2073175 0.018136509 274 24188900 40 31 82 1214
-0.0059015225 -1.1639568 0.0081261871 242 24188900 33 32 73 1164
0.03691167 -1.1854218 -0.0030014399 326 24188900 46 33 68 1186
0.079498529 -1.1802413 -0.014122381 356 24188900 50 34 95 1183
0.12036857 -1.1615111 -0.025051793 301 24188900 41 35 87 1168
-0.0064732013 -1.1644688 -0.034581501 232 24188900 31 36 125 1165
0.035893805 -1.1805513 -0.046198964 291 24188900 41 37 68 1182
0.077248603 -1.154048 -0.05630561 341 24188900 46 38 124 1158
0.11825781 -1.1409489 -0.066721655 306 24188900 40 39 61 1149
-0.0074127852 -1.1684061 -0.077545561 261 24188900 36 40 81 1171
0.03683624 -1.2299216 -0.093232475 225 24188900 34 41 91 1234
0.080316707 -1.2049327 -0.10310379 249 24188900 37 42 126 1212
0.133444 -1.2942934 -0.12347648 265 24188900 45 43 86 1307
-0.0087018814 -1.3000616 -0.1342137 236 24188900 40 44 84 1307
0.039211232 -1.327022 -0.14957131 521 24188900 93 45 31 1336
0.088555083 -1.3390923 -0.16399445 389 24188900 71 46 142 1352
0.1390669 -1.3520691 -0.17947333 333 24188900 63 47 153 1371
-0.0096356515 -1.2794247 -0.17956603 428 24188900 72 48 65 1292
0.039424691 -1.3542613 -0.20327927 432 24188900 81 49 26 1370
0.085782021 -1.3075569 -0.20944123 396 24188900 70 50 115 1327
0.13671386 -1.3328487 -0.22738709 403 24188900 74 51 129 1359
-0.010669821 -1.2669871 -0.22582968 442 24188900 73 52 64 1287
0.036897182 -1.2898849 -0.24249665 400 24188900 69 53 60 1313
0.087496169 -1.3401301 -0.26562557 359 24188900 67 54 152 1369
0.19243155 -1.8757282 -0.39254314 509 24188900 189 55 97 1926
-0.011408119 -1.2703974 -0.27560925 352 24188900 60 56 86 1300
0.038954753 -1.3872283 -0.31465805 287 24188900 58 57 44 1423
0.12382626 -1.9021952 -0.45166561 478 24188900 183 58 88 1959
0.19548923 -1.9071723 -0.47445041 467 24188900 182 59 91 1975
-0.013212027 -1.3017496 -0.33408019 342 24188900 62 60 5 1344
0.051231254 -1.8805567 -0.50168836 451 24188900 171 61 16 1947
0.12295378 -1.894403 -0.52632713 413 24188900 160 62 78 1970
0.19172977 -1.8628026 -0.54019213 392 24188900 149 63 85 1949
-0.017237518 -1.5262746 0.47643495 158 24285560 40 0 45 1599
0.040690068 -1.5185058 0.45593941 204 24285560 51 1 64 1586
0.094257109 -1.4627528 0.42443588 397 24285560 93 2 62 1526
0.14506301 -1.4170634 0.39790648 402 24285560 88 3 37 1479
-0.016776528 -1.5551614 0.42013425 197 24285560 51 4 35 1611
0.038079847 -1.4446355 0.37500292 420 24285560 94 5 1 1493
0.090682171 -1.4157451 0.35339269 394 24285560 84 6 64 1462
0.14092158 -1.3905002 0.33409515 430 24285560 89 7 55 1437
-0.014960125 -1.4119139 0.32538733 419 24285560 88 8 34 1449
0.038198814 -1.428328 0.31430742 420 24285560 90 9 24 1463
0.091121405 -1.4347714 0.30181003 445 24285560 96 10 58 1469
0.14251614 -1.4185734 0.2854034 411 24285560 87 11 28 1454
-0.014833193 -1.4210027 0.27265388 434 24285560 91 12 36 1447
0.037152585 -1.409458 0.25600213 410 24285560 84 13 21 1433
0.091860741 -1.4508162 0.24963829 413 24285560 90 14 92 1475
0.14892384 -1.4860048 0.24244764 192 24285560 44 15 68 1513
-0.014549512 -1.3914996 0.21443263 416 24285560 83 16 1 1408
0.037697736 -1.442565 0.20820487 459 24285560 98 17 48 1458
0.094749123 -1.5093834 0.2036183 168 24285560 39 18 91 1526
0.15174556 -1.5235399 0.19143862 180 24285560 43 19 79 1543
-0.012846589 -1.2265863 0.14333907 262 24285560 40 20 66 1235
0.032015301 -1.2325311 0.13206872 243 24285560 37 21 74 1240
0.09041585 -1.4512905 0.1417819 438 24285560 94 22 87 1461
0.14934835 -1.5077429 0.13359523 250 24285560 58 23 125 1521
-0.012586897 -1.1801555 0.09450236 246 24285560 35 24 58 1184
0.029769346 -1.1577424 0.08165431 296 24285560 40 25 91 1161
0.073567428 -1.1815163 0.072134979 297 24285560 42 26 122 1186
0.14120007 -1.4341576 0.074187778 404 24285560 84 27 93 1443
-0.013171016 -1.1808114 0.051331405 252 24285560 35 28 44 1182
0.030840335 -1.2159107 0.041220229 277 24285560 41 29 33 1217
0.071525998 -1.1664537 0.028826375 277 24285560 38 30 36 1169
0.11615074 -1.1841846 0.017777961 321 24285560 45 31 56 1190
-0.012639914 -1.1279017 0.0078748614 241 24285560 31 32 106 1128
0.028437871 -1.137641 -0.0028799647 320 24285560 42 33 60 1138
0.068590529 -1.1208233 -0.013406115 311 24285560 39 34 92 1123
0.11440282 -1.1741685 -0.025309175 330 24285560 46 35 82 1180
-0.01333758 -1.1404192 -0.033869091 243 24285560 32 36 146 1141
0.028649401 -1.1807493 -0.046198964 293 24285560 41 37 73 1182
0.070893154 -1.1664639 -0.056889087 374 24285560 51 38 142 1170
0.11357872 -1.1654997 -0.068115324 308 24285560 42 39 80 1173
-0.014581851 -1.1683385 -0.077545561 252 24285560 35 40 79 1171
0.028434433 -1.1942375 -0.090512559 284 24285560 41 41 117 1198
0.075809866 -1.2531416 -0.10718711 235 24285560 37 42 151 1260
0.12089083 -1.2475253 -0.11894176 227 24285560 36 43 87 1259
-0.016678745 -1.2999837 -0.1342137 217 24285560 37 44 76 1307
0.031905204 -1.3630015 -0.15360168 449 24285560 84 45 32 1372
0.080336906 -1.3396105 -0.16399445 435 24285560 80 46 123 1352
0.13076815 -1.3528969 -0.17947333 361 24285560 68 47 161 1371
-0.017973095 -1.3149887 -0.1845694 417 24285560 74 48 62 1328
0.030569289 -1.3307495 -0.19971818 441 24285560 80 49 16 1346
0.079866856 -1.3435447 -0.21512315 404 24285560 75 50 103 1363
0.13080297 -1.3572149 -0.23140274 443 24285560 85 51 102 1383
-0.018787647 -1.2905229 -0.23004095 439 24285560 76 52 69 1311
0.028717026 -1.2782965 -0.24028039 414 24285560 70 53 74 1301
0.079271637 -1.3406417 -0.26562557 367 24285560 69 54 147 1369
0.18204589 -1.8885676 -0.39498889 524 24285560 197 55 91 1938
-0.019557431 -1.2937553 -0.28069744 385 24285560 68 56 89 1324
0.02915857 -1.3289404 -0.30139065 380 24285560 71 57 35 1363
0.11146528 -1.8912628 -0.44889891 471 24285560 179 58 105 1947
0.1826667 -1.8967409 -0.47156766 492 24285560 190 59 104 1963
-0.021388441 -1.3132659 -0.33706304 350 24285560 64 60 19 1356
0.040180672 -1.9040201 -0.50787246 431 24285560 167 61 28 1971
0.11200576 -1.9066656 -0.52953315 407 24285560 160 62 70 1982
0.18584663 -1.9213254 -0.55682194 395 24285560 160 63 81 2009
-0.026602237 -1.52614 0.47643495 164 24384000 42 0 27 1599
0.030659828 -1.4842539 0.4455902 194 24384000 47 1 47 1550
0.086621284 -1.4863176 0.43111116 356 24384000 85 2 41 1550
0.13636534 -1.4179267 0.39790648 415 24384000 91 3 37 1479
-0.025534339 -1.5086969 0.40761629 186 24384000 45 4 57 1563
0.028745381 -1.4216162 0.36897478 423 24384000 91 5 1 1469
0.082666621 -1.4278997 0.35629335 393 24384000 85 6 85 1474
0.13459803 -1.4145761 0.33967504 430 24384000 92 7 54 1461
-0.024014456 -1.4351791 0.33077675 386 24384000 84 8 11 1473
0.028951183 -1.4051008 0.30915132 400 24384000 83 9 24 1439
0.080298819 -1.4001292 0.29441372 428 24384000 88 10 53 1433
0.13712227 -1.4545649 0.2924698 430 24384000 95 11 12 1490
-0.02296607 -1.3855348 0.26587051 404 24384000 81 12 61 1411
0.028980993 -1.4332684 0.26028964 409 24384000 87 13 20 1457
0.081607163 -1.4277372 0.2455764 356 24384000 75 14 94 1451
0.13536783 -1.4397188 0.23475598 322 24384000 69 15 70 1465
-0.022890551 -1.3795257 0.21260506 427 24384000 83 16 1 1396
0.028845614 -1.4427692 0.20820487 445 24384000 95 17 15 1458
0.085485935 -1.5099363 0.2036183 225 24384000 52 18 82 1526
0.1379648 -1.4770197 0.18548331 325 24384000 73 19 82 1495
-0.020570492 -1.2384017 0.14473185 274 24384000 43 20 81 1247
0.023978766 -1.2088456 0.12951256 285 24384000 42 21 74 1216
0.080839723 -1.4398934 0.14061737 450 24384000 95 22 82 1449
0.13346253 -1.4372164 0.12727121 375 24384000 79 23 146 1449
-0.020028919 -1.1920161 0.095460162 246 24384000 35 24 34 1196
0.023367804 -1.1938072 0.084186234 282 24384000 40 25 67 1197
0.06765838 -1.2058632 0.073594704 298 24384000 44 26 127 1210
0.13239758 -1.434997 0.074187778 366 24384000 76 27 96 1443
-0.02041609 -1.1807084 0.051331405 284 24384000 40 28 63 1182
0.022456966 -1.1681135 0.039594453 284 24384000 39 29 22 1169
0.064367428 -1.1668706 0.028826375 280 24384000 38 30 48 1169
0.10888253 -1.184875 0.017777961 298 24384000 42 31 63 1190
-0.019976528 -1.1517987 0.0080424128 223 24384000 30 32 97 1152
0.021683164 -1.149792 -0.0029103337 281 24384000 37 33 70 1150
0.063690297 -1.157166 -0.013835874 314 24384000 42 34 91 1159
0.10828623 -1.1867959 -0.025566556 315 24384000 45 35 67 1192
-0.021404125 -1.2002801 -0.035650115 257 24384000 37 36 137 1201
0.020534726 -1.1329474 -0.044322867 295 24384000 38 37 56 1134
0.062427156 -1.1429409 -0.055722129 363 24384000 48 38 145 1146
0.10969146 -1.2019651 -0.070205823 309 24384000 45 39 75 1209
-0.020858806 -1.1203408 -0.07436692 285 24384000 36 40 93 1123
0.021106195 -1.1943895 -0.090512559 265 24384000 38 41 86 1198
0.072660595 -1.3371555 -0.11433291 240 24384000 43 42 168 1344
0.11431316 -1.260141 -0.12007544 240 24384000 39 43 76 1271
-0.023749519 -1.2521192 -0.12928466 172 24384000 27 44 86 1259
0.023335481 -1.3512486 -0.15225822 400 24384000 74 45 39 1360
0.072115697 -1.3400781 -0.16399445 451 24384000 82 46 147 1352
0.12246446 -1.3536738 -0.17947333 392 24384000 74 47 137 1371
-0.025806062 -1.3029724 -0.18290162 420 24384000 73 48 60 1316
0.022203656 -1.3190466 -0.19793762 450 24384000 80 49 29 1334
0.071621522 -1.3440095 -0.21512315 426 24384000 79 50 112 1363
0.12141013 -1.346209 -0.22939491 442 24384000 83 51 113 1371
-0.026461344 -1.278572 -0.2279353 429 24384000 72 52 80 1299
0.021065531 -1.2902406 -0.24249665 439 24384000 76 53 51 1313
0.070421383 -1.3293475 -0.26329723 348 24384000 64 54 144 1357
0.16939899 -1.8779484 -0.39254314 553 24384000 205 55 109 1926
-0.027246192 -1.2818863 -0.27815333 388 24384000 67 56 79 1312
0.020633958 -1.3056914 -0.29608369 342 24384000 61 57 34 1339
0.099858619 -1.8919111 -0.44889891 466 24384000 177 58 97 1947
0.17102508 -1.8978261 -0.47156766 503 24384000 194 59 112 1963
-0.028924916 -1.289869 -0.3310973 317 24384000 56 60 23 1332
0.028497068 -1.9042307 -0.50787246 444 24384000 172 61 19 1971
0.10030457 -1.907317 -0.52953315 425 24384000 167 62 74 1982
0.17093515 -1.8879809 -0.54684407 394 24384000 153 63 74 1973
-0.036775697 -1.5603033 0.48716143 176 24481170 47 0 23 1635
0.022052603 -1.5188907 0.45593941 180 24481170 45 1 62 1586
0.075699791 -1.4522885 0.42109826 376 24481170 86 2 47 1514
0.13180575 -1.4647809 0.41082028 433 24481170 101 3 13 1527
-0.034523938 -1.4969301 0.40448681 176 24481170 42 4 70 1551
0.020185523 -1.4333799 0.37198886 433 24481170 95 5 5 1481
0.072098657 -1.3934942 0.34759146 402 24481170 83 6 113 1438
0.12591583 -1.4153754 0.33967504 432 24481170 92 7 67 1461
-0.032552727 -1.4233143 0.32808203 416 24481170 89 8 26 1461
0.020329101 -1.405252 0.30915132 423 24481170 88 9 15 1439
0.073507689 -1.4357816 0.30181003 408 24481170 88 10 66 1469
0.12509733 -1.4202155 0.2854034 434 24481170 92 11 14 1454
-0.031467121 -1.3853678 0.26587051 417 24481170 83 12 53 1411
0.020352334 -1.4452251 0.26243344 409 24481170 88 13 19 1469
0.072242752 -1.4163995 0.24354543 386 24481170 80 14 89 1439
0.12445846 -1.4169234 0.23091015 402 24481170 84 15 58 1441
-0.031085206 -1.3675023 0.21077752 438 24481170 84 16 2 1384
0.020156952 -1.4547949 0.20991847 445 24481170 96 17 12 1470
0.072623327 -1.439167 0.19401115 377 24481170 80 18 79 1454
0.12786473 -1.465976 0.18399446 361 24481170 79 19 68 1483
-0.027084509 -1.1905888 0.13916077 245 24481170 35 20 67 1199
0.016397547 -1.1970394 0.12823448 327 24481170 47 21 73 1204
0.070810579 -1.4165053 0.1382883 387 24481170 79 22 92 1425
0.12670587 -1.4618262 0.12937921 409 24481170 89 23 148 1473
-0.028439976 -1.2397051 0.09929134 225 24481170 35 24 55 1244
0.0160423 -1.1939281 0.084186234 290 24481170 41 25 50 1197
0.058465261 -1.1703671 0.071405113 311 24481170 43 26 135 1174
0.12050679 -1.3999624 0.072336935 355 24481170 70 27 95 1407
-0.026256317 -1.1206341 0.048725754 242 24481170 30 28 57 1122
0.015289135 -1.1682292 0.039594453 288 24481170 39 29 20 1169
0.056619197 -1.1552616 0.028530467 309 24481170 41 30 48 1157
0.10161023 -1.1855208 0.017777961 325 24481170 46 31 86 1190
-0.026761755 -1.1396582 0.0079586376 210 24481170 27 32 81 1140
0.015390951 -1.2098982 -0.003062177 288 24481170 42 33 51 1210
0.057760678 -1.1815047 -0.014122381 299 24481170 42 34 113 1183
0.097951747 -1.1515758 -0.024794411 322 24481170 43 35 104 1156
-0.02819361 -1.1761435 -0.034937706 255 24481170 35 36 143 1177
0.014157633 -1.181012 -0.046198964 283 24481170 40 37 34 1182
0.05657351 -1.167246 -0.056889087 344 24481170 47 38 142 1170
0.098252162 -1.154869 -0.067418486 330 24481170 45 39 72 1161
-0.028918065 -1.1680716 -0.077545561 266 24481170 36 40 87 1171
0.01363916 -1.1825316 -0.089605927 307 24481170 43 41 97 1186
0.065030076 -1.3495188 -0.11535374 308 24481170 57 42 156 1356
0.10657892 -1.2608187 -0.12007544 238 24481170 39 43 68 1271
-0.030233573 -1.2042187 -0.12435563 168 24481170 25 44 88 1211
0.014911195 -1.3394426 -0.15091476 457 24481170 83 45 41 1348
0.062757596 -1.3166996 -0.1610833 439 24481170 77 46 130 1328
0.11215782 -1.3306905 -0.17633156 354 24481170 64 47 153 1347
-0.034108676 -1.3146691 -0.1845694 388 24481170 68 48 54 1328
0.01410972 -1.3191581 -0.19793762 413 24481170 73 49 31 1334
0.06169964 -1.3089143 -0.20944123 397 24481170 70 50 136 1327
0.11215732 -1.3351394 -0.22738709 357 24481170 66 51 110 1359
-0.033355273 -1.2429569 -0.22161838 421 24481170 67 52 87 1263
0.013388703 -1.3139315 -0.24692917 394 24481170 70 53 69 1337
0.061162136 -1.3062364 -0.25864053 373 24481170 66 54 142 1333
0.15688929 -1.8672456 -0.39009738 549 24481170 201 55 100 1914
-0.034790047 -1.2699722 -0.27560925 362 24481170 61 56 99 1300
0.012621998 -1.3057934 -0.29608369 400 24481170 72 57 39 1339
0.088792086 -1.9041522 -0.45166561 476 24481170 183 58 103 1959
0.15547988 -1.8524085 -0.46003672 495 24481170 182 59 106 1915
-0.034847572 -1.2199556 -0.31320018 326 24481170 52 60 25 1260
0.016607674 -1.8811811 -0.50168836 453 24481170 172 61 10 1947
0.089136034 -1.9194479 -0.53273922 418 24481170 166 62 67 1994
0.15837835 -1.8775052 -0.54351813 386 24481170 149 63 74 1961
-0.044307794 -1.491349 0.46570846 150 24578550 37 0 42 1563
0.01273245 -1.5189976 0.45593941 168 24578550 42 1 67 1586
0.067316644 -1.46424 0.42443588 346 24578550 80 2 45 1526
0.11798979 -1.4079763 0.39467803 406 24578550 87 3 32 1467
-0.044384614 -1.5198497 0.41074577 188 24578550 47 4 59 1575
0.011482378 -1.4450917 0.37500292 429 24578550 96 5 1 1493
0.065137863 -1.4288067 0.35629335 379 24578550 82 6 95 1474
0.11626602 -1.40449 0.33688509 404 24578550 85 7 72 1449
-0.041624505 -1.4347764 0.33077675 379 24578550 82 8 18 1473
0.011999113 -1.4405085 0.31688547 430 24578550 94 9 17 1475
0.066282004 -1.4714019 0.30920631 407 24578550 92 10 50 1505
0.11542019 -1.4092289 0.28304791 415 24578550 86 11 40 1442
-0.040646791 -1.4087089 0.27039275 395 24578550 81 12 45 1435
0.011390402 -1.4335161 0.26028964 456 24578550 97 13 1 1457
0.065140396 -1.4522612 0.24963829 384 24578550 84 14 102 1475
0.11479802 -1.4058547 0.22898722 397 24578550 81 15 46 1429
-0.040502276 -1.4028511 0.21626016 403 24578550 81 16 4 1420
0.010955095 -1.4192611 0.20477761 481 24578550 99 17 14 1434
0.064844348 -1.4633476 0.19721353 449 24578550 98 18 77 1478
0.11598174 -1.4311279 0.17952797 355 24578550 74 19 77 1447
-0.035766039 -1.2380561 0.14473185 252 24578550 39 20 75 1247
0.0093230102 -1.2329116 0.13206872 286 24578550 44 21 59 1240
0.061071534 -1.3930494 0.13595922 412 24578550 81 22 105 1401
0.11389735 -1.4149158 0.12516318 400 24578550 81 23 124 1425
-0.035350703 -1.2155938 0.097375743 257 24578550 38 24 65 1220
0.0088035744 -1.2059741 0.085030206 298 24578550 44 25 61 1209
0.052331299 -1.1946365 0.072864845 281 24578550 40 26 123 1198
0.10427855 -1.305107 0.067401372 274 24578550 47 27 114 1311
-0.034549311 -1.1683856 0.050810274 248 24578550 34 28 64 1170
0.0083708093 -1.2042795 0.040813789 256 24578550 37 29 42 1205
0.049529582 -1.1555873 0.028530467 295 24578550 39 30 50 1157
0.093382835 -1.1741611 0.017598689 310 24578550 43 31 78 1178
-0.035885897 -1.2114391 0.0084612872 205 24578550 30 32 94 1212
0.0073347837 -1.1139724 -0.0028192275 282 24578550 35 33 74 1114
0.049485292 -1.1578605 -0.013835874 315 24578550 42 34 91 1159
0.091827407 -1.1641153 -0.025051793 332 24578550 45 35 78 1168
-0.035048746 -1.1639591 -0.034581501 251 24578550 34 36 106 1165
0.006770493 -1.1570954 -0.045260917 299 24578550 40 37 57 1158
0.048903588 -1.1555961 -0.05630561 320 24578550 43 38 120 1158
0.092106447 -1.1673928 -0.068115324 354 24578550 49 39 59 1173
-0.035714891 -1.1559043 -0.076750904 265 24578550 36 40 78 1159
0.0062538581 -1.158662 -0.08779265 275 24578550 37 41 102 1162
0.056748364 -1.3498924 -0.11535374 379 24578550 70 42 183 1356
0.10257345 -1.3090882 -0.12461015 273 24578550 48 43 84 1319
-0.037621953 -1.2040106 -0.12435563 199 24578550 29 44 106 1211
0.006632674 -1.3275845 -0.14957131 478 24578550 85 45 43 1336
0.055665445 -1.3408623 -0.16399445 439 24578550 80 46 123 1352
0.10491717 -1.3432142 -0.17790245 381 24578550 70 47 163 1359
-0.041793596 -1.3025577 -0.18290162 390 24578550 68 48 86 1316
0.0060152519 -1.3192198 -0.19793762 441 24578550 78 49 28 1334
0.052696519 -1.285589 -0.20565331 412 24578550 70 50 118 1303
0.10396294 -1.3358024 -0.22738709 348 24578550 64 51 94 1359
-0.042149398 -1.278151 -0.2279353 391 24578550 66 52 70 1299
0.0053263186 -1.3139888 -0.24692917 443 24578550 79 53 63 1337
0.054102942 -1.3301115 -0.26329723 383 24578550 70 54 141 1357
0.1426938 -1.8330351 -0.38276014 553 24578550 195 55 109 1878
-0.042581797 -1.2697349 -0.27560925 381 24578550 64 56 105 1300
0.004526942 -1.2824404 -0.29077673 396 24578550 68 57 49 1315
0.075689785 -1.8696598 -0.44336548 475 24578550 176 58 101 1923
0.14591688 -1.8765548 -0.46580219 521 24578550 196 59 115 1939
-0.044348251 -1.2778006 -0.32811445 316 24578550 55 60 9 1320
0.0050022211 -1.8580581 -0.4955042 396 24578550 146 61 26 1923
0.075960226 -1.8852954 -0.52312106 431 24578550 165 62 80 1958
0.14865252 -1.9014313 -0.55017006 398 24578550 157 63 77 1985
-0.053047284 -1.4796015 0.46213296 166 24676690 40 0 42 1551
