# .PCD v0.7 - Point Cloud Data file format
VERSION 0.7
FIELDS x y z intensity t reflectivity ring noise range
SIZE 4 4 4 4 4 2 1 2 4
TYPE F F F F U U U U U
COUNT 1 1 1 1 1 1 1 1 1
WIDTH 789
HEIGHT 1
VIEWPOINT 0 0 0 1 0 0 0
POINTS 789
DATA ascii
6.4201794 5.955215 -0.66350693 849 87695680 6547 41 130 8782
5.9744835 5.9632974 -0.72070569 872 87695680 6257 42 140 8472
5.5538239 5.9597731 -0.77307427 936 87695680 6270 43 72 8183
6.7451868 5.8118839 -0.91916364 830 87695680 6651 44 102 8951
6.2736726 5.8146348 -0.963705 836 87695680 6191 45 57 8608
5.8341537 5.8171358 -1.0067706 908 87695680 6257 46 94 8300
5.4294567 5.8234615 -1.051313 909 87695680 5863 47 112 8031
6.5916882 5.6700087 -1.2202706 889 87695680 6854 48 96 8780
6.1226487 5.6696973 -1.2520223 865 87695680 6156 49 51 8438
5.7054682 5.6828709 -1.2871088 892 87695680 5934 50 87 8155
5.2960839 5.6772308 -1.3176404 951 87695680 5900 51 80 7875
6.419848 5.5122614 -1.5081632 829 87695680 6126 52 96 8595
5.9944596 5.5453582 -1.5345807 859 87695680 5932 53 87 8309
5.5739098 5.5483465 -1.5555297 906 87695680 5826 54 64 8017
5.188839 5.5624628 -1.5836241 929 87695680 5612 55 59 7770
6.2875681 5.3925843 -1.7969724 836 87695680 6006 56 112 8476
5.849577 5.4056487 -1.8059117 878 87695680 5853 57 57 8167
5.4484735 5.4214034 -1.8211876 890 87695680 5550 58 55 7899
5.0904007 5.4559817 -1.8466331 918 87695680 5425 59 108 7687
6.1468706 5.2594514 -2.0760696 853 87695680 5954 60 63 8352
5.7375016 5.2931747 -2.0817361 864 87695680 5637 61 47 8079
5.3305464 5.3020258 -2.0844691 877 87695680 5341 62 66 7802
4.9720497 5.3336082 -2.1033957 810 87695680 4667 63 73 7589
7.721241 6.5912423 3.1687839 564 87792830 6382 0 86 10635
7.3792095 6.8016524 3.0121899 25 87792830 280 1 61 10478
7.3352952 7.2892866 2.9944148 548 87792830 6347 2 47 10766
7.1147075 7.623652 2.912869 607 87792830 7122 3 58 10827
7.9638848 6.805347 2.8298428 34 87792830 403 4 86 10851
7.8726969 7.250164 2.7772319 586 87792830 7169 5 62 11057
7.6663857 7.6124525 2.6912959 567 87792830 7032 6 90 11134
7.4754314 7.9939413 2.6162648 577 87792830 7312 7 69 11253
8.4239912 7.2013187 2.5539198 590 87792830 7636 8 77 11373
8.3759184 7.7195392 2.505651 104 87792830 1409 9 49 11663
7.9079013 7.8437762 2.3382571 488 87792830 6316 10 50 11381
7.3055773 7.7986531 2.1391516 507 87792830 6016 11 49 10898
8.7918224 7.5181522 2.2194817 571 87792830 7922 12 122 11779
8.3413162 7.6817279 2.0589144 493 87792830 6554 13 72 11525
7.591495 7.5270448 1.8358146 450 87792830 5296 14 94 10847
6.6993818 7.1480422 1.5904117 654 87792830 6444 15 88 9925
8.7645063 7.4945288 1.7769884 452 87792830 6149 16 46 11668
7.6155691 7.0101762 1.49342 646 87792830 7069 17 81 10458
7.0569134 6.9894342 1.3372625 592 87792830 5950 18 69 10022
6.5394111 6.968821 1.1949095 526 87792830 4880 19 99 9631
8.0524988 6.885448 1.238055 528 87792830 6013 20 68 10667
7.4571438 6.8621812 1.0855197 340 87792830 3536 21 74 10192
6.9254441 6.8527598 0.94996786 153 87792830 1462 22 51 9789
6.357214 6.7673187 0.81869894 20 87792830 175 23 100 9321
7.8258786 6.6890712 0.82434154 99 87792830 1052 24 47 10328
7.2400107 6.6588721 0.6935342 61 87792830 596 25 77 9861
6.7675505 6.6960559 0.58012092 42 87792830 383 26 103 9538
6.2584128 6.6542268 0.47026721 176 87792830 1474 27 94 9147
7.6720505 6.5511026 0.43853176 12 87792830 118 28 55 10098
7.0677719 6.4959064 0.32532483 161 87792830 1482 29 35 9605
6.5418067 6.4605069 0.22678886 410 87792830 3464 30 54 9197
6.0539436 6.4321003 0.13197522 710 87792830 5544 31 77 8834
7.3919849 6.3112879 0.067857854 430 87792830 4065 32 82 9720
6.8480797 6.289361 -0.023530679 608 87792830 5258 33 92 9298
6.3747711 6.2940087 -0.10695048 737 87792830 5916 34 111 8959
5.8859563 6.2455335 -0.18411352 849 87792830 6258 35 74 8584
7.1646028 6.1110973 -0.27965006 749 87792830 6647 36 124 9421
6.6677814 6.1147685 -0.35387939 770 87792830 6316 37 66 9054
6.1989541 6.1152935 -0.42389661 862 87792830 6554 38 192 8718
5.7574487 6.1093888 -0.48830497 853 87792830 6033 39 97 8409
6.9881706 5.9511333 -0.60917306 826 87792830 6990 40 109 9199
6.4918895 5.9480433 -0.66713351 851 87792830 6635 41 121 8830
6.0535321 5.9684992 -0.72580987 857 87792830 6236 42 149 8532
5.6148815 5.9516521 -0.77647531 906 87792830 6122 43 79 8219
6.8261738 5.8090668 -0.92532498 824 87792830 6690 44 128 9011
6.335618 5.8001866 -0.96773529 830 87792830 6205 45 66 8644
5.8951964 5.806304 -1.0111374 877 87792830 6096 46 104 8336
5.4977508 5.8246441 -1.0575967 923 87792830 6022 47 147 8079
6.6535234 5.6525378 -1.225274 855 87792830 6645 48 111 8816
6.2011046 5.6720695 -1.2609249 891 87792830 6438 49 61 8498
5.7655697 5.6726871 -1.2927907 879 87792830 5900 50 71 8191
5.3714347 5.6876345 -1.3276795 948 87792830 5970 51 95 7935
6.498601 5.5109706 -1.5186914 787 87792830 5896 52 104 8655
6.0544915 5.5323386 -1.5412296 845 87792830 5886 53 91 8345
5.6498189 5.5553093 -1.5671716 918 87792830 5992 54 64 8077
5.2551365 5.5646853 -1.5934072 940 87792830 5748 55 72 7818
6.3563309 5.384222 -1.8071487 904 87792830 6568 56 113 8524
5.9172087 5.4012132 -1.8165253 889 87792830 6002 57 70 8215
5.506619 5.412426 -1.8294878 849 87792830 5348 58 67 7935
5.1317811 5.4331136 -1.8495158 893 87792830 5294 59 97 7699
6.2322941 5.2666502 -2.093967 827 87792830 5872 60 70 8424
5.7870126 5.2734895 -2.0879202 855 87792830 5611 61 45 8103
5.3877244 5.2935314 -2.0940871 837 87792830 5145 62 61 7838
5.0363369 5.3365412 -2.1166995 804 87792830 4692 63 59 7637
7.761539 6.5437417 3.1687839 586 87890430 6630 0 92 10635
7.4463015 6.7794595 3.0225391 23 87890430 258 1 73 10514
7.3798833 7.2441406 2.9944148 221 87890430 2556 2 52 10766
7.1692886 7.5882549 2.9160976 622 87890430 7303 3 53 10839
7.8992534 6.6666918 2.792289 44 87890430 509 4 69 10707
7.9170346 7.2017217 2.7772319 585 87890430 7157 5 59 11057
7.7295766 7.5815763 2.6970971 582 87890430 7250 6 78 11158
7.5002694 7.9224963 2.6078951 621 87890430 7819 7 65 11217
8.4858894 7.1645818 2.5593092 528 87890430 6864 8 68 11397
8.301796 7.5575466 2.4695585 58 87890430 763 9 30 11495
8.0062122 7.8444204 2.3530495 470 87890430 6160 10 51 11453
7.3937755 7.7963686 2.1509287 535 87890430 6420 11 40 10958
8.8557949 7.4792733 2.224004 553 87890430 7703 12 125 11803
8.4319639 7.6701269 2.0696335 505 87890430 6784 13 68 11585
7.781177 7.6210055 1.8703409 484 87890430 5913 14 88 11051
6.7838798 7.1497641 1.6000262 705 87890430 7024 15 47 9985
8.8646936 7.4865241 1.7879539 462 87890430 6363 16 41 11740
7.7287412 7.0272369 1.5071291 610 87890430 6798 17 85 10554
7.1336708 6.97927 1.3436673 616 87890430 6250 18 75 10070
6.5902486 6.9371977 1.1963983 541 87890430 5032 19 95 9643
8.1401253 6.8743591 1.2450188 536 87890430 6172 20 80 10727
7.5609145 6.8724737 1.0944662 438 87890430 4628 21 83 10276
7.0186076 6.8602266 0.95695502 168 87890430 1638 22 68 9861
6.46452 6.7974806 0.82713109 19 87890430 170 23 93 9417
7.949038 6.710371 0.83296174 96 87890430 1051 24 61 10436
7.3781929 6.7028627 0.70281786 15 87890430 154 25 63 9993
6.8427734 6.6878934 0.58304036 47 87890430 433 26 105 9586
6.3652353 6.6851339 0.47520277 160 87890430 1367 27 106 9243
7.8220792 6.596652 0.44478533 11 87890430 111 28 46 10242
7.2051744 6.5410914 0.32979572 158 87890430 1494 29 44 9737
6.6070862 6.4453764 0.22767659 423 87890430 3604 30 27 9233
6.1181278 6.4208932 0.13251305 663 87890430 5218 31 89 8870
7.4764395 6.304491 0.068276733 401 87890430 3838 32 79 9780
6.9132051 6.2714114 -0.023621786 618 87890430 5387 33 81 9334
6.4390411 6.2799091 -0.10738024 725 87890430 5868 34 93 8995
5.998702 6.2874227 -0.18642995 696 87890430 5260 35 84 8692
7.2570057 6.1133881 -0.28178728 735 87890430 6622 36 139 9493
6.7496095 6.1139903 -0.35622451 809 87890430 6723 37 83 9114
6.2621126 6.1022372 -0.42564705 835 87890430 6402 38 181 8754
5.8279047 6.1086183 -0.49109232 842 87890430 6024 39 90 8457
7.0795355 5.9543858 -0.61394101 836 87890430 7187 40 97 9271
6.5726233 5.9482431 -0.67166668 809 87890430 6393 41 126 8890
6.1071711 5.9479275 -0.72785151 870 87890430 6367 42 135 8556
5.6677961 5.9343657 -0.77874261 905 87890430 6151 43 80 8243
6.9073772 5.8054729 -0.93148625 823 87890430 6774 44 94 9071
6.4241567 5.8091912 -0.97579604 836 87890430 6354 45 69 8716
5.9648623 5.803247 -1.0169597 887 87890430 6236 46 109 8384
5.5580435 5.8166046 -1.0623094 926 87890430 6097 47 121 8115
6.7335997 5.6497979 -1.233613 853 87890430 6721 48 102 8876
6.3062358 5.6975594 -1.2751694 785 87890430 5800 49 71 8594
5.8342586 5.6702385 -1.3003665 898 87890430 6093 50 43 8239
5.4471111 5.6973257 -1.3377187 934 87890430 5972 51 77 7995
6.6047482 5.5316753 -1.5355365 736 87890430 5637 52 109 8751
6.1320982 5.5345945 -1.5523111 793 87890430 5604 53 88 8405
5.7006884 5.5369415 -1.5718282 899 87890430 5902 54 83 8101
5.3135376 5.5578108 -1.6007445 930 87890430 5740 55 60 7854
6.4162326 5.3676939 -1.814781 880 87890430 6447 56 134 8560
5.9850059 5.3961506 -1.8271394 843 87890430 5759 57 61 8263
5.573236 5.4110713 -1.8405546 901 87890430 5744 58 65 7983
5.2052736 5.4436183 -1.8639295 906 87890430 5456 59 85 7759
6.2823391 5.2432051 -2.0999324 834 87890430 5956 60 64 8448
5.8537326 5.2689095 -2.1002884 833 87890430 5531 61 51 8151
5.4532957 5.2925878 -2.1069114 847 87890430 5270 62 63 7886
5.076951 5.3138747 -2.1200254 795 87890430 4654 63 63 7649
7.7839384 6.4813352 3.1616328 574 87987090 6467 0 74 10611
7.530489 6.7720685 3.0397875 29 87987090 329 1 70 10574
7.2752404 7.0542927 2.9343371 30 87987090 330 2 42 10550
7.2157145 7.5441217 2.9160976 617 87987090 7254 3 68 10839
7.8777184 6.5661759 2.7703824 20 87987090 230 4 68 10623
7.9783549 7.1685343 2.7832603 610 87987090 7484 5 56 11081
7.7592249 7.5178008 2.6912959 564 87987090 6993 6 105 11134
7.5406642 7.8679004 2.6051052 614 87987090 7714 7 70 11205
8.5117283 7.0974011 2.5539198 543 87987090 7026 8 92 11373
8.374156 7.5299735 2.4772925 219 87987090 2907 9 45 11531
8.0963888 7.8359852 2.3653769 487 87987090 6462 10 60 11513
7.4822197 7.793294 2.1627061 519 87987090 6296 11 45 11018
8.883419 7.4096971 2.2194817 537 87987090 7450 12 119 11779
8.5579119 7.6892648 2.0889273 468 87987090 6404 13 77 11693
7.8787918 7.622458 1.8825265 446 87987090 5521 14 81 11123
6.8358278 7.1165471 1.6019492 660 87987090 6600 15 69 9997
9.0106487 7.515553 1.8080568 443 87987090 6251 16 62 11872
7.9396076 7.130465 1.5396878 456 87987090 5304 17 86 10782
7.2276711 6.9849544 1.3532745 621 87987090 6391 18 68 10142
6.6987214 6.9652886 1.2083089 540 87987090 5125 19 80 9739
8.237072 6.8700881 1.2533754 580 87987090 6769 20 65 10799
7.6384549 6.8578362 1.0995786 418 87987090 4459 21 75 10324
7.1207142 6.875103 0.96510679 168 87987090 1666 22 65 9945
6.6470475 6.904078 0.84504914 11 87987090 103 23 100 9621
8.0359993 6.699769 0.83775067 126 87987090 1394 24 58 10496
0 0 0 8 87987090 0 25 63 0
6.9009151 6.6624198 0.58450013 36 87987090 333 26 103 9610
6.4310856 6.6718364 0.47705361 129 87987090 1112 27 102 9279
0 0 0 5 87987090 0 28 51 0
7.2541032 6.504765 0.33020216 127 87987090 1205 29 25 9749
6.6810627 6.4380112 0.2288602 437 87987090 3761 30 45 9281
6.1990609 6.4264102 0.13340941 661 87987090 5273 31 84 8930
7.5703068 6.3045721 0.068779379 306 87987090 2972 32 87 9852
6.9873033 6.2609067 -0.023743259 577 87987090 5081 33 91 9382
6.5033765 6.2652564 -0.10780999 696 87987090 5679 34 85 9031
6.0455031 6.2591267 -0.18668734 802 87987090 6076 35 103 8704
7.3497047 6.1147738 -0.28392452 686 87987090 6274 36 136 9565
6.8138061 6.0964465 -0.35763159 798 87987090 6682 37 104 9150
6.3253427 6.0886345 -0.42739746 855 87987090 6608 38 192 8790
5.8902435 6.0985942 -0.49318278 883 87987090 6372 39 75 8493
7.1712008 5.9567385 -0.61870897 819 87987090 7151 40 90 9343
6.6536026 5.9476752 -0.67619985 820 87987090 6568 41 112 8950
6.1780171 5.9435 -0.73193479 841 87987090 6223 42 147 8604
5.7456222 5.9424191 -0.78441101 921 87987090 6352 43 70 8303
6.9887929 5.8011003 -0.93764758 790 87987090 6587 44 116 9131
6.4774671 5.7855511 -0.97848296 843 87987090 6436 45 57 8740
6.0518875 5.8160596 -1.0256931 871 87987090 6229 46 104 8456
5.6267142 5.8165941 -1.0685928 912 87987090 6076 47 137 8163
6.8047409 5.6387043 -1.2402842 846 87987090 6739 48 94 8924
6.3410769 5.6587577 -1.2751694 830 87987090 6126 49 55 8594
5.920229 5.6835718 -1.3117304 783 87987090 5405 50 55 8311
5.4901943 5.6722965 -1.3397264 951 87987090 6099 51 80 8007
6.6567726 5.5061049 -1.5397478 852 87987090 6562 52 91 8775
6.1923518 5.5204082 -1.5589597 841 87987090 5993 53 98 8441
5.7515435 5.518158 -1.5764848 887 87987090 5857 54 94 8125
5.35571 5.5335441 -1.6031902 919 87987090 5689 55 69 7866
6.4852104 5.3581014 -1.8249574 872 87987090 6460 56 124 8608
6.0442228 5.3826756 -1.8350998 842 87987090 5802 57 69 8299
5.6316147 5.4010196 -1.8488548 863 87987090 5547 58 45 8019
5.2466788 5.4199467 -1.8668122 907 87987090 5479 59 78 7771
6.3502703 5.2341304 -2.1118639 825 87987090 5959 60 63 8496
5.9206133 5.2637081 -2.1126568 801 87987090 5382 61 50 8199
5.5190582 5.291038 -2.1197357 836 87987090 5265 62 74 7934
5.1254926 5.2991982 -2.1266775 772 87987090 4542 63 55 7673
7.8235607 6.4334517 3.1616328 567 88084710 6388 0 70 10611
7.6922026 6.8325934 3.088084 162 88084710 1872 1 85 10742
7.3183875 7.0095201 2.9343371 27 88084710 297 2 37 10550
7.2538285 7.4914021 2.912869 583 88084710 6829 3 56 10827
8.1593533 6.7165051 2.8548787 25 88084710 305 4 62 10947
7.9874406 7.0886059 2.771204 545 88084710 6628 5 50 11033
7.7967949 7.4619985 2.6883953 564 88084710 6979 6 93 11122
7.5969257 7.8298602 2.6078951 646 88084710 8134 7 62 11217
8.5641441 7.052474 2.5566144 554 88084710 7184 8 83 11385
8.3851509 7.447319 2.4669805 514 88084710 6782 9 81 11483
8.1697836 7.8105059 2.3727732 555 88084710 7397 10 51 11549
7.5627017 7.7809882 2.172128 547 88084710 6693 11 47 11066
8.9741983 7.3925152 2.2307875 545 88084710 7640 12 109 11839
8.6579161 7.6836324 2.10179 467 88084710 6468 13 84 11765
7.9852662 7.6311698 1.8967434 449 88084710 5642 14 89 11207
6.9371691 7.1339121 1.6154095 652 88084710 6620 15 57 10081
9.1023645 7.4978256 1.8171946 446 88084710 6345 16 42 11932
8.2408752 7.3101802 1.5893828 410 88084710 5081 17 97 11130
7.3048034 6.9733229 1.3596792 604 88084710 6276 18 67 10190
6.7745595 6.9581814 1.2142643 504 88084710 4831 19 77 9787
8.3526697 6.8800397 1.2645175 537 88084710 6375 20 115 10895
7.733954 6.8583379 1.1072472 426 88084710 4605 21 109 10396
7.1800508 6.8477674 0.96743584 209 88084710 2081 22 72 9969
0 0 0 3 88084710 0 23 112 0
8.1231289 6.6883516 0.84253967 122 88084710 1354 24 55 10556
7.5584321 6.6991539 0.71210164 28 88084710 292 25 59 10125
7.1063581 6.7770114 0.59836751 37 88084710 359 26 99 9838
6.4886417 6.649405 0.47828752 119 88084710 1031 27 97 9303
7.8283706 6.4392395 0.44061631 31 88084710 316 28 30 10146
7.3387685 6.4998903 0.33223438 102 88084710 978 29 35 9809
6.7725763 6.4465218 0.23063567 412 88084710 3600 30 54 9353
6.2802916 6.4311752 0.13430578 651 88084710 5263 31 89 8990
7.6644554 6.3037381 0.069282033 341 88084710 3362 32 77 9924
7.088491 6.2735868 -0.023955842 547 88084710 4904 33 84 9466
6.5851588 6.2665939 -0.10852626 689 88084710 5697 34 80 9091
6.1089573 6.2476482 -0.18745948 784 88084710 5991 35 72 8740
7.433424 6.107635 -0.28570551 678 88084710 6279 36 134 9625
6.8780398 6.0783443 -0.35903868 798 88084710 6738 37 61 9186
6.3973274 6.0827446 -0.4297314 839 88084710 6556 38 182 8838
5.9610543 6.0966001 -0.49597013 819 88084710 5977 39 81 8541
7.2261305 5.9278131 -0.62029827 717 88084710 6292 40 104 9367
6.7168803 5.9304962 -0.67891973 822 88084710 6637 41 117 8986
6.2317042 5.9219532 -0.73397648 844 88084710 6282 42 126 8628
5.815402 5.9412017 -0.78894573 883 88084710 6160 43 78 8351
7.0611815 5.7883782 -0.94257665 707 88084710 5958 44 102 9179
6.5664973 5.7930298 -0.98654366 802 88084710 6231 45 70 8812
6.1133771 5.8034191 -1.0300598 890 88084710 6421 46 78 8492
5.6789465 5.7989593 -1.0717345 870 88084710 5831 47 125 8187
6.8851938 5.6344748 -1.2486231 831 88084710 6708 48 97 8984
6.4112887 5.6511307 -1.2822915 852 88084710 6367 49 59 8642
5.946393 5.6389852 -1.3098364 870 88084710 5989 50 52 8299
5.5414562 5.6554031 -1.3437421 934 88084710 6026 51 82 8031
6.7087307 5.4801035 -1.5439591 859 88084710 6652 52 100 8799
6.2526617 5.5056901 -1.5656085 819 88084710 5889 53 61 8477
5.8280163 5.5232515 -1.5881265 852 88084710 5709 54 90 8185
5.4306726 5.5425353 -1.615419 917 88084710 5763 55 66 7926
6.5633969 5.3552771 -1.8376777 840 88084710 6310 56 126 8668
6.1034975 5.3686752 -1.8430601 834 88084710 5796 57 75 8335
5.6900797 5.3904548 -1.857155 837 88084710 5433 58 70 8055
5.2961426 5.4042907 -1.8725777 907 88084710 5513 59 72 7795
6.4093103 5.2170806 -2.1208127 841 88084710 6119 60 48 8532
5.9876494 5.2578835 -2.125025 838 88084710 5697 61 39 8247
5.568212 5.2729764 -2.1261477 804 88084710 5089 62 55 7958
5.1901779 5.300602 -2.1399813 476 88084710 2840 63 61 7721
7.8806725 6.3997684 3.1687839 572 88182650 6471 0 94 10635
7.6994224 6.7549467 3.0742848 630 88182650 7208 1 86 10694
7.3193951 6.9248753 2.9176493 29 88182650 316 2 33 10490
7.3077493 7.4550061 2.9160976 600 88182650 7044 3 49 10839
8.1914225 6.6590061 2.8517492 28 88182650 339 4 71 10935
7.960907 6.9782104 2.7470911 47 88182650 558 5 41 10937
7.8508959 7.4220171 2.6912959 591 88182650 7328 6 99 11134
7.6448259 7.7830987 2.6078951 642 88182650 8083 7 67 11217
8.6072559 6.9997926 2.5566144 565 88182650 7328 8 75 11385
8.4394989 7.4034572 2.4695585 527 88182650 6969 9 74 11495
8.2346306 7.7763567 2.3777041 429 88182650 5752 10 66 11573
7.6515656 7.7763739 2.1839051 502 88182650 6208 11 52 11126
9.0102472 7.3298745 2.2285264 571 88182650 7989 12 100 11827
8.7492933 7.6692777 2.1125088 459 88182650 6424 13 76 11825
8.0749407 7.6226215 1.906898 464 88182650 5892 14 98 11267
7.0223598 7.1334181 1.6250242 660 88182650 6791 15 72 10141
9.2310028 7.509192 1.8336426 463 88182650 6705 16 53 12040
8.4910393 7.439497 1.628796 497 88182650 6471 17 67 11406
7.3820639 6.9610066 1.3660841 615 88182650 6450 18 70 10238
6.8505607 6.9504037 1.2202195 536 88182650 5188 19 76 9835
8.4317122 6.8587441 1.2700887 576 88182650 6903 20 64 10943
7.8207679 6.8500614 1.1136376 449 88182650 4911 21 90 10456
7.2567053 6.8363409 0.97209394 218 88182650 2192 22 62 10017
6.5465651 6.6347938 0.82186097 12 88182650 107 23 93 9357
8.2104187 6.6761155 0.8473286 169 88182650 1899 24 56 10616
7.6624413 6.7078424 0.71800941 31 88182650 326 25 80 10209
0 0 0 5 88182650 0 26 104 0
6.5630088 6.643569 0.4807553 100 88182650 876 27 91 9351
7.9235659 6.4364376 0.44374305 44 88182650 456 28 36 10218
7.4326735 6.5021176 0.33467305 74 88182650 720 29 33 9881
6.8469629 6.4377141 0.23181929 365 88182650 3223 30 44 9401
6.3449402 6.418117 0.13484359 663 88182650 5404 31 78 9026
7.7681909 6.3095489 0.069868453 284 88182650 2847 32 81 10008
7.1720243 6.2694626 -0.024107683 524 88182650 4759 33 68 9526
6.6759429 6.2753797 -0.10938577 679 88182650 5703 34 98 9163
6.1893773 6.2526784 -0.18874638 839 88182650 6498 35 92 8800
7.5359592 6.1148138 -0.28819895 656 88182650 6183 36 118 9709
6.9694076 6.0833373 -0.36185279 817 88182650 6999 37 52 9258
6.4694767 6.0761991 -0.43206531 803 88182650 6341 38 214 8886
6.023633 6.0854516 -0.49806064 869 88182650 6396 39 79 8577
7.3461008 5.9511967 -0.62745023 707 88182650 6347 40 116 9475
6.789216 5.9206285 -0.68254632 801 88182650 6538 41 96 9034
6.3115115 5.92452 -0.73908067 833 88182650 6286 42 132 8688
5.8769727 5.9308643 -0.79234672 908 88182650 6389 43 77 8387
7.1429529 5.782495 -0.94873792 784 88182650 6694 44 97 9239
6.6378808 5.7839651 -0.99191749 781 88182650 6135 45 59 8860
6.1662488 5.782094 -1.0329709 878 88182650 6369 46 102 8516
5.7395487 5.7893505 -1.0764472 856 88182650 5787 47 130 8223
6.9566073 5.6220002 -1.2552943 804 88182650 6561 48 77 9032
6.4816446 5.6428542 -1.2894138 823 88182650 6218 49 69 8690
6.0414176 5.6590981 -1.3230941 888 88182650 6243 50 75 8383
5.6260438 5.6716919 -1.3557892 903 88182650 5931 51 75 8103
6.8157892 5.4981761 -1.5608041 830 88182650 6570 52 80 8895
6.3397198 5.5136576 -1.5789063 839 88182650 6133 53 94 8549
5.904767 5.5276132 -1.5997684 891 88182650 6060 54 66 8245
5.489399 5.5341315 -1.6227562 865 88182650 5486 55 77 7962
6.6417913 5.3516941 -1.8503982 843 88182650 6421 56 123 8728
6.189332 5.3771758 -1.8589811 820 88182650 5796 57 98 8407
5.7486258 5.3793745 -1.8654552 865 88182650 5659 58 57 8091
5.370223 5.4130397 -1.8869914 856 88182650 5283 59 91 7855
6.4864974 5.2140665 -2.1357267 823 88182650 6073 60 46 8592
6.0197988 5.221045 -2.125025 870 88182650 5915 61 45 8247
5.6342421 5.2703094 -2.138972 848 88182650 5438 62 58 8006
5.3037739 5.3505416 -2.1732409 212 88182650 1300 63 54 7841
7.9376655 6.3656263 3.175935 570 88279960 6480 0 77 10659
7.732039 6.7000499 3.0708351 652 88279960 7443 1 86 10682
7.3449044 6.8640933 2.9109738 25 88279960 270 2 42 10466
7.3614955 7.4182301 2.9193261 610 88279960 7178 3 51 10851
8.3043976 6.6666369 2.876785 138 88279960 1685 4 62 11031
7.9860115 6.9140263 2.7410629 32 88279960 377 5 38 10913
7.8877778 7.3657579 2.6883953 569 88279960 7040 6 103 11122
7.6924381 7.7360444 2.6078951 606 88279960 7630 7 67 11217
8.6591616 6.9541698 2.5593092 550 88279960 7147 8 86 11397
8.484767 7.3515344 2.4695585 530 88279960 7007 9 81 11495
8.2564278 7.7016511 2.3703077 349 88279960 4641 10 42 11537
7.7406564 7.7709608 2.1956825 515 88279960 6439 11 40 11186
9.0734282 7.2892122 2.2330484 559 88279960 7854 12 96 11851
8.8497438 7.6618176 2.1253712 522 88279960 7396 13 61 11897
8.1821108 7.6293907 1.9211148 462 88279960 5953 14 107 11351
7.1078038 7.1321445 1.6346387 645 88279960 6715 15 72 10201
9.3138885 7.4821205 1.8409528 463 88279960 6759 16 51 12088
8.6083765 7.4494328 1.642505 492 88279960 6514 17 69 11502
7.5029583 6.9885321 1.3804947 560 88279960 5998 18 68 10346
6.9435415 6.9588127 1.2291526 469 88279960 4606 19 83 9907
8.6223116 6.9263086 1.2923729 369 88279960 4576 20 106 11135
7.898747 6.8331709 1.11875 450 88279960 4970 21 68 10504
7.368463 6.8567758 0.98141026 226 88279960 2316 22 63 10113
6.7645555 6.7721009 0.84399509 44 88279960 408 23 100 9609
8.3538246 6.7079945 0.85786432 185 88279960 2133 24 42 10748
7.7215657 6.6763587 0.71969736 30 88279960 319 25 60 10233
0 0 0 7 88279960 0 26 84 0
6.6205974 6.620121 0.48198918 104 88279960 915 27 99 9375
8.1218882 6.5152273 0.4526023 33 88279960 354 28 51 10422
7.5541034 6.526958 0.33833104 75 88279960 747 29 18 9989
6.9302859 6.4363995 0.23329884 361 88279960 3229 30 27 9461
6.4181528 6.4129882 0.13556069 602 88279960 4960 31 72 9074
7.8629231 6.3068142 0.070371106 254 88279960 2583 32 88 10080
7.2739391 6.2802329 -0.024320265 463 88279960 4279 33 83 9610
6.7582884 6.2751217 -0.11010204 671 88279960 5710 34 88 9223
6.2531033 6.2400069 -0.18951853 825 88279960 6443 35 77 8836
7.6107793 6.0984607 -0.2896238 619 88279960 5892 36 126 9757
7.0520124 6.079607 -0.36419794 772 88279960 6706 37 76 9318
6.5593586 6.0852995 -0.43556616 813 88279960 6527 38 183 8958
6.0778189 6.0653014 -0.49945432 868 88279960 6424 39 78 8601
7.4011779 5.92097 -0.62903953 843 88279960 7607 40 105 9499
6.8798146 5.9257135 -0.68798614 802 88279960 6650 41 112 9106
6.4003501 5.9344583 -0.74520558 850 88279960 6521 42 128 8760
5.9386349 5.9199944 -0.79574782 917 88279960 6507 43 88 8423
7.2155933 5.7683716 -0.95366699 768 88279960 6625 44 111 9287
6.7184362 5.7820191 -0.99863476 717 88279960 5708 45 73 8920
6.2453046 5.7846203 -1.0402488 868 88279960 6385 46 107 8576
5.817101 5.7960086 -1.0843016 891 88279960 6112 47 127 8283
7.0559897 5.6310973 -1.2669688 808 88279960 6716 48 94 9116
6.5611367 5.6416626 -1.2983164 817 88279960 6252 49 44 8750
6.0934229 5.6380172 -1.3268821 851 88279960 6017 50 70 8407
5.6607385 5.637064 -1.3557892 945 88279960 6208 51 70 8103
6.867878 5.4709735 -1.5650154 869 88279960 6914 52 103 8919
6.3913236 5.4900227 -1.5833386 837 88279960 6153 53 93 8573
5.9731445 5.5232463 -1.6090816 901 88279960 6199 54 79 8293
5.55655 5.5335045 -1.6325392 932 88279960 5982 55 69 8010
6.6928573 5.3254437 -1.8554864 890 88279960 6817 56 108 8752
6.2488537 5.3619604 -1.8669416 830 88279960 5919 57 72 8443
5.832973 5.3915553 -1.8820553 839 88279960 5592 58 78 8163
5.4198451 5.3964243 -1.8927568 936 88279960 5813 59 74 7879
6.5547838 5.203074 -2.1476583 773 88279960 5768 60 50 8640
6.0957494 5.2217255 -2.1404853 836 88279960 5766 61 45 8307
5.6834607 5.2513347 -2.1453841 809 88279960 5213 62 55 8030
5.3120031 5.2934813 -2.1632631 364 88279960 2220 63 69 7805
7.9855547 6.3239131 3.1795106 567 88377040 6459 0 86 10671
7.7904687 6.6674275 3.0777347 637 88377040 7306 1 72 10706
7.5308657 6.9518085 2.9677136 36 88377040 407 2 28 10670
7.3986831 7.3647671 2.9160976 603 88377040 7080 3 44 10839
8.3179131 6.593967 2.8673968 605 88377040 7319 4 60 10995
7.9841456 6.8271518 2.7259927 41 88377040 479 5 38 10853
7.9499431 7.3330107 2.6941965 579 88377040 7196 6 88 11146
7.7397609 7.6886992 2.6078951 670 88377040 8434 7 74 11217
8.5642376 6.7919173 2.5188887 49 88377040 618 8 101 11217
8.5030022 7.276474 2.4618242 511 88377040 6714 9 80 11459
8.2948914 7.6428881 2.3678422 468 88377040 6210 10 55 11525
7.8550315 7.7896013 2.2145262 489 88377040 6218 11 56 11282
9.1179829 7.2334018 2.2330484 579 88377040 8130 12 133 11851
8.9235106 7.6303921 2.1318028 510 88377040 7268 13 76 11933
8.2896643 7.635129 1.9353315 497 88377040 6502 14 86 11435
7.2019081 7.1384287 1.6461762 680 88377040 7180 15 64 10273
9.4339552 7.4837976 1.8555732 480 88377040 7120 16 48 12184
8.7080946 7.4427729 1.6527867 465 88377040 6231 17 99 11574
7.589458 6.9826236 1.3885007 616 88377040 6673 18 83 10406
7.0114956 6.9412088 1.2336191 544 88377040 5379 19 108 9943
9.0101442 7.1473398 1.3439053 352 88377040 4722 20 91 11579
7.9949541 6.8310814 1.1264184 458 88377040 5126 21 84 10576
7.4367757 6.8356814 0.98490381 265 88377040 2734 22 67 10149
6.8399792 6.7640877 0.84821117 43 88377040 401 23 114 9657
8.422945 6.6789064 0.86073774 229 88377040 2669 24 59 10784
7.7987962 6.6599479 0.72307318 25 88377040 259 25 53 10281
0 0 0 7 88377040 0 26 109 0
6.7463555 6.6635895 0.48815867 80 88377040 721 27 116 9495
8.2462893 6.5322676 0.45729247 78 88377040 861 28 38 10530
7.6122561 6.4960542 0.33914393 57 88377040 569 29 34 10013
7.0403686 6.4586315 0.2356661 283 88377040 2582 30 39 9557
6.4830008 6.3987727 0.13609852 617 88377040 5124 31 72 9110
7.9673185 6.3106031 0.070957534 223 88377040 2307 32 79 10164
7.3488603 6.2666273 -0.02444174 482 88377040 4499 33 77 9658
6.823194 6.2578669 -0.11053181 636 88377040 5456 34 75 9259
6.3339939 6.2436323 -0.19080545 830 88377040 6570 35 92 8896
7.695086 6.088861 -0.29140478 608 88377040 5857 36 138 9817
7.1257014 6.0673161 -0.36607403 803 88377040 7047 37 81 9366
6.6407571 6.0854259 -0.43848357 775 88377040 6306 38 186 9018
6.157577 6.0699439 -0.50293845 827 88377040 6207 39 77 8661
7.493742 5.9199796 -0.63380748 773 88377040 7082 40 100 9571
6.9525003 5.9144006 -0.69161266 788 88377040 6601 41 136 9154
6.4719124 5.9273767 -0.74928892 831 88377040 6445 42 144 8808
6.0174088 5.9253545 -0.80141622 896 88377040 6451 43 63 8483
7.2883272 5.7535734 -0.95859593 757 88377040 6599 44 94 9335
6.7810454 5.7638555 -1.0026652 821 88377040 6588 45 71 8956
6.3070459 5.7703123 -1.0446155 873 88377040 6476 46 102 8612
5.869513 5.776897 -1.0874434 855 88377040 5899 47 127 8307
7.1277432 5.6171184 -1.2736402 789 88377040 6626 48 107 9164
6.6227665 5.6243434 -1.3036581 854 88377040 6595 49 71 8786
6.16289 5.6324992 -1.334458 858 88377040 6137 50 64 8455
5.7458258 5.6520033 -1.3678361 930 88377040 6216 51 112 8175
6.9477444 5.4652495 -1.5755435 850 88377040 6856 52 71 8979
6.4698558 5.4888511 -1.5944201 855 88377040 6374 53 91 8633
6.0329986 5.5103087 -1.6160668 847 88377040 5878 54 81 8329
5.6071486 5.5157833 -1.6374307 926 88377040 5979 55 68 8034
6.7715135 5.3205032 -1.8682067 864 88377040 6708 56 121 8812
6.3084202 5.3462157 -1.8749018 863 88377040 6207 57 68 8479
5.8831916 5.3714094 -1.8875887 827 88377040 5545 58 79 8187
5.4860744 5.39574 -1.9042878 897 88377040 5638 59 91 7927
6.6323266 5.1986094 -2.1625726 807 88377040 6112 60 66 8700
6.1719337 5.2216692 -2.1559458 803 88377040 5619 61 38 8367
5.7497401 5.2475433 -2.1582081 802 88377040 5236 62 71 8078
5.3772507 5.2931414 -2.1765668 388 88377040 2395 63 69 7853
8.0151834 6.2677393 3.175935 608 88473080 6911 0 81 10659
7.8136768 6.6046615 3.0708351 641 88473080 7317 1 94 10682
7.4711714 6.8122749 2.9276621 27 88473080 295 2 42 10526
7.4437332 7.319231 2.9160976 594 88473080 6973 3 56 10839
8.3582163 6.5428052 2.8673968 625 88473080 7558 4 87 10995
8.0880041 6.8304939 2.7470911 33 88473080 392 5 30 10937
7.9861808 7.2762504 2.6912959 564 88473080 6996 6 80 11134
7.8034525 7.6574125 2.6134748 612 88473080 7738 7 72 11241
8.5781317 6.7176113 2.5108044 21 88473080 267 8 75 11181
8.5653915 7.2392941 2.4669805 530 88473080 6993 9 79 11483
8.3676882 7.615562 2.3752387 519 88473080 6943 10 68 11561
7.9531131 7.7906604 2.2286589 478 88473080 6157 11 44 11354
9.1621952 7.1773186 2.2330484 522 88473080 7333 12 102 11851
8.9791822 7.5831127 2.1339464 519 88473080 7399 13 57 11945
8.3800974 7.6239157 1.9454863 452 88473080 5975 14 90 11495
7.2794271 7.1272507 1.6538678 594 88473080 6332 15 65 10321
9.5637255 7.4915934 1.8720212 445 88473080 6717 16 56 12292
8.8262053 7.4504905 1.6664958 465 88473080 6334 17 105 11670
7.6673646 6.9679179 1.3949054 581 88473080 6353 18 73 10454
7.1135468 6.9563322 1.2440408 564 88473080 5674 19 74 10027
9.2508736 7.2462649 1.3731534 422 88473080 5912 20 75 11831
8.1096697 6.8434572 1.1366432 448 88473080 5107 21 65 10672
7.5227914 6.8300633 0.99072647 286 88473080 2984 22 80 10209
6.8728027 6.7136383 0.84715712 21 88473080 197 23 101 9645
8.5296946 6.6787195 0.86744237 245 88473080 2899 24 67 10868
7.8761153 6.6428404 0.72644913 32 88473080 346 25 68 10329
0 0 0 3 88473080 0 26 83 0
6.8214264 6.6555452 0.49062642 77 88473080 703 27 94 9543
8.2484426 6.4520001 0.45520794 92 88473080 1006 28 47 10482
7.7069941 6.4955978 0.3415826 48 88473080 485 29 35 10085
7.0976448 6.4314218 0.23625791 308 88473080 2825 30 35 9581
6.5736876 6.4091296 0.13717414 565 88473080 4766 31 84 9182
8.0626011 6.3059535 0.07146018 192 88473080 2015 32 77 10236
7.4330664 6.2600684 -0.024593584 483 88473080 4565 33 71 9718
6.9059262 6.2561626 -0.11124807 653 88473080 5673 34 89 9319
6.3893757 6.2213888 -0.1913202 795 88473080 6326 35 101 8920
7.7984638 6.093225 -0.29389822 581 88473080 5694 36 128 9901
7.2270365 6.0775023 -0.36935723 754 88473080 6738 37 68 9450
6.7135162 6.0767374 -0.44081745 695 88473080 5715 38 196 9066
6.2462034 6.0821929 -0.50711948 850 88473080 6485 39 92 8733
7.5582485 5.8959813 -0.63619149 776 88473080 7161 40 122 9607
7.0436287 5.9178123 -0.69705254 809 88473080 6887 41 105 9226
6.5347605 5.9116178 -0.75235146 801 88473080 6263 42 146 8844
6.0964699 5.9299684 -0.80708456 772 88473080 5637 43 75 8543
7.3705649 5.7454376 -0.96475732 793 88473080 7002 44 95 9395
6.8619494 5.7604747 -1.0093825 825 88473080 6710 45 58 9016
6.3865204 5.7714362 -1.0518934 786 88473080 5912 46 113 8672
5.9304385 5.7656522 -1.0921561 882 88473080 6139 47 107 8343
7.2089672 5.6097679 -1.281979 834 88473080 7099 48 67 9224
6.693522 5.6141062 -1.3107803 800 88473080 6246 49 68 8834
6.241313 5.6342793 -1.3439277 806 88473080 5847 50 58 8515
5.8143377 5.6496196 -1.3758676 908 88473080 6143 51 66 8223
7.0277977 5.4587512 -1.5860718 863 88473080 7052 52 103 9039
6.5395727 5.4793468 -1.6032852 843 88473080 6355 53 88 8681
6.1016583 5.5047297 -1.6253803 815 88473080 5721 54 91 8377
5.6745896 5.5140233 -1.6472138 916 88473080 5986 55 63 8082
6.8318291 5.3004198 -1.875839 851 88473080 6660 56 140 8848
6.3770027 5.3374529 -1.8855158 864 88473080 6279 57 53 8527
5.9854097 5.3977699 -1.9097223 719 88473080 4930 58 51 8283
5.5357885 5.3782105 -1.9100533 911 88473080 5761 59 85 7951
6.7192507 5.2005014 -2.1804698 833 88473080 6414 60 60 8772
6.2394471 5.2134385 -2.168314 834 88473080 5903 61 46 8415
5.8075972 5.2353935 -2.1678264 803 88473080 5283 62 57 8114
5.3848286 5.2359343 -2.166589 628 88473080 3835 63 51 7817
8.0353575 6.2044396 3.1687839 603 88570410 6821 0 100 10635
7.8628783 6.5639591 3.0742848 663 88570410 7586 1 79 10694
7.5042653 6.7585902 2.9243245 29 88570410 318 2 32 10514
7.488503 7.2734194 2.9160976 622 88570410 7313 3 66 10839
8.4165354 6.5055661 2.8736556 624 88570410 7579 4 89 11019
8.1565237 6.8030577 2.7561336 39 88570410 467 5 25 10973
8.0306768 7.2271109 2.6912959 565 88570410 7007 6 90 11134
7.8335304 7.5931416 2.6078951 630 88570410 7933 7 58 11217
8.6654406 6.7006154 2.5242779 30 88570410 382 8 86 11241
8.6366415 7.2091322 2.4747145 498 88570410 6612 9 81 11519
8.4229927 7.5719266 2.3777041 543 88570410 7278 10 72 11573
8.043046 7.7826257 2.2404363 498 88570410 6484 11 30 11414
9.2153835 7.1281757 2.2353096 577 88570410 8119 12 123 11863
9.0346098 7.5354376 2.1360903 556 88570410 7955 13 77 11957
8.4970951 7.6355925 1.9617339 411 88570410 5524 14 90 11591
7.5103369 7.2636123 1.696172 417 88570410 4675 15 79 10585
9.6845627 7.4908199 1.8866415 503 88570410 7712 16 55 12388
8.9082451 7.4266148 1.6733501 483 88570410 6638 17 67 11718
7.780776 6.9842944 1.407715 626 88570410 6972 18 66 10550
7.1989174 6.953917 1.251485 580 88570410 5906 19 64 10087
9.3894405 7.2622871 1.3870811 415 88570410 5933 20 72 11951
8.1973362 6.8317628 1.1430335 510 88570410 5875 21 101 10732
7.6179075 6.8316188 0.99771363 303 88570410 3198 22 57 10281
7.120316 6.8705478 0.87245327 86 88570410 849 23 115 9933
8.6272926 6.670155 0.87318909 272 88570410 3261 24 63 10940
7.9903064 6.6556778 0.73320085 45 88570410 494 25 59 10425
7.3911552 6.6278048 0.6049363 24 88570410 239 26 96 9946
6.9139094 6.6634631 0.49432811 86 88570410 796 27 97 9615
8.3448057 6.4452376 0.45833474 85 88570410 952 28 59 10554
7.8481007 6.5325856 0.34605351 31 88570410 320 29 35 10217
7.1995468 6.4437542 0.23832928 250 88570410 2331 30 50 9665
6.6301742 6.3853202 0.1375327 524 88570410 4444 31 72 9206
8.1201372 6.2710328 0.071627729 148 88570410 1562 32 66 10260
7.5174665 6.2527103 -0.024745429 392 88570410 3751 33 77 9778
6.9799519 6.245676 -0.11182109 623 88570410 5468 34 98 9367
6.4706631 6.2236509 -0.1926071 786 88570410 6339 35 101 8980
7.8926859 6.089221 -0.29603544 586 88570410 5829 36 109 9973
7.3010883 6.0636873 -0.37123328 690 88570410 6229 37 67 9498
6.7953529 6.0753732 -0.44373485 753 88570410 6274 38 186 9126
6.3093071 6.0686665 -0.50920993 866 88570410 6662 39 79 8769
7.6701703 5.9079461 -0.64254874 794 88570410 7478 40 81 9703
7.0982232 5.8897634 -0.69886571 802 88570410 6862 41 114 9250
6.6154885 5.911243 -0.75745553 814 88570410 6450 42 156 8904
6.1585841 5.9172802 -0.8104856 863 88570410 6355 43 62 8579
7.4718928 5.7510681 -0.97338307 771 88570410 6929 44 105 9479
6.9430647 5.7563157 -1.0160997 813 88570410 6701 45 63 9076
6.4573579 5.7638679 -1.0577157 867 88570410 6593 46 112 8720
6.0086079 5.7703576 -1.1000105 876 88570410 6184 47 133 8403
7.271522 5.5871501 -1.2869824 801 88570410 6870 48 88 9260
6.7826772 5.6183505 -1.3214636 813 88570410 6451 49 76 8906
6.3111439 5.6274223 -1.3515037 854 88570410 6258 50 54 8563
5.8659644 5.6302223 -1.3798833 934 88570410 6354 51 84 8247
7.0892825 5.4370956 -1.5923887 847 88570410 6977 52 102 9075
6.6185002 5.4767103 -1.6143664 868 88570410 6635 53 73 8741
6.1704745 5.4985132 -1.6346935 814 88570410 5779 54 94 8425
5.7337427 5.5035062 -1.6545509 897 88570410 5914 55 73 8118
6.9200802 5.3011904 -1.8911034 843 88570410 6706 56 125 8920
6.4547343 5.335505 -1.8987833 818 88570410 6033 57 88 8587
6.0358558 5.3764758 -1.9152558 759 88570410 5234 58 49 8307
5.6023026 5.3764048 -1.9215842 895 88570410 5728 59 79 7999
6.7695045 5.1732903 -2.1864355 795 88570410 6148 60 54 8796
6.3070912 5.2045751 -2.1806822 823 88570410 5892 61 42 8463
5.9000659 5.253489 -2.1902688 751 88570410 5050 62 63 8198
5.4334855 5.2187691 -2.1732409 571 88570410 3508 63 53 7841
8.1006041 6.1758537 3.1795106 565 88667880 6437 0 81 10671
7.9118743 6.5229011 3.0777347 627 88667880 7190 1 83 10706
7.6058779 6.7660456 2.9476879 17 88667880 187 2 43 10598
7.5413308 7.2353354 2.9193261 620 88667880 7295 3 54 10851
8.456295 6.4538007 2.8736556 595 88667880 7227 4 86 11019
8.2160435 6.767652 2.7621617 38 88667880 456 5 33 10997
8.0661669 7.1699638 2.6883953 573 88667880 7091 6 85 11122
7.8799734 7.5449328 2.6078951 632 88667880 7957 7 68 11217
8.6878042 6.6331272 2.5188887 35 88667880 447 8 58 11217
8.6626272 7.1410933 2.4695585 512 88667880 6769 9 87 11495
8.4605122 7.5123038 2.3752387 556 88667880 7437 10 70 11561
8.1416845 7.781909 2.2545691 506 88667880 6671 11 41 11486
9.2402153 7.0571904 2.2307875 553 88667880 7750 12 124 11839
9.0442228 7.4498329 2.1275151 541 88667880 7679 13 69 11909
8.5880127 7.6225667 1.9718888 440 88667880 5977 14 79 11651
7.8117051 7.4628596 1.7538595 409 88667880 4903 15 77 10945
9.6926403 7.4024611 1.8793312 485 88667880 7379 16 48 12340
9.0178299 7.4246597 1.6853455 444 88667880 6188 17 87 11802
7.8679786 6.9758701 1.4157209 593 88667880 6679 18 77 10610
7.2845235 6.9507141 1.2589291 569 88667880 5862 19 74 10147
9.4906597 7.2479424 1.3954378 409 88667880 5916 20 91 12023
8.3035889 6.834415 1.1519802 489 88667880 5723 21 96 10816
7.7043848 6.8243437 1.0035363 270 88667880 2892 22 66 10341
7.153686 6.8184814 0.87139928 93 88667880 915 23 120 9921
8.7251053 6.6606426 0.87893581 283 88667880 3437 24 65 11012
8.10495 6.6673622 0.73995268 55 88667880 614 25 63 10521
7.4496164 6.5982122 0.60639602 115 88667880 1144 26 101 9970
7.0675025 6.7283368 0.50234842 56 88667880 536 27 94 9771
8.4890575 6.4738827 0.46406719 96 88667880 1092 28 45 10686
0 0 0 8 88667880 0 29 40 0
7.2838879 6.4391847 0.23980881 225 88667880 2125 30 41 9725
6.730083 6.4024091 0.13878763 436 88667880 3765 31 86 9290
8.2729673 6.308404 0.072633035 112 88667880 1216 32 79 10404
7.6020536 6.2445502 -0.02489727 437 88667880 4232 33 84 9838
7.0720882 6.2504077 -0.1126806 599 88667880 5339 34 95 9439
6.552217 6.2251472 -0.193894 814 88667880 6654 35 77 9040
7.9776087 6.0770202 -0.29781649 553 88667880 5563 36 149 10033
7.3937845 6.0644002 -0.37404746 733 88667880 6717 37 71 9570
6.8594556 6.0573645 -0.44548529 774 88667880 6499 38 200 9162
6.3811646 6.0628452 -0.51199728 819 88667880 6370 39 79 8817
7.7634606 5.9042611 -0.64731669 765 88667880 7310 40 104 9775
7.208271 5.9067721 -0.70611888 739 88667880 6456 41 105 9346
6.6785283 5.8942752 -0.76051807 828 88667880 6617 42 113 8940
6.2207708 5.9040523 -0.8138867 902 88667880 6696 43 86 8615
7.5355511 5.7267809 -0.97707987 751 88667880 6800 44 114 9515
7.0243869 5.7513776 -1.022817 734 88667880 6129 45 81 9136
6.5194073 5.7477698 -1.0620824 862 88667880 6609 46 116 8756
6.0784249 5.7661309 -1.106294 883 88667880 6304 47 146 8451
7.3340697 5.5639749 -1.2919859 803 88667880 6940 48 96 9296
6.8537645 5.6066833 -1.3285859 812 88667880 6513 49 66 8954
6.3722315 5.6120863 -1.3571855 827 88667880 6118 50 61 8599
5.9261565 5.6185427 -1.3859066 933 88667880 6404 51 69 8283
7.1696014 5.4291534 -1.6029168 824 88667880 6876 52 123 9135
6.6793766 5.4583855 -1.6210153 870 88667880 6704 53 89 8777
6.2394438 5.4916592 -1.644007 832 88667880 5976 54 72 8473
5.7929797 5.4924707 -1.6618882 905 88667880 6020 55 65 8154
6.9898901 5.2869277 -1.9012798 845 88667880 6797 56 91 8968
6.5145478 5.3180008 -1.9067435 793 88667880 5898 57 82 8623
6.0862651 5.3547654 -1.9207892 830 88667880 5757 58 57 8331
5.6605477 5.3659706 -1.9302325 912 88667880 5890 59 75 8035
6.8660688 5.1806622 -2.2073154 692 88667880 5461 60 60 8880
6.3838482 5.2024012 -2.1961427 855 88667880 6209 61 34 8523
5.9408731 5.2248249 -2.1934748 797 88667880 5374 62 79 8210
5.5657773 5.28056 -2.2131526 530 88667880 3382 63 69 7985
8.1291943 6.1191444 3.175935 594 88765610 6754 0 64 10659
7.9695749 6.4887457 3.0846341 656 88765610 7555 1 97 10730
7.7251806 6.7877226 2.9777265 19 88765610 214 2 34 10706
7.5604177 7.1650758 2.9096406 334 88765610 3903 3 34 10815
8.4957352 6.4017925 2.8736556 607 88765610 7371 4 101 11019
8.1042347 6.5925059 2.710922 27 88765610 311 5 38 10793
8.13626 7.143383 2.6970971 566 88765610 7049 6 100 11158
7.943078 7.5124788 2.6134748 608 88765610 7689 7 58 11241
8.7283401 6.5796947 2.5188887 39 88765610 496 8 70 11217
8.7062807 7.0878062 2.4695585 504 88765610 6663 9 91 11495
8.5064478 7.4602499 2.3752387 555 88765610 7425 10 58 11561
8.2577257 7.7964287 2.2734127 505 88765610 6768 11 52 11582
9.3021631 7.0145521 2.2353096 569 88765610 8010 12 96 11863
9.1264009 7.4240017 2.1360903 549 88765610 7855 13 76 11957
8.7057676 7.6320996 1.9881364 412 88765610 5687 14 98 11747
8.012414 7.5611186 1.7884719 506 88765610 6308 15 68 11161
9.7568178 7.3571301 1.8829864 522 88765610 7974 16 45 12364
9.1553698 7.4441156 1.7024817 476 88765610 6768 17 97 11922
7.955368 6.9666367 1.4237269 613 88765610 6984 18 62 10670
7.3616958 6.9385548 1.2648845 559 88765610 5813 19 83 10195
9.6206045 7.2541547 1.4079727 432 88765610 6360 20 100 12131
8.3916626 6.8209653 1.1583705 483 88765610 5716 21 89 10876
7.8000455 6.8241267 1.0105236 343 88765610 3724 22 65 10413
7.2302017 6.8072357 0.87561536 95 88765610 945 23 108 9969
8.8326759 6.6573796 0.88564044 317 88765610 3909 24 61 11096
8.210743 6.6703401 0.74586046 73 88765610 816 25 52 10605
7.4989772 6.5602646 0.60712588 31 88765610 310 26 106 9982
7.0911927 6.6684251 0.50111455 48 88765610 460 27 70 9747
8.5956621 6.4721518 0.46771508 106 88765610 1224 28 51 10770
7.9183631 6.4282265 0.34564707 10 88765610 101 29 39 10205
7.3955522 6.4574919 0.24217607 207 88765610 1994 30 37 9821
6.7954717 6.3856425 0.13932543 481 88765610 4187 31 68 9326
8.3690386 6.300828 0.073135689 108 88765610 1180 32 52 10476
7.6775036 6.2280269 -0.025018746 407 88765610 3974 33 50 9886
7.1555042 6.2463517 -0.11339687 578 88765610 5218 34 88 9499
6.6252832 6.2176666 -0.19492353 771 88765610 6369 35 91 9088
8.0818481 6.0784245 -0.3003099 409 88765610 4184 36 140 10117
7.4774437 6.0566545 -0.37639257 700 88765610 6494 37 85 9630
6.9416571 6.0545535 -0.44840267 792 88765610 6739 38 185 9222
6.4444513 6.0481715 -0.5140878 817 88765610 6406 39 84 8853
7.837842 5.885273 -0.65049541 721 88765610 6957 40 110 9823
7.2815843 5.89254 -0.70974535 782 88765610 6901 41 118 9394
6.7686462 5.9003248 -0.76664299 852 88765610 6919 42 121 9012
6.2830262 5.8902822 -0.81728762 866 88765610 6483 43 83 8651
7.6373825 5.7305841 -0.98570579 736 88765610 6782 44 116 9599
7.0966344 5.7381582 -1.0281907 760 88765610 6406 45 55 9184
6.6174326 5.7624149 -1.0722713 841 88765610 6572 46 122 8840
6.1484156 5.7612643 -1.1125776 878 88765610 6341 47 129 8499
7.425139 5.561614 -1.3019925 785 88765610 6890 48 106 9368
6.9434247 5.6092682 -1.339269 797 88765610 6489 49 56 9026
6.4423084 5.6039896 -1.3647615 822 88765610 6148 50 83 8647
5.9950614 5.6144228 -1.3939381 899 88765610 6242 51 85 8331
7.2500882 5.4204292 -1.6134452 855 88765610 7232 52 72 9195
6.7678089 5.4617381 -1.6343129 785 88765610 6149 53 83 8849
6.2996755 5.4764414 -1.650992 827 88765610 5991 54 63 8509
5.8608713 5.488945 -1.6716713 908 88765610 6111 55 71 8202
7.0691805 5.2790236 -1.9140004 853 88765610 6952 56 110 9028
6.6017222 5.3219976 -1.9226645 789 88765610 5967 57 78 8695
6.1454482 5.3402977 -1.9290894 837 88765610 5862 58 65 8367
5.7273769 5.3629842 -1.9417633 869 88765610 5679 59 86 8083
6.944334 5.1731548 -2.2222297 649 88765610 5185 60 38 8940
6.4517808 5.1922102 -2.2085109 797 88765610 5852 61 52 8571
6.0252008 5.2337747 -2.2127111 789 88765610 5415 62 58 8282
5.5980735 5.2463098 -2.2131526 768 88765610 4899 63 72 7985
8.1849756 6.0828147 3.1830859 569 88862830 6498 0 75 10683
7.9913244 6.4253192 3.0777347 668 88862830 7660 1 85 10706
7.7579784 6.7326388 2.9743888 33 88862830 375 2 25 10694
7.401741 6.9289865 2.8321579 22 88862830 241 3 32 10527
8.5441513 6.3564577 2.876785 620 88862830 7546 4 98 11031
8.1173677 6.5208325 2.70188 25 88862830 287 5 26 10757
8.1799383 7.0933256 2.6970971 596 88862830 7423 6 88 11158
7.9890246 7.4635997 2.6134748 628 88862830 7930 7 52 11241
8.7873087 6.5399776 2.5242779 30 88862830 384 8 70 11241
8.777009 7.0562816 2.4772925 484 88862830 6438 9 97 11531
8.5609398 7.4156041 2.3777041 547 88862830 7320 10 56 11573
8.3656445 7.8017893 2.289901 495 88862830 6731 11 46 11666
9.3544817 6.9643807 2.2375708 566 88862830 7982 12 111 11875
9.1625767 7.3604689 2.1339464 566 88862830 8082 13 70 11945
8.7971382 7.6172466 1.998291 429 88862830 5982 14 103 11807
8.1019802 7.5521955 1.7980866 512 88862830 6450 15 77 11221
9.8208036 7.3112898 1.8866415 504 88862830 7728 16 49 12388
9.2564402 7.432416 1.7127634 470 88862830 6766 17 76 11994
8.150878 7.049952 1.4509472 386 88862830 4568 18 74 10874
7.4564214 6.9419351 1.2738173 528 88862830 5567 19 102 10267
9.7222977 7.2376914 1.4163294 401 88862830 5978 20 67 12203
8.4798822 6.8066916 1.1647609 518 88862830 6198 21 90 10936
7.8869557 6.8151822 1.0163462 361 88862830 3965 22 61 10473
7.3156004 6.8034458 0.8808853 100 88862830 1007 23 106 10029
8.9117432 6.6316214 0.88947153 303 88862830 3768 24 66 11144
8.2888641 6.649797 0.7492364 96 88862830 1085 25 47 10653
0 0 0 7 88862830 0 26 91 0
7.1583171 6.6492562 0.50296533 40 88862830 386 27 82 9783
8.7218046 6.4836597 0.47240525 96 88862830 1141 28 65 10878
8.1167316 6.5070467 0.35255662 18 88862830 193 29 26 10409
7.4895434 6.4590001 0.24395153 178 88862830 1739 30 39 9893
6.8784966 6.3846402 0.1402218 448 88862830 3949 31 89 9386
8.4364338 6.270833 0.073387012 92 88862830 1020 32 81 10512
7.7998629 6.2483234 -0.025292063 384 88862830 3840 33 70 9994
7.2300477 6.2336702 -0.11396988 557 88862830 5078 34 103 9547
6.698503 6.2095222 -0.19595307 756 88862830 6312 35 77 9136
8.1864033 6.0787759 -0.30280334 500 88862830 5202 36 126 10201
7.5612855 6.0481095 -0.37873772 710 88862830 6670 37 74 9690
7.0059195 6.035315 -0.45015311 823 88862830 7050 38 169 9258
6.534153 6.0573816 -0.51826876 804 88862830 6406 39 96 8925
7.9218993 5.8727231 -0.65446866 715 88862830 6983 40 120 9883
7.3736892 5.8925705 -0.71518523 798 88862830 7152 41 90 9466
6.8409662 5.8898873 -0.77072632 816 88862830 6696 42 133 9060
6.3628764 5.8922043 -0.82295609 881 88862830 6688 43 78 8711
7.7299495 5.7262454 -0.99309927 689 88862830 6445 44 115 9671
7.1783018 5.7317095 -1.0349081 797 88862830 6814 45 65 9244
6.6797581 5.7450037 -1.0766381 850 88862830 6698 46 106 8876
6.2011123 5.7395921 -1.1157193 866 88862830 6291 47 108 8523
7.5260086 5.5654097 -1.3136672 774 88862830 6917 48 89 9452
6.9962654 5.5813603 -1.3428302 786 88862830 6440 49 74 9050
6.521513 5.6029654 -1.3742313 860 88862830 6522 50 76 8707
6.064137 5.6096678 -1.4019694 903 88862830 6343 51 69 8379
7.3212304 5.4039044 -1.6218675 839 88862830 7170 52 85 9243
6.8288636 5.4421592 -1.6409616 824 88862830 6505 53 115 8885
6.3778167 5.476027 -1.6626337 817 88862830 6000 54 93 8569
5.9375596 5.4927692 -1.6838999 880 88862830 6009 55 79 8262
7.1486344 5.2703438 -1.9267206 824 88862830 6806 56 108 9088
6.6617208 5.3032565 -1.9306248 846 88862830 6445 57 56 8731
6.2135425 5.3329082 -1.9401562 839 88862830 5943 58 76 8415
5.785831 5.3514695 -1.9504116 870 88862830 5736 59 86 8119
7.0227633 5.1648798 -2.237144 767 88862830 6211 60 33 9000
6.5198278 5.1813807 -2.2208793 749 88862830 5561 61 49 8619
