# .PCD v0.7 - Point Cloud Data file format
VERSION 0.7
FIELDS x y z intensity t reflectivity ring noise range
SIZE 4 4 4 4 4 2 1 2 4
TYPE F F F F U U U U U
COUNT 1 1 1 1 1 1 1 1 1
WIDTH 771
HEIGHT 1
VIEWPOINT 0 0 0 1 0 0 0
POINTS 771
DATA ascii
0.66738951 -2.021009 0.052499022 291 20217380 132 30 38 2129
0.72314924 -1.9478644 0.031044204 334 20217380 144 31 59 2078
0.49484804 -1.9666493 0.014157997 324 20217380 133 32 50 2028
0.58523577 -2.0147147 -0.0053094607 313 20217380 138 33 66 2098
0.66040242 -2.0006711 -0.025152879 305 20217380 136 34 63 2107
0.73917347 -1.9949745 -0.045642305 328 20217380 148 35 57 2128
0.49684593 -1.9786751 -0.060584415 352 20217380 147 36 90 2041
0.57219321 -1.9752188 -0.080437794 340 20217380 144 37 53 2058
0.6547662 -1.9863914 -0.10181687 368 20217380 161 38 90 2094
0.72737795 -1.963034 -0.12177138 359 20217380 158 39 68 2097
0.49296892 -1.9697833 -0.13476108 393 20217380 163 40 63 2035
0.57120764 -1.9751697 -0.15579039 337 20217380 143 41 66 2062
0.65448189 -1.9873953 -0.17864518 369 20217380 163 42 152 2100
0.7291249 -1.9710212 -0.19943292 389 20217380 174 43 63 2111
0.49172077 -1.9677122 -0.2093816 406 20217380 169 44 68 2039
0.56679934 -1.9628786 -0.23017858 368 20217380 155 45 42 2056
0.64229631 -1.9538356 -0.25132874 363 20217380 156 46 88 2072
0.73524296 -1.9890536 -0.28000981 369 20217380 169 47 103 2139
0.48430589 -1.9449663 -0.28130159 398 20217380 163 48 50 2024
0.57582015 -1.9973878 -0.31189269 370 20217380 163 49 51 2102
0.65241694 -1.9881302 -0.33444312 392 20217380 176 50 42 2119
0.73471642 -1.9893371 -0.35990405 383 20217380 177 51 75 2151
0.47855806 -1.9292054 -0.35427359 415 20217380 169 52 57 2019
0.56227589 -1.9541214 -0.3821215 378 20217380 162 53 59 2069
0.645688 -1.9697133 -0.4099831 390 20217380 174 54 66 2113
0.71842068 -1.9451098 -0.43167514 424 20217380 190 55 55 2118
0.48548362 -1.9618125 -0.43843073 439 20217380 188 56 88 2068
0.55747873 -1.9412739 -0.45794573 407 20217380 174 57 49 2071
0.64432937 -1.9668446 -0.49039957 414 20217380 187 58 52 2127
0.72864246 -1.973315 -0.52057415 465 20217380 219 59 58 2167
0.48076281 -1.9525245 -0.5160346 452 20217380 195 60 16 2076
0.56241518 -1.9646664 -0.54497731 437 20217380 195 61 27 2115
0.63382727 -1.9360425 -0.56479973 408 20217380 182 62 36 2114
0.72136772 -1.951098 -0.60005951 400 20217380 187 63 46 2165
0.3114433 -1.2711301 0.40850049 386 20315470 73 0 1 1371
0.480571 -1.6815981 0.52493399 348 20315470 116 1 29 1826
0.64163226 -1.9629602 0.5979929 362 20315470 167 2 36 2150
0.70934933 -1.9218458 0.5722428 408 20315470 184 3 57 2127
0.32667315 -1.3303757 0.37006238 456 20315470 92 4 1 1419
0.38055685 -1.3338344 0.35993251 418 20315470 86 5 1 1433
0.63176167 -1.935279 0.50712579 375 20315470 165 6 82 2098
0.70428199 -1.9140793 0.48754176 435 20315470 191 7 53 2097
0.34534714 -1.4052606 0.33347145 185 20315470 41 8 21 1485
0.53743744 -1.8809559 0.43031973 352 20315470 141 9 50 2003
0.63460684 -1.9475659 0.43001249 374 20315470 164 10 38 2093
0.70598894 -1.9238974 0.41024286 407 20315470 178 11 30 2090
0.32810324 -1.3341887 0.26360938 408 20315470 80 12 18 1399
0.54556578 -1.9121832 0.36104697 347 20315470 142 13 43 2021
0.62955397 -1.933319 0.34915513 335 20315470 143 14 71 2063
0.71395624 -1.94708 0.33667052 386 20315470 170 15 57 2101
0.43141207 -1.7544124 0.27839687 302 20315470 101 16 1 1828
0.56166196 -1.9702938 0.29559949 373 20315470 160 17 43 2070
0.63660038 -1.9585565 0.27727315 317 20315470 137 18 57 2078
0.71856493 -1.9633585 0.26141357 342 20315470 152 19 69 2107
0.48356327 -1.9666424 0.23665455 343 20315470 143 20 26 2039
0.56012493 -1.9660734 0.21897845 332 20315470 141 21 66 2056
0.63684946 -1.9624683 0.2011731 339 20315470 146 22 50 2073
0.72918308 -1.9957159 0.18734953 358 20315470 163 23 110 2133
0.48135406 -1.9592798 0.16154797 350 20315470 143 24 20 2024
0.57261342 -2.0119076 0.14748415 347 20315470 153 25 59 2097
0.63522756 -1.957703 0.1254151 341 20315470 145 26 86 2062
0.7195915 -1.973096 0.10811982 317 20315470 140 27 87 2103
0.48100361 -1.9619911 0.087810576 409 20315470 167 28 4 2022
0.56207198 -1.977491 0.06967134 313 20315470 132 29 10 2057
0.65497631 -2.0250659 0.052499022 293 20315470 133 30 33 2129
0.71118379 -1.9522649 0.031044204 349 20315470 151 31 55 2078
0.48848486 -1.9929579 0.014325546 336 20315470 142 32 58 2052
0.56303281 -1.9836358 -0.0052183545 317 20315470 135 33 42 2062
0.64442289 -1.9932684 -0.025009625 317 20315470 139 34 74 2095
0.72281951 -1.9881974 -0.045384929 359 20315470 161 35 63 2116
0.48469564 -1.9816865 -0.060584415 328 20315470 137 36 81 2041
0.56659406 -2.0017676 -0.081375837 314 20315470 136 37 60 2082
0.64993024 -2.0131838 -0.10298382 342 20315470 153 38 124 2118
0.71941268 -1.978719 -0.12246822 365 20315470 162 39 49 2109
0.47803763 -1.9611379 -0.13396642 419 20315470 171 40 38 2023
0.55907744 -1.9786373 -0.15579039 347 20315470 147 41 57 2062
0.62759453 -1.9458565 -0.17456186 356 20315470 150 42 123 2052
0.71294135 -1.9642286 -0.19829926 362 20315470 159 43 54 2099
0.47963783 -1.9706923 -0.2093816 419 20315470 174 44 47 2039
0.54826909 -1.9433664 -0.22749169 361 20315470 149 45 44 2032
0.63394612 -1.9690782 -0.25278434 382 20315470 166 46 95 2084
0.714912 -1.9711596 -0.27686805 371 20315470 166 47 103 2115
0.47796381 -1.9709989 -0.28463715 354 20315470 148 48 57 2048
0.54746735 -1.9437697 -0.30298996 366 20315470 152 49 35 2042
0.63295466 -1.9695331 -0.33065516 400 20315470 175 50 50 2095
0.71040422 -1.9604386 -0.35388055 371 20315470 166 51 53 2115
0.47225949 -1.9550725 -0.35848483 412 20315470 172 52 57 2043
0.55027503 -1.9575346 -0.3821215 415 20315470 178 53 65 2069
0.62999159 -1.9624295 -0.40765473 395 20315470 175 54 62 2101
0.71848023 -1.982617 -0.43901241 427 20315470 198 55 40 2154
0.4706898 -1.9533535 -0.43588662 409 20315470 173 56 73 2056
0.54871798 -1.9559261 -0.46059921 383 20315470 166 57 48 2083
0.6393829 -1.992998 -0.49593297 416 20315470 192 58 51 2151
0.71652073 -1.9777486 -0.52057415 454 20315470 213 59 82 2167
0.47148293 -1.9667407 -0.5190174 447 20315470 195 60 23 2088
0.55034959 -1.9680803 -0.54497731 441 20315470 197 61 49 2115
0.63252711 -1.9729303 -0.57441789 400 20315470 185 62 46 2150
0.70938241 -1.9554874 -0.60005951 412 20315470 193 63 50 2165
0.31161094 -1.3064443 0.419227 404 20412030 80 0 11 1407
0.37753424 -1.3524092 0.42144209 405 20412030 87 1 16 1466
0.61903393 -1.9339268 0.58797997 359 20412030 160 2 39 2114
0.69360834 -1.9152951 0.56901431 396 20412030 177 3 38 2115
0.31042352 -1.2985532 0.3606739 441 20412030 84 4 1 1383
0.37236544 -1.3361443 0.35993251 452 20412030 93 5 1 1433
0.61987513 -1.939119 0.50712579 365 20412030 161 6 79 2098
0.70045 -1.9403201 0.49312162 419 20412030 188 7 56 2121
0.33127624 -1.384608 0.32808203 206 20412030 44 8 39 1461
0.4250671 -1.5229901 0.3478221 334 20412030 87 9 39 1619
0.61193526 -1.9178582 0.42261621 363 20412030 153 10 52 2057
0.69815642 -1.9392638 0.41259828 378 20412030 167 11 35 2102
0.3171666 -1.3247157 0.26134828 416 20412030 80 12 33 1387
0.54016185 -1.9382417 0.36533448 362 20412030 151 13 36 2045
0.62127239 -1.9484133 0.35118607 337 20412030 145 14 65 2075
0.70199573 -1.9514241 0.33667052 387 20412030 171 15 46 2101
0.32675466 -1.3648674 0.21626016 378 20412030 76 16 1 1420
0.54637599 -1.9622611 0.29388586 375 20412030 159 17 38 2058
0.6281777 -1.9737585 0.27887437 344 20412030 150 18 54 2090
0.69443315 -1.9341102 0.2569471 356 20412030 153 19 79 2071
0.47148708 -1.9695724 0.23665455 333 20412030 138 20 32 2039
0.55444831 -1.9924634 0.22153464 335 20412030 145 21 60 2080
0.62117922 -1.9549564 0.20000856 313 20412030 133 22 61 2061
0.70482391 -1.9663945 0.18418752 326 20412030 143 23 119 2097
0.48045322 -2.0087306 0.16537914 320 20412030 137 24 31 2072
0.55063963 -1.9807843 0.14495224 331 20412030 141 25 58 2061
0.62683016 -1.9729794 0.12614498 315 20412030 135 26 108 2074
0.70343435 -1.9661903 0.10750287 321 20412030 140 27 87 2091
0.46895599 -1.9649056 0.087810576 393 20412030 161 28 10 2022
0.55955213 -2.0155709 0.070890673 300 20412030 131 29 33 2093
0.64253837 -2.0290465 0.052499022 297 20412030 135 30 33 2129
0.71130455 -1.9904885 0.031582024 343 20412030 153 31 74 2114
0.46789187 -1.9609016 0.014074221 327 20412030 133 32 36 2016
0.55085087 -1.9870532 -0.0052183545 327 20412030 139 33 55 2062
0.62493813 -1.9743055 -0.02472312 327 20412030 140 34 66 2071
0.71060658 -1.9925951 -0.045384929 357 20412030 160 35 57 2116
0.48086175 -2.0196288 -0.061653029 327 20412030 141 36 79 2077
0.54152155 -1.958977 -0.079499744 344 20412030 142 37 42 2034
0.63034081 -1.9942769 -0.10181687 344 20412030 151 38 96 2094
0.70323372 -1.9718122 -0.12177138 336 20412030 148 39 65 2097
0.47152373 -1.9873348 -0.13555574 397 20412030 166 40 69 2047
0.55010915 -1.9935653 -0.15669703 345 20412030 148 41 51 2074
0.61924344 -1.9610723 -0.17558269 360 20412030 153 42 138 2064
0.70888948 -1.9910747 -0.20056662 364 20412030 164 43 47 2123
0.46478534 -1.9619832 -0.20814934 402 20412030 165 44 81 2027
0.54583651 -1.9811826 -0.23152205 360 20412030 154 45 29 2068
0.62185216 -1.9729309 -0.25278434 328 20412030 143 46 86 2084
0.69482869 -1.953092 -0.27372628 367 20412030 160 47 100 2091
0.46040168 -1.950763 -0.28130159 394 20412030 161 48 38 2024
0.54497159 -1.9814192 -0.30833161 342 20412030 148 49 43 2078
0.63152659 -2.0072899 -0.33633706 393 20412030 178 50 41 2131
0.69836187 -1.9647607 -0.35388055 386 20412030 173 51 71 2115
0.45755112 -1.9464332 -0.35637924 416 20412030 171 52 56 2031
0.53513169 -1.9495014 -0.37990525 403 20412030 171 53 61 2057
0.62499732 -1.9887189 -0.4123114 373 20412030 169 54 79 2125
0.70236683 -1.9759189 -0.43656668 435 20412030 199 55 38 2142
0.46137261 -1.9676224 -0.43843073 408 20412030 175 56 82 2068
0.53670633 -1.9592561 -0.46059921 402 20412030 174 57 50 2083
0.60964859 -1.9411826 -0.48209944 389 20412030 170 58 48 2091
0.69267035 -1.9491795 -0.511926 427 20412030 194 59 61 2131
0.45940638 -1.9695966 -0.5190174 464 20412030 202 60 19 2088
0.53520942 -1.9602349 -0.54188526 426 20412030 188 61 27 2103
0.61348408 -1.954708 -0.5680058 408 20412030 184 62 48 2126
0.69350505 -1.9489405 -0.59673357 409 20412030 189 63 51 2153
0.30617809 -1.3194901 0.42280248 425 20510020 86 0 1 1419
0.35109487 -1.2881665 0.40074369 434 20510020 84 1 3 1394
0.59336996 -1.8936919 0.57462943 314 20510020 134 2 46 2066
0.6779747 -1.9086242 0.56578588 386 20510020 171 3 43 2103
0.29982561 -1.28915 0.35754442 407 20510020 76 4 17 1371
0.36111051 -1.3271962 0.35691842 440 20510020 89 5 1 1421
0.60796523 -1.942886 0.50712579 366 20510020 161 6 72 2098
0.67684472 -1.9115758 0.48475182 401 20510020 174 7 68 2085
0.32012308 -1.3752257 0.32538733 320 20510020 67 8 12 1449
0.35717013 -1.3107272 0.29883912 366 20510020 71 9 10 1391
0.60365713 -1.9327868 0.42508161 360 20510020 154 10 56 2069
0.69016188 -1.9546064 0.41495377 380 20510020 170 11 27 2114
0.31170601 -1.3381146 0.26360938 419 20510020 82 12 8 1399
0.52515906 -1.9301268 0.36319071 347 20510020 143 13 31 2033
0.61635286 -1.9747683 0.355248 337 20510020 149 14 91 2099
0.68212676 -1.9333547 0.33282471 373 20510020 161 15 45 2077
0.31299284 -1.343745 0.21260506 383 20510020 75 16 1 1396
0.52809429 -1.9426546 0.29045865 351 20510020 145 17 52 2034
0.60544366 -1.9435122 0.27407077 357 20510020 150 18 54 2054
0.70232719 -1.9944911 0.26439124 353 20510020 160 19 56 2131
0.44046766 -1.891171 0.22690517 339 20510020 130 20 26 1955
0.54534048 -2.0073421 0.22281271 323 20510020 142 21 63 2092
0.61981273 -1.9929447 0.20350215 338 20510020 148 22 57 2097
0.69274509 -1.9706823 0.18418752 342 20510020 150 23 105 2097
0.45727444 -1.9650393 0.16154797 343 20510020 140 24 31 2024
0.52906972 -1.9494684 0.14242032 342 20510020 140 25 39 2025
0.61115569 -1.9653509 0.1254151 322 20510020 137 26 94 2062
0.69532442 -1.9817779 0.10811982 317 20510020 140 27 84 2103
0.4541792 -1.9560679 0.087289445 413 20510020 167 28 6 2010
0.54089993 -1.9958149 0.070077777 311 20510020 133 29 23 2069
0.63007629 -2.0329509 0.052499022 327 20510020 148 30 39 2129
0.69907773 -1.9948156 0.031582024 364 20510020 163 31 72 2114
0.46127805 -1.9871136 0.014241773 300 20510020 125 32 31 2040
0.52924401 -1.9556458 -0.0051272484 334 20510020 137 33 54 2026
0.61991388 -2.0010264 -0.025009625 305 20510020 134 34 68 2095
0.68648541 -1.9629438 -0.044612784 342 20510020 148 35 54 2080
0.46304739 -1.9991707 -0.06094062 348 20510020 147 36 100 2053
0.53573895 -1.9854163 -0.080437794 341 20510020 144 37 41 2058
0.62517643 -2.0210078 -0.10298382 343 20510020 154 38 98 2118
0.69507658 -1.9873983 -0.12246822 351 20510020 156 39 53 2109
0.45932078 -1.9901906 -0.13555574 417 20510020 175 40 44 2047
0.52853036 -1.9622414 -0.15397713 330 20510020 137 41 64 2038
0.60013843 -1.9419882 -0.17354104 375 20510020 156 42 116 2040
0.68878359 -1.9728296 -0.19829926 372 20510020 164 43 46 2099
0.45005783 -1.9531664 -0.20691708 374 20510020 152 44 48 2015
0.53057313 -1.9729789 -0.23017858 352 20510020 149 45 32 2056
0.60973477 -1.9767094 -0.25278434 397 20510020 173 46 78 2084
0.690669 -1.9797843 -0.27686805 348 20510020 156 47 89 2115
0.45108196 -1.9651334 -0.28296936 407 20510020 169 48 52 2036
0.52664995 -1.9618031 -0.30477053 362 20510020 153 49 37 2054
0.60525101 -1.9658273 -0.32876122 365 20510020 158 50 49 2083
0.69018704 -1.9801805 -0.3558884 401 20510020 181 51 52 2127
0.44033387 -1.9261707 -0.35216796 414 20510020 167 52 64 2007
0.52621162 -1.9641399 -0.3821215 397 20510020 170 53 62 2069
0.60240173 -1.9587607 -0.40532637 401 20510020 175 54 86 2089
0.68636268 -1.9690977 -0.43412092 412 20510020 187 55 64 2130
0.44929081 -1.9704163 -0.43843073 397 20510020 170 56 84 2068
0.52769703 -1.9738181 -0.46325266 442 20510020 194 57 43 2095
0.60458672 -1.9672097 -0.48763284 395 20510020 176 58 55 2115
0.68453056 -1.9643929 -0.51480871 445 20510020 205 59 71 2143
0.44474179 -1.9610431 -0.5160346 441 20510020 190 60 31 2076
0.51720095 -1.941074 -0.5357011 435 20510020 188 61 27 2079
0.6048736 -1.9694896 -0.57121181 403 20510020 184 62 53 2138
0.68533218 -1.9640454 -0.60005951 425 20510020 199 63 57 2165
0.29807609 -1.3213439 0.42280248 425 20607800 86 0 1 1419
0.34909272 -1.3125112 0.40764317 458 20607800 92 1 1 1418
0.53443432 -1.7430155 0.5279026 291 20607800 105 2 47 1898
0.66625082 -1.9127482 0.56578588 396 20607800 175 3 44 2103
0.30212992 -1.3361633 0.37006238 378 20607800 76 4 1 1419
0.35594085 -1.3406132 0.35993251 433 20607800 89 5 1 1433
0.58580506 -1.9131781 0.4984239 343 20607800 146 6 77 2062
0.66893071 -1.9267185 0.48754176 405 20607800 178 7 61 2097
0.30909762 -1.3657589 0.32269257 419 20607800 87 8 1 1437
0.35815644 -1.3468727 0.30657327 367 20607800 75 9 1 1427
0.58835411 -1.9252232 0.42261621 378 20607800 160 10 55 2057
0.66660714 -1.9254472 0.40788737 376 20607800 162 11 38 2078
0.29828325 -1.3170141 0.25908715 398 20607800 75 12 31 1375
0.49512708 -1.8648434 0.35032809 367 20607800 141 13 40 1961
0.60076994 -1.9672017 0.35321704 356 20607800 155 14 86 2087
0.67412341 -1.9486977 0.33474758 389 20607800 170 15 65 2089
0.30736148 -1.3572074 0.21443263 401 20607800 80 16 1 1408
0.53139055 -2.0032582 0.29902673 321 20607800 141 17 57 2094
0.60044187 -1.9699425 0.27727315 341 20607800 147 18 58 2078
0.68619013 -1.9875078 0.26290241 341 20607800 153 19 78 2119
0.39463469 -1.7427186 0.2087992 300 20607800 97 20 30 1799
0.51772618 -1.9529836 0.21642229 365 20607800 151 21 58 2032
0.60757256 -1.9967103 0.20350215 345 20607800 152 22 45 2097
0.68843001 -1.9974983 0.18629552 340 20607800 153 23 93 2121
0.43992937 -1.9444741 0.15963237 331 20607800 132 24 9 2000
0.51709807 -1.952678 0.14242032 329 20607800 135 25 58 2025
0.60605794 -1.9919823 0.12687485 300 20607800 131 26 105 2086
0.67535502 -1.9633421 0.10688592 334 20607800 144 27 70 2079
0.4474481 -1.9822069 0.088331714 390 20607800 161 28 20 2034
0.5255776 -1.9875019 0.06967134 331 20607800 140 29 29 2057
0.61410946 -2.0252984 0.052203111 297 20607800 133 30 28 2117
0.6790272 -1.9763724 0.03122348 357 20607800 156 31 58 2090
0.45171824 -2.0016117 0.014325546 318 20607800 134 32 70 2052
0.5294888 -2.0052657 -0.0052487236 335 20607800 144 33 44 2074
0.61110461 -2.0162759 -0.025152879 329 20607800 146 34 75 2107
0.67831892 -1.9784676 -0.044870161 358 20607800 157 35 70 2092
0.45077199 -2.0019741 -0.06094062 341 20607800 144 36 93 2053
0.52659935 -2.000262 -0.080906816 339 20607800 145 37 43 2070
0.59887707 -1.9789181 -0.10064992 337 20607800 144 38 129 2070
0.67509812 -1.9689614 -0.12107455 343 20607800 149 39 66 2085
0.4418585 -1.9696048 -0.13396642 411 20607800 168 40 56 2023
0.52560359 -2.0001659 -0.15669703 329 20607800 142 41 61 2074
0.59859151 -1.9799688 -0.17660353 396 20607800 171 42 105 2076
0.6689285 -1.9544133 -0.1960319 390 20607800 168 43 47 2075
0.44328257 -1.979187 -0.2093816 428 20607800 178 44 51 2039
0.51543123 -1.9646633 -0.22883515 376 20607800 157 45 36 2044
0.59759444 -1.9804134 -0.25278434 371 20607800 161 46 104 2084
0.67465866 -1.9727283 -0.27529716 375 20607800 166 47 100 2103
0.43642816 -1.9562659 -0.28130159 378 20607800 155 48 69 2024
0.51760906 -1.9764775 -0.30655104 328 20607800 140 49 40 2066
0.600012 -1.9921963 -0.33254912 383 20607800 170 50 43 2107
0.67419863 -1.9731827 -0.35388055 388 20607800 173 51 52 2115
0.43106887 -1.9403688 -0.35427359 408 20607800 166 52 27 2019
0.511168 -1.9559215 -0.37990525 385 20607800 163 53 66 2057
0.59715432 -1.984966 -0.4099831 408 20607800 182 54 81 2113
0.66667026 -1.9510381 -0.42922941 436 20607800 193 55 28 2106
0.43211833 -1.950237 -0.43334258 419 20607800 175 56 72 2044
0.5096696 -1.9543705 -0.45794573 378 20607800 162 57 52 2071
0.59586656 -1.9820647 -0.49039957 417 20607800 188 58 52 2127
0.67246437 -1.9685562 -0.51480871 464 20607800 213 59 70 2143
0.4301995 -1.9523839 -0.51305169 427 20607800 182 60 17 2064
0.50528097 -1.944211 -0.5357011 427 20607800 184 61 34 2079
0.58279634 -1.9399394 -0.56159365 421 20607800 186 62 61 2102
0.67326808 -1.9682136 -0.60005951 409 20607800 192 63 60 2165
0.29241502 -1.3343375 0.42637801 403 20704310 83 0 1 1431
0.34103271 -1.3146285 0.40764317 478 20704310 96 1 1 1418
0.42108053 -1.404002 0.42443588 351 20704310 82 2 41 1526
0.66197121 -1.9386753 0.5722428 418 20704310 189 3 30 2127
0.2864688 -1.3040471 0.3606739 440 20704310 84 4 1 1383
0.34188485 -1.3202832 0.35390431 448 20704310 89 5 1 1409
0.53396583 -1.782881 0.46361643 382 20704310 141 6 79 1918
0.64957559 -1.9086891 0.48196191 406 20704310 175 7 72 2073
0.29317817 -1.3333676 0.31460842 414 20704310 81 8 13 1401
0.33811635 -1.3036671 0.29626107 315 20704310 60 9 1 1379
0.58325672 -1.9513012 0.42754707 383 20704310 166 10 44 2081
0.65478027 -1.9295012 0.40788737 383 20704310 165 11 23 2078
0.28513131 -1.2958002 0.25456488 416 20704310 76 12 53 1351
0.40672135 -1.5706673 0.29459 344 20704310 94 13 20 1649
0.58530319 -1.9595188 0.35118607 349 20704310 150 14 67 2075
0.65454644 -1.9303622 0.33090177 370 20704310 158 15 54 2065
0.29647946 -1.3474847 0.21260506 430 20704310 84 16 1 1396
0.51016462 -1.9719857 0.29388586 326 20704310 138 17 43 2058
0.58494568 -1.9621925 0.27567196 372 20704310 159 18 53 2066
0.67016524 -1.9804018 0.26141357 351 20704310 156 19 60 2107
0.30966562 -1.4075322 0.1684089 358 20704310 75 20 24 1451
0.5087198 -1.9676756 0.21770039 361 20704310 151 21 54 2044
0.58849627 -1.9775063 0.2011731 328 20704310 141 22 62 2073
0.67233515 -1.99036 0.18524152 360 20704310 160 23 116 2109
0.430558 -1.9588197 0.16059017 346 20704310 140 24 21 2012
0.50510693 -1.9558141 0.14242032 345 20704310 141 25 44 2025
0.58357579 -1.9612225 0.12468525 315 20704310 132 26 110 2050
0.66712403 -1.9788052 0.10750287 341 20704310 149 27 67 2091
0.42757306 -1.9497839 0.086768314 364 20704310 145 28 11 1998
0.50438797 -1.9558499 0.068452008 325 20704310 133 29 15 2021
0.58461833 -1.9715217 0.050723571 306 20704310 129 30 32 2057
0.67071658 -1.9918728 0.031402752 351 20704310 155 31 54 2102
0.43685839 -1.9926246 0.014241773 335 20704310 140 32 58 2040
0.51717472 -2.0084767 -0.0052487236 330 20704310 142 33 38 2074
0.5884918 -1.9854741 -0.02472312 321 20704310 138 34 58 2071
0.67380905 -2.0053375 -0.045384929 357 20704310 160 35 56 2116
0.43591663 -1.9929847 -0.060584415 351 20704310 146 36 99 2041
0.50835294 -1.9802269 -0.079968765 317 20704310 133 37 44 2046
0.59012461 -1.9940484 -0.10123339 357 20704310 155 38 130 2082
0.6630041 -1.9730666 -0.12107455 348 20704310 151 39 81 2085
0.4272157 -1.96058 -0.13317177 389 20704310 157 40 64 2011
0.5073809 -1.9801708 -0.15488377 337 20704310 142 41 66 2050
0.58643138 -1.9836043 -0.17660353 372 20704310 160 42 122 2076
0.66452205 -1.9811335 -0.19829926 375 20704310 165 43 55 2099
0.42859289 -1.970206 -0.20814934 421 20704310 173 44 64 2027
0.50632173 -1.9793414 -0.23017858 375 20704310 158 45 40 2056
0.58543158 -1.9840429 -0.25278434 386 20704310 168 46 88 2084
0.65876091 -1.9655507 -0.27372628 364 20704310 159 47 96 2091
0.42441651 -1.958907 -0.28130159 374 20704310 153 48 50 2024
0.50840783 -1.9911146 -0.30833161 358 20704310 154 49 42 2078
0.58108175 -1.9731066 -0.32876122 381 20704310 165 50 39 2083
0.6658352 -1.9885011 -0.3558884 383 20704310 174 51 59 2127
0.41915485 -1.9429773 -0.35427359 410 20704310 167 52 49 2019
0.50498098 -1.9818779 -0.38433778 383 20704310 166 53 65 2081
0.58164144 -1.9772992 -0.40765473 404 20704310 178 54 76 2101
0.65841675 -1.9662319 -0.43167514 429 20704310 192 55 42 2118
0.41767716 -1.9413868 -0.43079847 398 20704310 164 56 81 2032
0.49478456 -1.9461188 -0.45529222 422 20704310 179 57 44 2059
0.57381445 -1.9520754 -0.48209944 398 20704310 174 58 63 2091
0.66037285 -1.9726453 -0.51480871 437 20704310 201 59 61 2143
0.41334888 -1.9322544 -0.50708604 417 20704310 174 60 22 2040
0.49618962 -1.9585146 -0.53879315 434 20704310 190 61 33 2091
0.57414126 -1.954574 -0.56479973 424 20704310 189 62 56 2114
0.66117871 -1.9723076 -0.60005951 406 20704310 190 63 53 2165
0.27707192 -1.3024938 0.4156515 428 20804500 83 0 1 1395
0.33014217 -1.3055534 0.40419343 456 20804500 90 1 1 1406
0.39624062 -1.3512555 0.40774772 409 20804500 88 2 38 1466
0.64272833 -1.9207802 0.56578588 394 20804500 174 3 36 2103
0.2808781 -1.3171104 0.36380342 433 20804500 84 4 18 1395
0.33377731 -1.3223561 0.35390431 395 20804500 78 5 1 1409
0.40848708 -1.3950018 0.36209458 337 20804500 76 6 83 1498
0.63785189 -1.9126389 0.48196191 402 20804500 173 7 70 2073
0.28743231 -1.3465774 0.31730315 376 20804500 75 8 1 1413
0.36458215 -1.4420648 0.3271977 142 20804500 33 9 1 1523
0.56797856 -1.9435707 0.42508161 383 20804500 164 10 52 2069
0.64292872 -1.9334825 0.40788737 381 20804500 164 11 38 2078
0.28948483 -1.3551503 0.26587051 332 20804500 66 12 13 1411
0.34506387 -1.367071 0.25600213 404 20804500 83 13 12 1433
0.56995356 -1.9517206 0.34915513 341 20804500 145 14 83 2063
0.65389395 -1.9680643 0.33667052 372 20804500 164 15 59 2101
0.2906833 -1.360877 0.21443263 419 20804500 83 16 1 1408
0.4922469 -1.9520459 0.29045865 325 20804500 134 17 48 2034
0.56956738 -1.9543272 0.27407077 351 20804500 148 18 68 2054
0.6542536 -1.9731742 0.25992474 322 20804500 141 19 79 2095
0.28857577 -1.3511257 0.16144505 328 20804500 63 20 18 1391
0.4937211 -1.9591899 0.21642229 325 20804500 134 21 34 2032
0.57301509 -1.9696121 0.20000856 341 20804500 145 22 51 2061
0.65635389 -1.9830996 0.18418752 351 20804500 154 23 99 2097
0.41353837 -1.938028 0.15867457 360 20804500 142 24 39 1988
0.49601886 -1.9704849 0.14326429 345 20804500 143 25 49 2037
0.57822204 -1.9877684 0.12614498 323 20804500 139 26 92 2074
0.65872854 -1.9942409 0.10811982 331 20804500 146 27 80 2103
0.42308968 -1.9875486 0.088331714 402 20804500 166 28 1 2034
0.50114828 -1.9938018 0.06967134 301 20804500 127 29 18 2057
0.58252996 -2.0096381 0.051611297 305 20804500 134 30 29 2093
0.65472293 -1.9845563 0.03122348 367 20804500 160 31 44 2090
0.42961919 -2.0187414 0.014409322 327 20804500 139 32 50 2064
0.51360416 -2.0465295 -0.0053398297 318 20804500 141 33 52 2110
0.57629806 -1.9890476 -0.02472312 315 20804500 135 34 78 2071
0.65023768 -1.9752471 -0.044612784 348 20804500 150 35 54 2080
0.42367971 -1.9956218 -0.060584415 326 20804500 136 36 90 2041
0.49328274 -1.9716766 -0.079499744 318 20804500 132 37 28 2034
0.57787824 -1.9976318 -0.10123339 379 20804500 164 38 103 2082
0.65837735 -1.9998556 -0.12246822 351 20804500 156 39 69 2109
0.42013261 -1.9865934 -0.13476108 430 20804500 178 40 35 2035
0.49522123 -1.9832468 -0.15488377 363 20804500 152 41 51 2050
0.57092983 -1.9756787 -0.17558269 376 20804500 160 42 117 2064
0.65235353 -1.9851736 -0.19829926 393 20804500 173 43 48 2099
0.41649589 -1.9727987 -0.20814934 407 20804500 167 44 48 2027
0.49416718 -1.9824108 -0.23017858 353 20804500 149 45 42 2056
0.58314925 -2.0219324 -0.25715104 395 20804500 178 46 97 2120
0.65039945 -1.9808588 -0.27529716 365 20804500 161 47 95 2103
0.40505388 -1.9265863 -0.27629817 382 20804500 151 48 48 1988
0.49904636 -2.0057127 -0.31011218 365 20804500 159 49 44 2090
0.56568629 -1.9652476 -0.32686722 371 20804500 159 50 42 2071
0.63887113 -1.9475832 -0.34785703 380 20804500 164 51 51 2079
0.40964547 -1.9570758 -0.35637924 418 20804500 173 52 61 2031
0.48996907 -1.973493 -0.3821215 405 20804500 174 53 72 2069
0.56299257 -1.9582037 -0.40299803 377 20804500 163 54 68 2077
0.64633977 -1.9702349 -0.43167514 417 20804500 187 55 55 2118
0.40815338 -1.955393 -0.43334258 386 20804500 161 56 75 2044
0.48283407 -1.9491181 -0.45529222 389 20804500 165 57 52 2059
0.56182593 -1.9555595 -0.48209944 397 20804500 174 58 60 2091
0.6446265 -1.9655914 -0.511926 454 20804500 206 59 82 2131
0.40857002 -1.9688971 -0.5160346 437 20804500 188 60 27 2076
0.48416308 -1.9615222 -0.53879315 435 20804500 190 61 32 2091
0.55894643 -1.9469452 -0.56159365 425 20804500 188 62 58 2102
0.6454668 -1.965373 -0.59673357 415 20804500 192 63 38 2153
0.26907474 -1.3041694 0.4156515 413 20901110 80 0 15 1395
0.32212523 -1.3075546 0.40419343 458 20901110 91 1 4 1406
0.39111751 -1.3647418 0.41108534 411 20901110 90 2 32 1478
0.64173102 -1.9576353 0.57547122 396 20901110 181 3 37 2139
0.27748436 -1.3414981 0.37006238 416 20901110 84 4 1 1419
0.33120424 -1.3469379 0.35993251 295 20901110 61 5 1 1433
0.37749442 -1.3191185 0.3417902 395 20901110 79 6 80 1414
0.62972844 -1.9276106 0.48475182 399 20901110 174 7 64 2085
0.27442282 -1.3254143 0.3119137 343 20901110 66 8 5 1389
0.34731844 -1.4101355 0.31946355 180 20901110 40 9 7 1487
0.55281734 -1.9357268 0.42261621 375 20901110 159 10 52 2057
0.6346972 -1.9485792 0.41024286 403 20901110 176 11 30 2090
0.28355554 -1.3684411 0.26813164 407 20901110 82 12 25 1423
0.33666918 -1.3691626 0.25600213 388 20901110 80 13 8 1433
0.55147612 -1.9324353 0.34509319 337 20901110 140 14 78 2039
0.63814008 -1.960776 0.33474758 369 20901110 161 15 50 2089
0.27751523 -1.3394082 0.21077752 437 20901110 84 16 1 1384
0.44342601 -1.8050863 0.26818156 291 20901110 103 17 71 1878
0.55430764 -1.9463472 0.27246958 317 20901110 132 18 56 2042
0.6274218 -1.9318517 0.25396943 327 20901110 137 19 59 2047
0.28027999 -1.3528709 0.16144505 339 20901110 66 20 25 1391
0.48169044 -1.9621824 0.21642229 341 20901110 141 21 33 2032
0.56418496 -1.9845792 0.2011731 359 20901110 155 22 62 2073
0.64417344 -1.9870896 0.18418752 368 20901110 162 23 90 2097
0.34345391 -1.6594061 0.13568752 319 20901110 92 24 24 1700
0.48391885 -1.9734912 0.14326429 350 20901110 145 25 41 2037
0.56601441 -1.9912789 0.12614498 325 20901110 140 26 102 2074
0.64647973 -1.9982451 0.10811982 342 20901110 151 27 68 2103
0.40361401 -1.9548841 0.086768314 394 20901110 157 28 1 1998
0.48034871 -1.9618922 0.068452008 315 20901110 129 29 4 2021
0.56691891 -2.001632 0.051315386 324 20901110 140 30 33 2081
0.63146603 -1.954284 0.030685658 365 20901110 154 31 61 2054
0.41237292 -1.9978355 0.014241773 350 20901110 146 32 59 2040
0.48394018 -1.9797019 -0.0051576174 332 20901110 138 33 50 2038
0.57061952 -2.0156372 -0.025009625 326 20901110 143 34 85 2095
0.64178693 -1.9906181 -0.044870161 338 20901110 148 35 55 2092
0.40658891 -1.9746875 -0.059872009 342 20901110 139 36 79 2017
0.48401424 -1.986316 -0.079968765 346 20901110 145 37 52 2046
0.56887019 -2.0126739 -0.10181687 331 20901110 145 38 93 2094
0.62771297 -1.9468489 -0.11898405 345 20901110 145 39 57 2049
0.40312418 -1.9656749 -0.13317177 424 20901110 171 40 26 2011
0.48869807 -2.0095017 -0.15669703 362 20901110 156 41 81 2074
0.55879653 -1.9791447 -0.17558269 369 20901110 157 42 134 2064
0.62552124 -1.9436512 -0.19376454 357 20901110 150 43 60 2051
0.4091711 -1.9987051 -0.21061386 409 20901110 172 44 59 2051
0.48199403 -1.9854057 -0.23017858 380 20901110 161 45 34 2056
0.55780965 -1.9796127 -0.25132874 384 20901110 165 46 91 2072
0.63823289 -1.9848124 -0.27529716 392 20901110 173 47 99 2103
0.40034574 -1.9639678 -0.28130159 397 20901110 162 48 48 2024
0.48114085 -1.9856701 -0.30655104 359 20901110 153 49 56 2066
0.55361706 -1.9686816 -0.32686722 381 20901110 163 50 43 2071
0.63776457 -1.9852581 -0.35388055 385 20901110 172 51 45 2115
0.39762935 -1.9595525 -0.35637924 428 20901110 176 52 37 2031
0.48062223 -1.9879255 -0.38433778 404 20901110 175 53 64 2081
0.55414987 -1.9729545 -0.40532637 423 20901110 185 54 85 2089
0.6306451 -1.9629787 -0.42922941 444 20901110 197 55 58 2106
0.39614764 -1.9578606 -0.43334258 421 20901110 176 56 66 2044
0.47635394 -1.9747975 -0.46059921 402 20901110 174 57 50 2083
0.5529716 -1.9702123 -0.48486617 393 20901110 174 58 57 2103
0.6325537 -1.9695098 -0.511926 441 20901110 200 59 51 2131
0.3941896 -1.9599717 -0.51305169 425 20901110 181 60 21 2064
0.47211829 -1.9644561 -0.53879315 420 20901110 184 61 36 2091
0.55635774 -1.9837407 -0.57121181 436 20901110 199 62 54 2138
0.63339531 -1.9692966 -0.59673357 414 20901110 192 63 39 2153
0.26331317 -1.3170285 0.419227 422 20998480 84 0 1 1407
0.30873466 -1.2871537 0.39729398 433 20998480 83 1 1 1382
0.37652135 -1.3449166 0.40441009 381 20998480 80 2 49 1454
0.60497808 -1.884505 0.55287206 404 20998480 170 3 48 2055
0.26014009 -1.2977405 0.35754442 375 20998480 70 4 15 1371
0.33645463 -1.4054253 0.37500292 151 20998480 34 5 1 1493
0.37879801 -1.3550526 0.35049209 386 20998480 81 6 77 1450
0.60722041 -1.8980898 0.47638199 404 20998480 170 7 68 2049
0.27548712 -1.3729331 0.32269257 202 20998480 42 8 29 1437
0.34139243 -1.4236368 0.32204157 166 20998480 37 9 3 1499
0.50621748 -1.8146492 0.39549643 360 20998480 134 10 59 1925
0.622729 -1.9524369 0.41024286 401 20998480 175 11 22 2090
0.27051291 -1.3470464 0.26360938 390 20998480 76 12 34 1399
0.32276404 -1.3482375 0.25171456 301 20998480 60 13 8 1409
0.54278427 -1.9471753 0.34712416 356 20998480 150 14 75 2051
0.62609696 -1.9646546 0.33474758 367 20998480 160 15 55 2089
0.26695666 -1.3294579 0.20894997 363 20998480 68 16 1 1372
0.35498995 -1.4843376 0.2202002 267 20998480 63 17 37 1542
0.548729 -1.972627 0.27567196 360 20998480 153 18 54 2066
0.63359898 -1.9924017 0.26141357 281 20998480 125 19 64 2107
0.28839764 -1.436365 0.17119443 257 20998480 56 20 6 1475
0.47518858 -1.9883109 0.21897845 338 20998480 143 21 39 2056
0.54560643 -1.9649875 0.19884402 337 20998480 141 22 55 2049
0.62111956 -1.9568244 0.18102549 346 20998480 147 23 99 2061
0.28151137 -1.4034638 0.11461604 363 20998480 75 24 1 1436
0.47735935 -1.9997096 0.14495224 351 20998480 149 25 47 2061
0.54417306 -1.9600906 0.12395538 331 20998480 138 26 87 2038
0.63058764 -1.9907495 0.10750287 319 20998480 140 27 66 2091
0.39396349 -1.9690793 0.087289445 411 20998480 166 28 29 2010
0.47664356 -1.9998016 0.06967134 299 20998480 126 29 31 2057
0.56741941 -2.0513217 0.052499022 270 20998480 122 30 33 2129
0.626701 -1.9810014 0.031044204 352 20998480 152 31 69 2078
0.40010667 -2.0003281 0.014241773 346 20998480 144 32 32 2040
0.47178388 -1.9826341 -0.0051576174 320 20998480 133 33 38 2038
0.56463623 -2.0422311 -0.025296133 322 20998480 145 34 70 2119
0.63317192 -2.0059595 -0.045127545 349 20998480 154 35 43 2104
0.39915848 -2.0006707 -0.060584415 335 20998480 140 36 88 2041
0.46905011 -1.9775815 -0.079499744 333 20998480 138 37 41 2034
0.55013162 -1.9930192 -0.10064992 343 20998480 147 38 100 2070
0.62657404 -1.984936 -0.12107455 351 20998480 153 39 59 2085
0.39105543 -1.9681114 -0.13317177 406 20998480 164 40 32 2011
0.47360259 -2.0008183 -0.15579039 332 20998480 141 41 49 2062
0.54664218 -1.9825362 -0.17558269 357 20998480 152 42 104 2064
0.61717343 -1.9588469 -0.19489823 384 20998480 163 43 46 2063
0.39225525 -1.9777613 -0.20814934 412 20998480 170 44 69 2027
0.46980274 -1.9883257 -0.23017858 347 20998480 147 45 40 2056
0.54881269 -1.9944826 -0.25278434 381 20998480 166 46 74 2084
0.62604225 -1.9886911 -0.27529716 385 20998480 170 47 108 2103
0.38828754 -1.9663873 -0.28130159 417 20998480 171 48 48 2024
0.46350035 -1.9654844 -0.30298996 361 20998480 150 49 29 2042
0.53838927 -1.9606148 -0.32497326 367 20998480 155 50 39 2059
0.62557125 -1.9891341 -0.35388055 407 20998480 182 51 49 2115
0.38332 -1.9503634 -0.35427359 412 20998480 168 52 48 2019
0.46301332 -1.9678771 -0.37990525 383 20998480 162 53 74 2057
0.53580636 -1.9536122 -0.40066969 379 20998480 162 54 97 2065
0.62211329 -1.9780182 -0.43167514 403 20998480 181 55 54 2118
0.38187182 -1.948746 -0.43079847 418 20998480 173 56 82 2032
0.45620471 -1.9435033 -0.4526388 399 20998480 167 57 44 2047
0.54087222 -1.9735683 -0.48486617 405 20998480 179 58 58 2103
0.61696327 -1.9622419 -0.50904328 440 20998480 198 59 61 2119
0.38215601 -1.9623535 -0.51305169 433 20998480 184 60 25 2064
0.46005571 -1.9673159 -0.53879315 419 20998480 183 61 30 2091
0.5319581 -1.9425046 -0.55838764 393 20998480 171 62 48 2090
0.6282258 -1.995141 -0.60338545 410 20998480 194 63 48 2177
0.25305033 -1.3073732 0.4156515 448 21095810 87 0 1 1395
0.31127954 -1.3337946 0.41109291 442 21095810 90 1 1 1430
0.37130129 -1.35832 0.40774772 399 21095810 86 2 30 1466
0.53449637 -1.7007418 0.4979884 335 21095810 115 3 58 1851
0.25658682 -1.3220574 0.36380342 252 21095810 49 4 27 1395
0.34099925 -1.4640259 0.39007339 142 21095810 34 5 1 1553
0.36741042 -1.3461181 0.34759146 403 21095810 83 6 49 1438
0.60253841 -1.9240556 0.48196191 423 21095810 182 7 65 2073
0.27374816 -1.4090344 0.33077675 275 21095810 60 8 19 1473
0.33797669 -1.4485313 0.3271977 212 21095810 49 9 1 1523
0.38088512 -1.3984649 0.30427542 344 21095810 75 10 57 1481
0.60723072 -1.9449892 0.40788737 367 21095810 158 11 32 2078
0.25999311 -1.3371125 0.26134828 381 21095810 73 12 24 1387
0.33859068 -1.4536849 0.27100852 192 21095810 44 13 3 1517
0.52772063 -1.9390572 0.34509319 343 21095810 143 14 71 2039
0.60344869 -1.9345367 0.32897887 359 21095810 151 15 40 2053
0.26558477 -1.365997 0.21443263 293 21095810 58 16 1 1408
0.32165077 -1.3823758 0.20477761 414 21095810 85 17 15 1434
0.52726442 -1.9415261 0.27086839 337 21095810 139 18 51 2030
0.62490082 -2.0076213 0.26290241 274 21095810 123 19 62 2119
0.27048069 -1.3913081 0.16562337 325 21095810 66 20 17 1427
0.44676632 -1.921459 0.21130995 341 21095810 134 21 50 1984
0.53666389 -1.9798257 0.20000856 335 21095810 143 22 59 2061
0.61264747 -1.9720142 0.18207951 368 21095810 158 23 100 2073
0.26833367 -1.3816801 0.11270045 385 21095810 77 24 19 1412
0.45154095 -1.9443011 0.14073238 344 21095810 138 25 37 2001
0.54153574 -1.9980748 0.12614498 333 21095810 143 26 88 2074
0.60771471 -1.9602412 0.10565203 344 21095810 145 27 86 2055
0.36363527 -1.8773004 0.083120398 407 21095810 149 28 2 1914
0.46436402 -2.0026886 0.06967134 329 21095810 139 29 21 2057
0.54231316 -2.0084383 0.051315386 317 21095810 137 30 26 2081
0.60743642 -1.9618858 0.030685658 357 21095810 150 31 47 2054
0.37870002 -1.955622 0.013906672 331 21095810 131 32 50 1992
0.45960978 -1.9854915 -0.0051576174 342 21095810 142 33 31 2038
0.53646201 -1.9877337 -0.024579866 286 21095810 121 34 78 2059
0.62085164 -2.0098066 -0.045127545 349 21095810 155 35 63 2104
0.38232583 -1.9795283 -0.059872009 367 21095810 149 36 80 2017
0.45690706 -1.9804223 -0.079499744 362 21095810 150 37 28 2034
0.5410105 -2.0079303 -0.10123339 352 21095810 152 38 134 2082
0.61084694 -1.9772974 -0.12037773 339 21095810 146 39 56 2073
0.37444916 -1.9469575 -0.13158244 414 21095810 163 40 31 1987
0.45594755 -1.9803654 -0.15397713 367 21095810 153 41 75 2038
0.53446728 -1.985853 -0.17558269 352 21095810 150 42 118 2064
0.60866249 -1.9740129 -0.1960319 385 21095810 166 43 44 2075
0.37561193 -1.9566855 -0.20568481 418 21095810 168 44 58 2003
0.46827689 -2.0376575 -0.23555242 354 21095810 157 45 45 2104
0.53965408 -2.0093164 -0.25423992 393 21095810 173 46 95 2096
0.61032552 -1.9811255 -0.27372628 371 21095810 162 47 100 2091
0.37398416 -1.9570603 -0.27963376 412 21095810 167 48 30 2012
0.45143166 -1.9682913 -0.30298996 356 21095810 148 49 31 2042
0.52941662 -1.9753271 -0.32686722 367 21095810 157 50 42 2071
0.60639435 -1.9703202 -0.3498649 398 21095810 174 51 59 2091
0.37134558 -1.9526787 -0.35427359 418 21095810 171 52 68 2019
0.4456687 -1.947688 -0.37547269 372 21095810 154 53 61 2033
0.52685308 -1.9682348 -0.40299803 413 21095810 178 54 68 2077
0.59959704 -1.9481132 -0.42433789 435 21095810 188 55 50 2082
0.37646082 -1.9856184 -0.43843073 406 21095810 174 56 78 2068
0.44947982 -1.9690849 -0.45794573 408 21095810 175 57 51 2071
0.52271813 -1.9542893 -0.47933272 398 21095810 172 58 56 2079
0.59806025 -1.9437234 -0.50327778 440 21095810 193 59 76 2095
0.37010804 -1.9646615 -0.51305169 416 21095810 177 60 9 2064
0.45054671 -1.981408 -0.54188526 402 21095810 178 61 26 2103
0.51704323 -1.9345604 -0.55518156 413 21095810 178 62 43 2078
0.60918134 -1.976921 -0.59673357 392 21095810 182 63 64 2153
0.24713139 -1.3201606 0.419227 429 21193130 85 0 1 1407
0.29545945 -1.3020539 0.40074369 436 21193130 85 1 1 1394
0.36593083 -1.3717097 0.41108534 408 21193130 89 2 43 1478
0.40514135 -1.3173467 0.38499269 414 21193130 85 3 27 1431
0.265569 -1.4146937 0.38883933 153 21193130 34 4 34 1491
0.32174802 -1.4207768 0.37801704 203 21193130 46 5 1 1505
0.36214089 -1.359599 0.35049209 405 21193130 85 6 68 1450
0.59756029 -1.9500344 0.48754176 430 21193130 189 7 65 2097
0.24997978 -1.330241 0.3119137 364 21193130 70 8 19 1389
0.31093198 -1.3705721 0.30915132 342 21193130 71 9 1 1439
0.35419759 -1.3326758 0.28948283 396 21193130 79 10 18 1409
0.59528506 -1.9486785 0.40788737 385 21193130 166 11 35 2078
0.24524872 -1.3039367 0.25456488 333 21193130 61 12 37 1351
0.32705691 -1.4442198 0.26886475 151 21193130 34 13 7 1505
0.50974154 -1.9193975 0.34103131 353 21193130 143 14 84 2015
0.60194051 -1.9721898 0.33474758 379 21193130 165 15 42 2089
0.27254239 -1.4491906 0.22722548 206 21193130 46 16 1 1492
0.30530083 -1.3495706 0.19963677 373 21193130 73 17 22 1398
0.52448052 -1.9792123 0.27567196 319 21193130 136 18 76 2066
0.60563242 -1.9886361 0.25992474 338 21193130 149 19 71 2095
0.25533056 -1.3578007 0.16144505 387 21193130 75 20 15 1391
0.41392124 -1.8310593 0.20108528 388 21193130 138 21 41 1888
0.51839805 -1.9599888 0.19767949 341 21193130 141 22 52 2037
0.60748851 -1.99861 0.18418752 346 21193130 152 23 119 2097
0.26647589 -1.4185688 0.11557384 397 21193130 83 24 1 1448
0.43960243 -1.9470351 0.14073238 342 21193130 137 25 42 2001
0.52926558 -2.0013599 0.12614498 339 21193130 146 26 93 2074
0.59915388 -1.9754015 0.10626898 338 21193130 144 27 80 2067
0.30795786 -1.6438227 0.072697774 260 21193130 73 28 32 1674
0.45206702 -2.0055001 0.06967134 319 21193130 135 29 14 2057
0.53609157 -2.034929 0.0519072 323 21193130 143 30 24 2105
0.60930067 -2.0115094 0.031402752 346 21193130 153 31 67 2102
0.36448443 -1.9461142 0.013822896 347 21193130 136 32 18 1980
0.45005286 -1.9999815 -0.005187986 328 21193130 138 33 31 2050
0.53036624 -2.0141954 -0.024866374 312 21193130 136 34 68 2083
0.59809625 -1.9791255 -0.0443554 360 21193130 154 35 49 2068
0.37237477 -1.9936275 -0.060228206 351 21193130 145 36 95 2029
0.44212291 -1.9714882 -0.079030715 361 21193130 147 37 43 2022
0.52867985 -2.0112119 -0.10123339 369 21193130 160 38 108 2082
0.59870297 -1.9810083 -0.12037773 353 21193130 152 39 66 2073
0.36468503 -1.9609902 -0.13237709 411 21193130 164 40 49 1999
0.44640076 -1.9948028 -0.15488377 352 21193130 148 41 53 2050
0.51923579 -1.9775304 -0.17456186 366 21193130 154 42 104 2052
0.59653872 -1.9777104 -0.1960319 371 21193130 160 43 40 2075
0.36795554 -1.9824259 -0.20814934 416 21193130 171 44 49 2027
0.44796696 -2.005579 -0.23152205 353 21193130 151 45 49 2068
0.51222003 -1.9549774 -0.24696203 366 21193130 152 46 73 2036
0.59129256 -1.9620516 -0.27058452 343 21193130 147 47 109 2067
0.36844543 -1.9943756 -0.28463715 419 21193130 176 48 59 2048
0.44967338 -2.0173559 -0.31011218 368 21193130 161 49 48 2090
0.52028364 -1.9900028 -0.32876122 380 21193130 165 50 49 2083
0.60111439 -1.9966609 -0.35388055 374 21193130 168 51 61 2115
0.35935718 -1.9549204 -0.35427359 412 21193130 168 52 63 2019
0.43882957 -1.9734108 -0.37990525 373 21193130 158 53 56 2057
0.51476628 -1.9714304 -0.40299803 402 21193130 174 54 80 2077
0.59440625 -1.9742544 -0.42922941 431 21193130 191 55 54 2106
0.36215645 -1.9763557 -0.43588662 418 21193130 177 56 73 2056
0.43485489 -1.9603804 -0.45529222 387 21193130 164 57 44 2059
0.51661277 -1.980057 -0.48486617 423 21193130 187 58 43 2103
0.5928371 -1.9696652 -0.50904328 471 21193130 212 59 59 2119
0.35388285 -1.9440246 -0.50708604 410 21193130 171 60 11 2040
0.42837471 -1.9388481 -0.52951694 423 21193130 178 61 42 2055
0.50516325 -1.9376965 -0.55518156 431 21193130 186 62 56 2078
0.59038436 -1.9585433 -0.59008163 412 21193130 187 63 47 2129
0.23902638 -1.3216521 0.419227 421 21290760 83 0 9 1407
0.28746462 -1.3038423 0.40074369 410 21290760 80 1 1 1394
0.35460466 -1.3627743 0.40774772 405 21290760 87 2 22 1466
0.40703934 -1.3530105 0.39467803 427 21290760 92 3 12 1467
0.2651535 -1.4618917 0.40135729 161 21290760 38 4 10 1539
0.30304071 -1.3773482 0.36596066 302 21290760 64 5 1 1457
0.34793589 -1.3392555 0.34469086 374 21290760 76 6 55 1426
0.55877602 -1.8642262 0.46522227 408 21290760 164 7 73 2001
0.23972377 -1.3202444 0.309219 373 21290760 71 8 29 1377
0.29242557 -1.3266739 0.29883912 341 21290760 66 9 7 1391
0.34601378 -1.3348241 0.28948283 383 21290760 76 10 17 1409
0.57994843 -1.9410203 0.40553188 388 21290760 166 11 21 2066
0.26253054 -1.4445585 0.28169838 181 21290760 40 12 31 1495
0.33341148 -1.5153862 0.28172737 144 21290760 36 13 26 1577
0.46533439 -1.7965493 0.31869081 336 21290760 119 14 101 1883
0.57627529 -1.9304463 0.32705593 365 21290760 152 15 45 2041
0.26152468 -1.4391667 0.22539791 224 21290760 49 16 1 1480
0.30976164 -1.4094193 0.20820487 418 21290760 89 17 3 1458
0.50339925 -1.9478502 0.27086839 310 21290760 128 18 50 2030
0.59002 -1.9809031 0.25843593 347 21290760 151 19 75 2083
0.24273288 -1.3358881 0.15865953 326 21290760 61 20 26 1367
0.33869335 -1.5422143 0.16913317 314 21290760 79 21 33 1588
0.50636202 -1.9631327 0.19767949 350 21290760 145 22 36 2037
0.58840168 -1.9793838 0.18207951 351 21290760 151 23 109 2073
0.25349429 -1.3966383 0.11365825 391 21290760 79 24 1 1424
0.43021196 -1.961388 0.14157633 316 21290760 128 25 54 2013
0.51099318 -1.9813733 0.12468525 330 21290760 139 26 102 2050
0.58361375 -1.9675512 0.10565203 322 21290760 136 27 79 2055
0.24662003 -1.3625534 0.060190633 364 21290760 70 28 2 1386
0.42949137 -1.961374 0.068045557 307 21290760 124 29 1 2009
0.51464081 -2.0033231 0.051019475 296 21290760 127 30 28 2069
0.58672315 -1.9806967 0.03086493 354 21290760 151 31 63 2066
0.34399009 -1.901082 0.013487795 343 21290760 128 32 26 1932
0.43777272 -2.0027053 -0.005187986 332 21290760 139 33 55 2050
0.51501322 -2.0057895 -0.02472312 323 21290760 139 34 71 2071
0.58594131 -1.982758 -0.0443554 333 21290760 143 35 60 2068
0.36439496 -2.0194831 -0.06094062 364 21290760 153 36 102 2053
0.43256983 -1.9858801 -0.079499744 355 21290760 147 37 43 2034
0.51335341 -2.0028076 -0.10064992 339 21290760 145 38 119 2070
0.58993173 -1.996133 -0.12107455 349 21290760 152 39 71 2085
0.35687959 -1.986761 -0.13396642 372 21290760 152 40 45 2023
0.43669385 -2.0091968 -0.15579039 356 21290760 152 41 61 2062
0.50709212 -1.9806792 -0.17456186 361 21290760 152 42 114 2052
0.58777213 -1.9927918 -0.19716558 386 21290760 168 43 57 2087
0.3515721 -1.9611475 -0.20568481 409 21290760 164 44 54 2003
0.43565255 -2.0082901 -0.23152205 387 21290760 165 45 41 2068
0.50905955 -1.9927058 -0.25132874 391 21290760 168 46 107 2072
0.57924247 -1.9656428 -0.27058452 363 21290760 155 47 88 2067
0.34993985 -1.9615023 -0.27963376 404 21290760 163 48 39 2012
0.43226516 -1.9968798 -0.30655104 382 21290760 163 49 34 2066
0.49928266 -1.9587103 -0.32307932 386 21290760 162 50 22 2047
0.58216983 -1.9776132 -0.3498649 394 21290760 172 51 55 2091
0.34735525 -1.9570886 -0.35427359 419 21290760 171 52 56 2019
0.42422336 -1.9645383 -0.37768897 388 21290760 162 53 77 2045
0.50266016 -1.9745518 -0.40299803 412 21290760 178 54 83 2077
0.58228123 -1.9778644 -0.42922941 428 21290760 190 55 39 2106
0.34593707 -1.9554448 -0.43079847 388 21290760 160 56 64 2032
0.4252823 -1.9744524 -0.45794573 415 21290760 178 57 49 2071
0.49869666 -1.9605567 -0.47933272 382 21290760 165 58 54 2079
0.58074027 -1.9732656 -0.50904328 429 21290760 192 59 52 2119
0.3439593 -1.9576072 -0.51006883 418 21290760 176 60 11 2052
0.42133397 -1.9641138 -0.5357011 429 21290760 185 61 18 2079
0.49611279 -1.9519672 -0.55838764 415 21290760 181 62 45 2090
0.57509601 -1.9510694 -0.58675563 414 21290760 185 63 37 2117
0.22697358 -1.3005251 0.412076 448 21387270 86 0 1 1383
0.28427035 -1.3280593 0.40764317 433 21387270 87 1 1 1418
0.34056789 -1.342579 0.40107244 404 21387270 84 2 51 1442
0.39220658 -1.333307 0.38822111 435 21387270 91 3 24 1443
0.25218353 -1.4406686 0.39509833 183 21387270 42 4 34 1515
0.28245267 -1.3223864 0.35089022 441 21387270 86 5 1 1397
0.33971182 -1.3413651 0.34469086 378 21387270 77 6 60 1426
0.498092 -1.6996179 0.42337319 394 21387270 131 7 71 1821
0.23363686 -1.3332084 0.3119137 295 21387270 57 8 15 1389
0.29163712 -1.3628242 0.30657327 241 21387270 49 9 3 1427
0.34069404 -1.3483082 0.29194829 251 21387270 51 10 28 1421
0.56472838 -1.9332478 0.40317646 383 21387270 161 11 29 2054
0.25569803 -1.45775 0.28395951 122 21387270 28 12 76 1507
0.3019107 -1.4134851 0.26243344 194 21387270 42 13 17 1469
0.35876122 -1.4209583 0.25166926 323 21387270 71 14 79 1487
0.56773794 -1.9453166 0.32897887 375 21387270 158 15 54 2053
0.23424974 -1.335609 0.20894997 356 21387270 67 16 1 1372
0.29862955 -1.3996779 0.20649125 399 21387270 83 17 1 1446
0.49724805 -1.9739671 0.27407077 311 21387270 131 18 57 2054
0.5811832 -1.9959184 0.25992474 339 21387270 149 19 74 2095
0.24482544 -1.396051 0.16562337 244 21387270 50 20 22 1427
0.30434573 -1.4275684 0.15635233 387 21387270 83 21 24 1468
0.49430695 -1.9662027 0.19767949 346 21387270 144 22 65 2037
0.57290959 -1.9714781 0.18102549 332 21387270 141 23 88 2061
0.24698386 -1.4099498 0.11461604 384 21387270 79 24 1 1436
0.41567624 -1.9522831 0.14073238 341 21387270 136 25 45 2001
0.49882609 -1.9844714 0.12468525 313 21387270 132 26 78 2050
0.57486755 -1.9826053 0.10626898 323 21387270 138 27 78 2067
0.23825492 -1.364041 0.060190633 429 21387270 82 28 1 1386
0.41994199 -1.9757036 0.068452008 311 21387270 127 29 6 2021
0.50525248 -2.0180802 0.051315386 278 21387270 120 30 39 2081
0.56454718 -1.949684 0.030327111 362 21387270 149 31 56 2030
0.28278059 -1.6194565 0.011477192 273 21387270 74 32 41 1644
