# .PCD v0.7 - Point Cloud Data file format
VERSION 0.7
FIELDS x y z intensity t reflectivity ring noise range
SIZE 4 4 4 4 4 2 1 2 4
TYPE F F F F U U U U U
COUNT 1 1 1 1 1 1 1 1 1
WIDTH 804
HEIGHT 1
VIEWPOINT 0 0 0 1 0 0 0
POINTS 804
DATA ascii
5.840426 -1.7194985 1.2781212 371 4886100 1438 10 59 6221
5.8852649 -1.5003676 1.2158105 389 4886100 1491 11 34 6194
1.3078339 -0.49254981 0.26813164 32 4886100 7 12 74 1423
1.3032743 -0.43680626 0.2495708 9 4886100 2 13 34 1397
5.8416042 -1.7210642 1.0457729 265 4886100 1013 14 71 6179
6.6347208 -1.6931579 1.1116056 212 4886100 1018 15 49 6937
4.7651305 -1.7947143 0.78462845 260 4886100 689 16 39 5152
5.2192335 -1.750599 0.79426301 219 4886100 679 17 76 5562
5.8646173 -1.7312933 0.82327974 197 4886100 749 18 34 6170
6.6166945 -1.6928633 0.85396761 183 4886100 869 19 74 6883
4.7729545 -1.7977564 0.59598875 234 4886100 618 20 67 5135
5.2863684 -1.7740408 0.59729147 241 4886100 759 21 68 5608
5.8840103 -1.7400333 0.59827888 218 4886100 830 22 65 6165
6.6087165 -1.6946325 0.60157382 342 4886100 1605 23 98 6849
4.7421823 -1.7872055 0.40578547 284 4886100 733 24 47 5084
5.2623162 -1.7675022 0.39139211 256 4886100 791 25 56 5565
5.9133511 -1.7489345 0.37575877 235 4886100 897 26 99 6178
6.4446688 -1.6566432 0.34255934 669 4886100 2971 27 88 6663
4.7501268 -1.7928511 0.22069898 314 4886100 810 28 43 5082
5.256578 -1.7676169 0.18794665 246 4886100 757 29 31 5549
5.8930712 -1.748978 0.15162821 206 4886100 778 30 34 6149
6.4044275 -1.6488016 0.098809607 467 4886100 2045 31 74 6614
4.7600155 -1.7968683 0.035520654 265 4886100 687 32 88 5088
5.2977867 -1.7836357 -0.014146752 284 4886100 889 33 68 5590
5.9536614 -1.7677518 -0.074145488 196 4886100 758 34 60 6211
6.2186756 -1.605263 -0.13778485 686 4886100 2829 35 57 6424
4.7580905 -1.7987987 -0.1510603 314 4886100 813 36 103 5089
5.2545767 -1.7733774 -0.21692407 304 4886100 938 37 61 5550
5.922368 -1.7611601 -0.3007828 272 4886100 1042 38 89 6186
6.6668549 -1.72083 -0.40050417 228 4886100 1087 39 58 6897
4.7539263 -1.8014928 -0.33739936 335 4886100 870 40 88 5095
5.2805471 -1.7848117 -0.42234159 306 4886100 957 41 83 5590
5.9589648 -1.7738544 -0.5308314 248 4886100 966 42 104 6240
6.6492534 -1.7201246 -0.65177059 249 4886100 1183 43 51 6899
4.7869329 -1.8159119 -0.52853709 318 4886100 843 44 99 5147
5.3125048 -1.7979898 -0.63187158 280 4886100 891 45 52 5644
5.8975101 -1.7589226 -0.75204551 267 4886100 1027 46 90 6200
6.6711378 -1.7275252 -0.90993369 222 4886100 1073 47 108 6951
4.7835894 -1.8192292 -0.7182641 340 4886100 909 48 85 5168
5.2955208 -1.7948173 -0.83893502 260 4886100 830 49 50 5654
5.9104629 -1.7661563 -0.98596793 249 4886100 970 50 37 6247
6.6680593 -1.7287152 -1.1690607 223 4886100 1087 51 43 6987
4.7493134 -1.8110343 -0.90595073 307 4886100 820 52 61 5163
5.2869 -1.7948794 -1.0492182 261 4886100 844 53 63 5681
5.9332123 -1.774985 -1.2249044 214 4886100 855 54 60 6313
6.7380352 -1.746731 -1.4491078 205 4886100 1034 55 45 7110
4.7801385 -1.8258474 -1.1100693 298 4886100 818 56 86 5236
5.2804322 -1.7957677 -1.2646024 271 4886100 885 57 43 5719
5.92029 -1.7723575 -1.4642819 233 4886100 938 58 39 6351
6.7381225 -1.7473813 -1.7226754 231 4886100 1185 59 57 7171
4.7537756 -1.8221505 -1.3064921 282 4886100 778 60 41 5256
5.2923231 -1.8047594 -1.4911507 250 4886100 837 61 12 5787
5.9282465 -1.7759796 -1.7157729 198 4886100 816 62 27 6422
6.7576046 -1.7494129 -2.0135946 153 4886100 806 63 35 7265
1.7132989 -0.6589672 0.57297337 223 4983630 82 0 3 1923
1.7203251 -0.58751285 0.54563242 269 4983630 97 1 27 1898
1.7793007 -0.53394061 0.53791547 213 4983630 80 2 29 1934
1.7479861 -0.4535473 0.50444531 251 4983630 88 3 24 1875
1.7979374 -0.6904763 0.52027798 273 4983630 109 4 1 1995
1.8289751 -0.6255095 0.50159472 245 4983630 98 5 7 1997
1.9050539 -0.57247466 0.49552333 249 4983630 105 6 79 2050
1.9171754 -0.49951854 0.4735921 210 4983630 87 7 53 2037
1.9404993 -0.74479806 0.47898629 147 4983630 67 8 59 2133
0 -0 0 0 4983630 0 9 23 0
5.7847843 -1.7417588 1.2682595 208 4983630 791 10 50 6173
5.921483 -1.5483572 1.2252324 364 4983630 1417 11 32 6242
1.1837525 -0.4541319 0.24325927 26 4983630 4 12 78 1291
1.2335395 -0.4218705 0.23670816 9 4983630 2 13 32 1325
5.7743139 -1.7398155 1.0356182 182 4983630 683 14 63 6119
6.4637823 -1.691846 1.0846848 215 4983630 983 15 48 6769
4.676517 -1.794181 0.77183563 267 4983630 685 16 36 5068
5.1522083 -1.763361 0.7856949 257 4983630 779 17 68 5502
5.7514172 -1.7363114 0.80886906 222 4983630 818 18 58 6062
6.5370784 -1.7152982 0.8450346 182 4983630 846 19 78 6811
4.6950665 -1.8013916 0.58763218 254 4983630 652 20 66 5063
5.173789 -1.7716551 0.58578873 242 4983630 733 21 69 5500
5.7817664 -1.7484469 0.58896255 233 4983630 860 22 60 6069
6.5057096 -1.71083 0.59314173 181 4983630 826 23 91 6753
4.652957 -1.7862601 0.3990809 266 4983630 664 24 52 5000
5.1607828 -1.768711 0.38464037 263 4983630 785 25 48 5469
5.7420001 -1.7366401 0.36554065 245 4983630 885 26 104 6010
6.4923244 -1.7114296 0.34564409 338 4983630 1529 27 82 6723
4.6607051 -1.7918484 0.21705107 309 4983630 773 28 61 4998
5.1889133 -1.7803762 0.18591443 228 4983630 686 29 40 5489
5.7444758 -1.7433 0.14807731 214 4983630 771 30 38 6005
6.3129816 -1.6666282 0.097554691 702 4983630 2995 31 87 6530
4.6704988 -1.7958944 0.034934226 290 4983630 727 32 61 5004
5.1732531 -1.7771225 -0.013843065 290 4983630 869 33 61 5470
5.7934413 -1.7589326 -0.072283193 192 4983630 706 34 61 6055
6.2435026 -1.6525995 -0.138557 676 4983630 2822 35 73 6460
4.6798029 -1.8020977 -0.14892308 306 4983630 770 36 111 5017
5.1642342 -1.7782577 -0.2136409 270 4983630 805 37 55 5466
5.8197107 -1.7695712 -0.29611498 286 4983630 1061 38 92 6090
6.52878 -1.7279879 -0.39283901 224 4983630 1027 39 71 6765
4.653419 -1.7961357 -0.33104205 322 4983630 805 40 79 4999
5.2129364 -1.7976743 -0.41780838 300 4983630 918 41 82 5530
5.8221459 -1.7720879 -0.51960224 251 4983630 936 42 110 6108
6.5461979 -1.7363884 -0.64270121 237 4983630 1098 43 77 6803
4.7088943 -1.819437 -0.5211435 333 4983630 858 44 91 5075
5.1886573 -1.7916327 -0.61843705 278 4983630 847 45 52 5524
5.7726722 -1.7603326 -0.73748982 277 4983630 1026 46 69 6080
6.5569277 -1.7409495 -0.89579576 228 4983630 1068 47 96 6843
4.6726055 -1.809916 -0.70325392 335 4983630 859 48 67 5060
5.1498213 -1.7807379 -0.81756842 277 4983630 840 49 50 5510
5.7975221 -1.7712288 -0.96892226 265 4983630 997 50 42 6139
6.5544224 -1.7422439 -1.1509902 221 4983630 1044 51 56 6879
4.7160869 -1.8315878 -0.90173948 323 4983630 854 52 76 5139
5.2089229 -1.8041267 -1.0359205 271 4983630 854 53 70 5609
5.7871237 -1.7700398 -1.1969643 232 4983630 881 54 49 6169
6.5568824 -1.7427752 -1.4124216 233 4983630 1117 55 48 6930
4.6814108 -1.8211302 -1.0897167 285 4983630 754 56 88 5140
5.2140322 -1.8089544 -1.251335 271 4983630 869 57 65 5659
5.8311453 -1.7847286 -1.4449149 230 4983630 902 58 40 6267
6.5921845 -1.7527742 -1.6880826 212 4983630 1049 59 58 7027
4.6775398 -1.8259246 -1.288595 294 4983630 790 60 21 5184
5.2044921 -1.810531 -1.4695061 242 4983630 786 61 30 5703
5.8398399 -1.7886161 -1.6933305 204 4983630 818 62 42 6338
6.6130157 -1.7553474 -1.973683 163 4983630 825 63 35 7121
1.6772254 -0.65693444 0.56224686 217 5082900 77 0 12 1887
1.705834 -0.59427631 0.54218262 278 5082900 99 1 1 1886
1.7870106 -0.5482288 0.54125309 206 5082900 78 2 32 1946
1.7563393 -0.46723548 0.50767374 263 5082900 94 3 27 1887
1.7720889 -0.69305617 0.51401901 283 5082900 110 4 14 1971
1.8360697 -0.64054614 0.50460875 259 5082900 104 5 2 2009
1.868113 -0.57389474 0.48682144 260 5082900 106 6 62 2014
1.8915225 -0.50524884 0.46801218 213 5082900 86 7 31 2013
1.9032195 -0.74391955 0.47090214 166 5082900 73 8 52 2097
0 -0 0 2 5082900 0 9 28 0
5.6954174 -1.753037 1.2510015 113 5082900 417 10 52 6089
5.8550444 -1.5694294 1.2134551 395 5082900 1508 11 34 6182
1.1809438 -0.46138671 0.24325927 53 5082900 9 12 59 1291
0 -0 0 5 5082900 0 13 26 0
5.6731067 -1.7473621 1.0193704 170 5082900 618 14 75 6023
6.3159962 -1.6946406 1.0616099 183 5082900 801 15 49 6625
4.6101861 -1.8012612 0.76269788 258 5082900 646 16 55 5008
5.0964384 -1.779282 0.77884042 247 5082900 736 17 63 5454
5.661108 -1.7470205 0.79766065 236 5082900 842 18 48 5978
6.3424525 -1.7058932 0.82121336 229 5082900 1001 19 57 6619
4.5951123 -1.795464 0.57648998 278 5082900 687 20 58 4967
5.1177635 -1.7876289 0.58067632 228 5082900 679 21 58 5452
5.6910543 -1.7591997 0.58081084 229 5082900 822 22 58 5985
6.3796725 -1.719606 0.58260173 206 5082900 907 23 95 6633
4.5973468 -1.7973547 0.39524975 267 5082900 656 24 58 4952
5.0933347 -1.7805922 0.38042051 272 5082900 797 25 81 5409
5.6854625 -1.7576886 0.36262119 260 5082900 925 26 81 5962
6.3660078 -1.7199755 0.33947462 261 5082900 1139 27 77 6603
4.5938053 -1.7985586 0.21444541 328 5082900 799 28 55 4938
5.0873322 -1.7804869 0.18266286 250 5082900 726 29 26 5393
5.6763821 -1.7607442 0.14659777 259 5082900 914 30 31 5945
6.3605475 -1.7210019 0.098451063 327 5082900 1422 31 71 6590
4.6370444 -1.8157675 0.034766678 283 5082900 703 32 67 4980
5.0943022 -1.7850225 -0.013660853 290 5082900 847 33 60 5398
5.6793995 -1.7624408 -0.070993915 223 5082900 787 34 55 5947
6.1985083 -1.6814548 -0.13778485 739 5082900 3051 35 72 6424
4.6351571 -1.8176416 -0.14785448 276 5082900 685 36 112 4981
5.1192861 -1.797991 -0.21223383 294 5082900 866 37 45 5430
5.6713939 -1.7625612 -0.28911322 265 5082900 937 38 112 5946
6.3908725 -1.7335173 -0.38517386 230 5082900 1014 39 72 6633
4.6088796 -1.8115147 -0.3286581 372 5082900 917 40 78 4963
5.1002178 -1.7938943 -0.40964869 309 5082900 909 41 76 5422
5.6627445 -1.7616074 -0.50633144 279 5082900 989 42 102 5952
6.3509722 -1.7263839 -0.62456238 256 5082900 1117 43 37 6611
4.6087799 -1.813333 -0.51128542 330 5082900 819 44 64 4979
5.0988345 -1.7957081 -0.60903287 290 5082900 857 45 42 5440
5.6707869 -1.7673664 -0.72584522 273 5082900 978 46 91 5984
6.4313283 -1.7499148 -0.88008696 223 5082900 1008 47 121 6723
4.5950837 -1.8123913 -0.69324714 340 5082900 847 48 72 4988
5.08284 -1.7925684 -0.80866569 285 5082900 845 49 44 5450
5.6960564 -1.7785146 -0.95377046 284 5082900 1036 50 46 6043
6.4066296 -1.7451161 -1.1268963 257 5082900 1164 51 56 6735
4.6168718 -1.8257353 -0.88489437 309 5082900 786 52 92 5043
5.0754333 -1.7928451 -1.0115416 278 5082900 833 53 52 5477
5.6862674 -1.7774189 -1.1783376 230 5082900 846 54 56 6073
6.4667192 -1.7613628 -1.3953012 216 5082900 1011 55 37 6846
4.615633 -1.8282273 -1.0769962 294 5082900 759 56 107 5080
5.1256056 -1.8135872 -1.2327607 245 5082900 760 57 51 5575
5.7086425 -1.7856159 -1.4172479 233 5082900 879 58 46 6147
6.4239607 -1.7503188 -1.6477242 206 5082900 971 59 65 6859
4.6230421 -1.837419 -1.2766635 275 5082900 724 60 44 5136
5.1277199 -1.8191705 -1.4509537 252 5082900 798 61 29 5631
5.7183971 -1.7898725 -1.66127 208 5082900 803 62 33 6218
6.5019903 -1.7686539 -1.9437494 163 5082900 800 63 30 7013
1.6838031 -0.67145634 0.56582236 150 5179400 54 0 5 1899
1.7021555 -0.60473192 0.54218262 253 5179400 90 1 28 1886
1.7836131 -0.55918336 0.54125309 235 5179400 89 2 31 1946
1.7645899 -0.48104313 0.51090223 274 5179400 99 3 21 1899
1.8108544 -0.72105902 0.52653694 263 5179400 107 4 11 2019
1.8211615 -0.64790672 0.50159472 272 5179400 108 5 1 1997
1.8423374 -0.57837111 0.48102018 254 5179400 101 6 61 1990
1.9221581 -0.52608865 0.47638199 225 5179400 94 7 55 2049
1.9312134 -0.76855487 0.47898629 182 5179400 83 8 59 2133
0 -0 0 7 5179400 0 9 20 0
0 -0 0 8 5179400 0 10 48 0
5.9020362 -1.6209064 1.2252324 371 5179400 1444 11 34 6242
1.1342885 -0.45120052 0.23421477 100 5179400 16 12 67 1243
1.3395091 -0.47655135 0.2581459 19 5179400 4 13 30 1445
5.5494657 -1.7466322 0.99906093 149 5179400 521 14 63 5903
6.1912665 -1.7019662 1.0423806 209 5179400 883 15 48 6505
4.5219064 -1.7988281 0.74990499 55 5179400 132 16 54 4924
5.0182905 -1.7866184 0.76855868 213 5179400 618 17 63 5382
5.5822287 -1.7602642 0.78805351 208 5179400 727 18 69 5906
6.2285509 -1.7163086 0.80781388 187 5179400 795 19 65 6511
4.5286355 -1.8015965 0.56952614 261 5179400 630 20 63 4907
5.0392585 -1.7949753 0.57300782 248 5179400 719 21 79 5380
5.5662656 -1.7581147 0.56916553 215 5179400 738 22 56 5865
6.2422552 -1.7237192 0.57100761 214 5179400 905 23 115 6501
4.5751185 -1.8211058 0.39429194 264 5179400 646 24 59 4940
4.9808359 -1.7756348 0.37282473 289 5179400 813 25 64 5301
5.5717769 -1.7600694 0.3560524 250 5179400 858 26 78 5854
6.2629352 -1.7334303 0.33453906 220 5179400 933 27 67 6507
4.538137 -1.8089552 0.21236089 341 5179400 816 28 71 4890
5.019835 -1.791513 0.18063064 227 5179400 644 29 45 5333
5.5625501 -1.762922 0.14393461 244 5179400 830 30 37 5837
6.2573662 -1.7343583 0.097016878 226 5179400 955 31 70 6494
4.5477901 -1.8130791 0.034180254 269 5179400 646 32 69 4896
5.026752 -1.7960589 -0.013509009 278 5179400 794 33 59 5338
5.5998502 -1.7754965 -0.070134394 221 5179400 765 34 58 5875
6.2574301 -1.7387282 -0.13932915 306 5179400 1289 35 49 6496
4.5570788 -1.8193637 -0.14571725 300 5179400 723 36 88 4909
4.9726925 -1.7808549 -0.20660552 274 5179400 765 37 36 5286
5.5690823 -1.7683088 -0.28444543 277 5179400 948 38 109 5850
6.2531481 -1.7374208 -0.3775087 236 5179400 999 39 75 6501
4.5532107 -1.8219668 -0.32547948 337 5179400 815 40 87 4915
5.0102715 -1.7968787 -0.40330222 323 5179400 921 41 86 5338
5.5834599 -1.7745905 -0.50020647 288 5179400 996 42 106 5880
6.2366824 -1.7364812 -0.61435926 251 5179400 1060 43 41 6503
4.5643249 -1.8282627 -0.50758862 307 5179400 751 44 79 4943
4.975491 -1.7866596 -0.59559828 302 5179400 853 45 55 5320
5.5803862 -1.7768312 -0.71565622 298 5179400 1039 46 79 5900
6.2944093 -1.7542114 -0.86280721 224 5179400 973 47 107 6591
4.5287375 -1.8184123 -0.68490821 330 5179400 802 48 67 4928
5.0047421 -1.7996291 -0.79798239 284 5179400 820 49 41 5378
5.5947232 -1.7846231 -0.93861878 280 5179400 989 50 42 5947
6.2818446 -1.7526004 -1.106818 268 5179400 1175 51 58 6615
4.5507865 -1.8319709 -0.87436616 332 5179400 825 52 84 4983
5.0310497 -1.811965 -1.0048928 288 5179400 851 53 56 5441
5.5967555 -1.7872088 -1.1620392 254 5179400 910 54 49 5989
6.2747335 -1.7504984 -1.3561692 203 5179400 897 55 45 6654
4.5281935 -1.8258156 -1.0591875 300 5179400 749 56 102 4996
5.0153046 -1.8092616 -1.2088795 265 5179400 791 57 53 5467
5.5974751 -1.7886227 -1.3923475 242 5179400 881 58 52 6039
6.3233414 -1.7646536 -1.6246624 212 5179400 972 59 68 6763
4.5362563 -1.8352363 -1.2557834 258 5179400 658 60 37 5052
5.0292339 -1.8190495 -1.4262172 272 5179400 832 61 32 5535
5.5971632 -1.7897074 -1.6292095 216 5179400 802 62 33 6098
6.2910929 -1.7528138 -1.883882 167 5179400 770 63 49 6797
1.6265819 -0.66023427 0.5479449 124 5276470 42 0 28 1839
1.7200259 -0.62299293 0.5490821 266 5276470 97 1 26 1910
1.8350347 -0.58769494 0.55794126 214 5276470 86 2 44 2006
1.7616051 -0.4918614 0.51090223 277 5276470 100 3 29 1899
1.7849233 -0.72345346 0.52027798 283 5276470 113 4 17 1995
1.8171517 -0.65906894 0.50159472 254 5276470 101 5 1 1997
1.8609298 -0.59677619 0.48682144 255 5276470 104 6 79 2014
1.930132 -0.54102296 0.47917196 206 5276470 87 7 53 2061
1.883109 -0.76282853 0.46820739 116 5276470 51 8 77 2085
1.2883112 -0.46670234 0.30141717 9 5276470 2 9 18 1403
1.156312 -0.37150443 0.2549668 11 5276470 2 10 53 1241
5.9146338 -1.6634616 1.2299434 385 5276470 1510 11 43 6266
1.2298108 -0.49795914 0.25456488 203 5276470 37 12 44 1351
1.2366647 -0.44853014 0.23885193 15 5276470 3 13 40 1337
5.4936066 -1.766171 0.99093717 116 5276470 399 14 62 5855
6.1236982 -1.7238746 1.032766 208 5276470 862 15 56 6445
1.1799127 -0.477779 0.19615711 69 5276470 11 16 33 1288
4.9179182 -1.7849593 0.75484973 253 5276470 706 17 57 5286
5.4581232 -1.7580221 0.77204162 224 5276470 748 18 55 5786
6.1147642 -1.7253916 0.7944144 227 5276470 932 19 75 6403
4.4401641 -1.7980343 0.55977684 258 5276470 601 20 74 4823
4.915998 -1.7851363 0.56022698 261 5276470 723 21 59 5260
5.4530749 -1.7592328 0.55868477 204 5276470 675 22 47 5757
6.1510425 -1.7392217 0.56362957 217 5276470 894 23 99 6417
4.4529953 -1.8042256 0.38471401 284 5276470 659 24 56 4820
4.9135952 -1.78572 0.36860487 279 5276470 765 25 42 5241
5.4924779 -1.7721564 0.35167322 236 5276470 789 26 101 5782
6.1484103 -1.7424184 0.32898653 233 5276470 956 27 69 6399
4.4380794 -1.8007073 0.20819184 341 5276470 783 28 42 4794
4.9411259 -1.7976781 0.17819197 244 5276470 674 29 40 5261
5.4603214 -1.7674648 0.14156733 228 5276470 750 30 38 5741
6.1311774 -1.7399627 0.095224135 247 5276470 1005 31 68 6374
4.4921031 -1.822901 0.033845149 282 5276470 662 32 53 4848
4.902884 -1.7858001 -0.013205322 274 5276470 745 33 53 5218
5.4746952 -1.7728564 -0.068701856 205 5276470 677 34 55 5755
6.1427894 -1.7475451 -0.13701272 251 5276470 1026 35 61 6388
4.479156 -1.820197 -0.14358002 306 5276470 716 36 94 4837
4.8940892 -1.7866613 -0.20379137 321 5276470 872 37 45 5214
5.501121 -1.7839601 -0.28152803 303 5276470 1015 38 124 5790
6.1732345 -1.7560898 -0.37332773 236 5276470 977 39 62 6429
4.4864993 -1.827288 -0.32150614 349 5276470 823 40 80 4855
4.9429607 -1.807045 -0.39876902 311 5276470 867 41 78 5278
5.4814873 -1.779285 -0.49203986 305 5276470 1020 42 119 5784
6.1569781 -1.7550668 -0.60755718 257 5276470 1061 43 51 6431
4.4756479 -1.8246901 -0.49896282 311 5276470 735 44 85 4859
4.930841 -1.8048586 -0.59156799 286 5276470 797 45 55 5284
5.4787583 -1.7815706 -0.70401168 271 5276470 914 46 81 5804
6.1576848 -1.7568953 -0.84552747 266 5276470 1110 47 119 6459
4.4404922 -1.8146971 -0.67323363 332 5276470 780 48 69 4844
4.8933253 -1.793548 -0.78195751 293 5276470 813 49 32 5270
5.4597321 -1.7785451 -0.91778505 268 5276470 905 50 40 5815
6.1685896 -1.7618695 -1.0887474 255 5276470 1082 51 67 6507
4.4848008 -1.8374652 -0.86383802 333 5276470 808 52 85 4923
4.9091253 -1.8021582 -0.98273009 260 5276470 737 53 76 5321
5.4625735 -1.7813692 -1.1364273 270 5276470 928 54 61 5857
6.1735029 -1.7631563 -1.3366032 230 5276470 988 55 37 6558
4.4735084 -1.8357571 -1.0490112 312 5276470 764 56 116 4948
4.9052525 -1.8036517 -1.1849982 263 5276470 754 57 55 5359
5.4975896 -1.7939558 -1.3702137 235 5276470 829 58 26 5943
6.2003894 -1.7714204 -1.595835 249 5276470 1101 59 68 6643
4.460422 -1.8364841 -1.2378863 295 5276470 731 60 38 4980
4.9309449 -1.8177894 -1.4014807 245 5276470 724 61 22 5439
5.5201206 -1.8024808 -1.6099732 210 5276470 761 62 53 6026
6.2358689 -1.7787317 -1.8705782 187 5276470 851 63 27 6749
1.5272146 -0.63084298 0.51576543 113 5374100 34 0 24 1731
1.6838242 -0.62159413 0.53873295 251 5374100 88 1 16 1874
1.7766167 -0.58102894 0.54125309 217 5374100 82 2 33 1946
1.7585539 -0.50266117 0.51090223 298 5374100 107 3 31 1899
1.7804507 -0.73439193 0.52027798 282 5374100 112 4 13 1995
1.8239683 -0.67423368 0.50460875 278 5374100 112 5 1 2009
1.846167 -0.6045596 0.48392081 254 5374100 102 6 55 2002
1.9155575 -0.54963684 0.47638199 223 5374100 93 7 41 2049
1.2081175 -0.49804723 0.30113485 36 5374100 7 8 70 1341
0 -0 0 0 5374100 0 9 23 0
0 -0 0 0 5374100 0 10 34 0
5.8590865 -1.6867012 1.2205216 548 5374100 2117 11 37 6218
1.1722511 -0.48304588 0.24325927 68 5374100 11 12 69 1291
1.2338892 -0.45610973 0.23885193 27 5374100 5 13 36 1337
5.3815341 -1.7666461 0.97265851 52 5374100 173 14 75 5747
6.0219507 -1.7351797 1.0173827 230 5374100 926 15 42 6349
1.2756479 -0.52567828 0.21260506 72 5374100 14 16 19 1396
4.828898 -1.7862576 0.74285436 254 5374100 689 17 64 5202
5.3455567 -1.7580402 0.75763088 242 5374100 779 18 47 5678
5.989665 -1.7298402 0.77952611 218 5374100 862 19 64 6283
4.4180279 -1.8207034 0.55838406 269 5374100 623 20 86 4811
4.8154321 -1.7821363 0.55000234 250 5374100 668 21 72 5164
5.374115 -1.7702391 0.55169755 223 5374100 719 22 54 5685
6.0024652 -1.737056 0.55098152 255 5374100 1004 23 107 6273
4.3865485 -1.8087157 0.37992504 315 5374100 715 24 60 4760
4.8351955 -1.7908899 0.36354104 299 5374100 800 25 61 5169
5.344985 -1.7608505 0.34291485 266 5374100 846 26 97 5638
5.9879761 -1.7367146 0.32096624 237 5374100 925 27 59 6243
4.3715405 -1.8050276 0.20558618 354 5374100 793 28 43 4734
4.8512874 -1.7987761 0.17534687 243 5374100 651 29 31 5177
5.3924217 -1.7821136 0.1400878 252 5374100 812 30 40 5681
5.993638 -1.7407386 0.09325213 232 5374100 902 31 47 6242
4.3810129 -1.8092073 0.033091176 261 5374100 587 32 75 4740
4.8130846 -1.7866182 -0.012992742 291 5374100 766 33 57 5134
5.3383951 -1.7649821 -0.067126073 216 5374100 682 34 52 5623
6.0513182 -1.7617288 -0.13521105 248 5374100 987 35 79 6304
4.3903131 -1.8155599 -0.14108658 339 5374100 766 36 119 4753
4.8268428 -1.795752 -0.20144625 329 5374100 873 37 51 5154
5.399044 -1.7875431 -0.27686021 312 5374100 1011 38 127 5694
6.0128131 -1.750405 -0.3642689 233 5374100 919 39 67 6273
4.3756518 -1.8135225 -0.31435421 387 5374100 873 40 71 4747
4.8084388 -1.7913895 -0.38879603 344 5374100 912 41 85 5146
5.3910198 -1.786557 -0.48489407 299 5374100 971 42 119 5700
6.0199413 -1.7560138 -0.59508669 242 5374100 962 43 67 6299
4.4202662 -1.8338215 -0.49403378 314 5374100 728 44 73 4811
4.8526382 -1.8100747 -0.58350724 293 5374100 797 45 58 5212
5.377286 -1.7851309 -0.69236708 311 5374100 1015 46 76 5708
5.9983301 -1.7513002 -0.82510608 235 5374100 934 47 108 6303
4.3963556 -1.8282204 -0.66823018 331 5374100 766 48 71 4808
4.8711109 -1.8193868 -0.78017694 283 5374100 781 49 41 5258
5.4037399 -1.7970548 -0.91020924 297 5374100 987 50 32 5767
6.0554609 -1.7698158 -1.0706769 270 5374100 1104 51 54 6399
4.3753037 -1.8240358 -0.8448872 344 5374100 798 52 92 4815
4.8427448 -1.8115855 -0.97164875 274 5374100 760 53 65 5261
5.4068632 -1.7999802 -1.1271139 249 5374100 842 54 60 5809
6.0610805 -1.7713434 -1.3145915 254 5374100 1055 55 49 6450
4.4188733 -1.8450971 -1.0388348 300 5374100 721 56 92 4900
4.8502574 -1.8172914 -1.1743842 255 5374100 718 57 55 5311
5.4089308 -1.8018221 -1.3508468 259 5374100 888 58 45 5859
6.0775976 -1.7767462 -1.5670075 235 5374100 998 59 45 6523
4.3954663 -1.8413625 -1.222972 287 5374100 694 60 35 4920
4.8437181 -1.8194703 -1.3798361 283 5374100 810 61 42 5355
5.410223 -1.8034066 -1.5811186 196 5374100 685 62 48 5918
6.0698848 -1.7717319 -1.8240147 187 5374100 808 63 53 6581
1.4810741 -0.62244934 0.50146341 118 5472910 33 0 19 1683
1.7230089 -0.64809984 0.55253184 265 5472910 98 1 22 1922
1.7620848 -0.58826905 0.53791547 250 5472910 93 2 33 1934
1.7665294 -0.5166865 0.51413065 263 5472910 96 3 22 1911
1.7972753 -0.75426877 0.52653694 280 5472910 114 4 32 2019
1.8415365 -0.69360071 0.51063693 261 5472910 108 5 8 2033
1.8313793 -0.61218458 0.48102018 259 5472910 102 6 56 1990
1.8897519 -0.55480468 0.47080213 218 5472910 89 7 44 2025
1.2158221 -0.50997376 0.30382955 94 5472910 17 8 42 1353
1.5238104 -0.57326353 0.3581343 10 5472910 3 9 20 1667
0 -0 0 6 5472910 0 10 23 0
5.8599143 -1.7259446 1.222877 212 5472910 821 11 46 6230
1.1475283 -0.48111612 0.23873703 77 5472910 12 12 56 1267
1.2863135 -0.48448017 0.2495708 39 5472910 8 13 24 1397
5.2920942 -1.7733294 0.95844179 33 5472910 107 14 78 5663
5.8634906 -1.7285552 0.99238485 203 5472910 777 15 40 6193
1.1520857 -0.4830505 0.19250201 84 5472910 13 16 25 1264
4.751164 -1.7907207 0.73257262 255 5472910 672 17 66 5130
5.2444739 -1.7605289 0.74482131 220 5472910 684 18 54 5582
5.8875837 -1.7395676 0.7676155 212 5472910 813 19 63 6187
4.3298306 -1.8155155 0.54863465 203 5472910 454 20 72 4727
4.7597489 -1.7948103 0.54488999 241 5472910 632 21 77 5116
5.2839074 -1.7765374 0.54354578 219 5472910 686 22 44 5601
5.8999991 -1.7467073 0.54254949 249 5472910 951 23 104 6177
4.3533068 -1.8263419 0.37800944 274 5472910 616 24 70 4736
4.7345209 -1.7867132 0.35678929 282 5472910 727 25 71 5073
5.2773137 -1.7745256 0.3392655 251 5472910 781 26 111 5578
5.885294 -1.746153 0.31603068 235 5472910 889 27 93 6147
4.3051181 -1.8085999 0.20298053 331 5472910 722 28 50 4674
4.7504053 -1.7946023 0.17209531 240 5472910 619 29 35 5081
5.2222457 -1.7614888 0.1359451 208 5472910 631 30 32 5513
5.8793287 -1.7467279 0.091638669 269 5472910 1011 31 50 6134
4.3477039 -1.8267581 0.032923624 329 5472910 732 32 76 4716
4.7683592 -1.8033823 -0.012901635 259 5472910 674 33 61 5098
5.2819877 -1.7823589 -0.066553064 218 5472910 679 34 71 5575
5.9024158 -1.7577358 -0.13212247 265 5472910 1004 35 55 6160
4.3569784 -1.8331606 -0.14037417 337 5472910 753 36 124 4729
4.7596717 -1.8040857 -0.19910112 337 5472910 876 37 66 5094
5.2744241 -1.7822677 -0.27102545 290 5472910 901 38 117 5574
5.8871446 -1.7530763 -0.35730058 217 5472910 820 39 52 6153
4.3423758 -1.8310324 -0.31276488 354 5472910 790 40 85 4723
4.7861691 -1.8166137 -0.38788939 330 5472910 870 41 93 5134
5.2666941 -1.7812946 -0.47468576 290 5472910 903 42 98 5580
5.894577 -1.7587621 -0.58374995 259 5472910 988 43 40 6179
4.3539453 -1.8377011 -0.48787248 339 5472910 766 44 71 4751
4.7634125 -1.8101642 -0.57410306 304 5472910 801 45 67 5128
5.264698 -1.7836919 -0.67926693 293 5472910 920 46 90 5600
5.8848777 -1.7574341 -0.8109681 258 5472910 990 47 111 6195
4.3193889 -1.8273803 -0.65822339 372 5472910 835 48 71 4736
4.7600336 -1.8112575 -0.76415199 311 5472910 824 49 47 5150
5.2804022 -1.7920952 -0.89126956 291 5472910 927 50 32 5647
5.9198003 -1.7696642 -1.0485908 238 5472910 937 51 58 6267
4.3314013 -1.8370098 -0.83857036 342 5472910 782 52 71 4779
4.7764359 -1.820267 -0.96056741 313 5472910 848 53 58 5201
5.2954006 -1.7990409 -1.1061587 266 5472910 863 54 47 5701
5.9375377 -1.7748536 -1.290134 228 5472910 912 55 47 6330
4.3427057 -1.8446665 -1.0235703 299 5472910 698 56 83 4828
4.7515469 -1.8136317 -1.1531564 287 5472910 779 57 44 5215
5.2982755 -1.8011523 -1.3259465 259 5472910 855 58 47 5751
5.9772987 -1.7873073 -1.5439458 251 5472910 1035 59 51 6427
4.3199277 -1.8409569 -1.2050749 311 5472910 730 60 31 4848
4.745831 -1.8160064 -1.3550997 278 5472910 768 61 23 5259
5.3114743 -1.8067769 -1.5554702 188 5472910 636 62 52 5822
5.9815636 -1.7858533 -1.8007329 186 5472910 784 63 34 6497
1.4877597 -0.63602817 0.50503892 95 5569610 27 0 37 1695
1.7189997 -0.65865982 0.55253184 259 5569610 96 1 31 1922
1.7584422 -0.59906989 0.53791547 232 5569610 87 2 29 1934
1.7633258 -0.52751601 0.51413065 287 5569610 105 3 23 1911
1.7926134 -0.76528245 0.52653694 212 5569610 86 4 36 2019
1.815557 -0.69656581 0.50460875 266 5569610 107 5 1 2009
1.8496299 -0.6309287 0.48682144 285 5569610 115 6 56 2014
1.8974904 -0.56974596 0.4735921 240 5569610 99 7 33 2037
1.1481378 -0.48988953 0.28766122 156 5569610 26 8 52 1281
1.4327145 -0.54905146 0.3375099 13 5569610 3 9 22 1571
0 -0 0 5 5569610 0 10 33 0
5.7478147 -1.731325 1.2016778 228 5569610 853 11 32 6122
1.1662351 -0.49739483 0.24325927 90 5569610 15 12 68 1291
1.2833166 -0.49236375 0.2495708 37 5569610 7 13 31 1397
5.2139692 -1.7828089 0.94625604 16 5569610 51 14 73 5591
5.7847295 -1.7439861 0.98084736 205 5569610 766 15 54 6121
1.1491001 -0.49011046 0.19250201 76 5569610 12 16 13 1264
4.7179112 -1.8113258 0.72914547 210 5569610 548 17 73 5106
5.1773181 -1.7734061 0.73681539 225 5569610 687 18 60 5522
5.762816 -1.7412206 0.75272721 195 5569610 720 19 58 6067
1.1392651 -0.48593923 0.14473185 29 5569610 5 20 79 1247
4.6818166 -1.7983119 0.53722149 248 5569610 632 21 72 5044
5.1938276 -1.7817963 0.53539407 245 5569610 744 22 53 5517
5.7976437 -1.7551675 0.53411746 220 5569610 814 23 100 6081
4.254005 -1.8154578 0.37034711 266 5569610 572 24 55 4640
4.6564298 -1.7899598 0.35172546 314 5569610 786 25 65 5001
5.1417017 -1.7641147 0.33123699 270 5569610 801 26 89 5446
5.7827253 -1.7543979 0.31109509 244 5569610 894 27 89 6051
4.2277946 -1.8067149 0.19985375 350 5569610 740 28 52 4602
4.660953 -1.7935663 0.16925021 285 5569610 711 29 48 4997
5.188652 -1.7856909 0.13535327 232 5569610 698 30 31 5489
5.788136 -1.7583563 0.090383753 236 5569610 865 31 77 6050
4.2591743 -1.8203887 0.0323372 290 5569610 623 32 79 4632
4.656424 -1.7937832 -0.012628317 278 5569610 691 33 57 4990
5.2255702 -1.7991104 -0.065980054 254 5569610 775 34 56 5527
5.7997031 -1.7659621 -0.13006341 252 5569610 928 35 70 6064
4.2905121 -1.8362627 -0.13859315 321 5569610 700 36 112 4669
4.6813955 -1.8073448 -0.19628698 313 5569610 788 37 50 5022
5.1727381 -1.7833449 -0.2663576 310 5569610 931 38 102 5478
5.7616744 -1.7542727 -0.35033226 243 5569610 886 39 73 6033
4.2320218 -1.815164 -0.30561295 369 5569610 787 40 77 4615
4.6856465 -1.8114296 -0.38063627 302 5569610 768 41 61 5038
5.1991529 -1.7940761 -0.46958163 318 5569610 969 42 115 5520
5.7922626 -1.767011 -0.57468051 298 5569610 1101 43 53 6083
4.2548399 -1.8267095 -0.47801438 356 5569610 772 44 88 4655
4.6966128 -1.8178365 -0.56738579 316 5569610 811 45 33 5068
5.1635914 -1.784831 -0.66762233 330 5569610 1000 46 92 5504
5.782958 -1.7657173 -0.79840106 264 5569610 983 47 95 6099
4.2862635 -1.8444549 -0.65488786 353 5569610 785 48 62 4712
4.6935043 -1.8189884 -0.7552492 299 5569610 774 49 42 5090
5.1909246 -1.7973223 -0.87801176 318 5569610 983 50 34 5563
5.7956891 -1.7713737 -1.0285125 288 5569610 1087 51 45 6147
4.2766581 -1.8448348 -0.8301478 339 5569610 760 52 72 4731
4.6882162 -1.8196689 -0.94505352 317 5569610 831 53 74 5117
5.2064023 -1.8045132 -1.0898603 253 5569610 800 54 67 5617
5.8366542 -1.783783 -1.2705679 241 5569610 935 55 36 6234
4.2774782 -1.8480228 -1.01085 353 5569610 803 56 82 4768
4.6857905 -1.8215511 -1.139889 253 5569610 671 57 54 5155
5.1878352 -1.7991936 -1.3010459 240 5569610 763 58 29 5643
5.8436828 -1.7864885 -1.5122355 239 5569610 945 59 52 6295
4.2765565 -1.853562 -1.1961263 313 5569610 724 60 38 4812
4.6805816 -1.8240415 -1.3396393 314 5569610 848 61 23 5199
5.2238154 -1.8127955 -1.5330279 233 5569610 766 62 44 5738
5.8712454 -1.792226 -1.7707992 178 5569610 725 63 46 6389
1.5048392 -0.65427977 0.51218992 78 5667360 23 0 33 1719
1.7042187 -0.66501689 0.5490821 255 5667360 93 1 15 1910
1.7873963 -0.62120014 0.54792839 221 5667360 86 2 30 1970
1.7379515 -0.53156483 0.50767374 278 5667360 99 3 16 1887
1.7560049 -0.76242596 0.51714849 102 5667360 40 4 47 1983
1.8004301 -0.70346558 0.50159472 277 5667360 110 5 1 1997
1.8237289 -0.63461232 0.48102018 255 5667360 101 6 75 1990
1.8716439 -0.57452816 0.46801218 274 5667360 111 7 48 2013
1.1129291 -0.48296005 0.27957708 148 5667360 23 8 48 1245
1.1782098 -0.45982978 0.27821472 69 5667360 12 9 31 1295
0 -0 0 4 5667360 0 10 34 0
5.6358738 -1.735396 1.1804787 162 5667360 585 11 28 6014
1.1955963 -0.51861066 0.25004265 69 5667360 12 12 53 1327
1.2252847 -0.47874433 0.23885193 48 5667360 9 13 31 1337
5.2922688 -1.8459281 0.96250373 9 5667360 30 14 69 5687
5.6607242 -1.7445624 0.96161819 197 5667360 708 15 55 6001
1.2657558 -0.54906976 0.21260506 74 5667360 14 16 11 1396
4.585031 -1.7926664 0.71029562 244 5667360 605 17 58 4974
5.0877495 -1.7776805 0.72560704 235 5667360 694 18 48 5438
5.6496301 -1.744923 0.73932773 223 5667360 793 19 65 5959
1.2346711 -0.53561121 0.15726675 49 5667360 9 20 60 1355
4.6151347 -1.8052723 0.53083104 264 5667360 657 21 59 4984
5.0926127 -1.7820731 0.52607781 224 5667360 657 22 52 5421
5.6611519 -1.7518373 0.52252334 234 5667360 829 23 88 5949
4.1659765 -1.8081877 0.36364254 315 5667360 655 24 67 4556
4.6007724 -1.8010433 0.34834954 292 5667360 717 25 71 4953
5.0968647 -1.7837607 0.32904741 276 5667360 808 26 87 5410
5.6573877 -1.7543517 0.30492562 241 5667360 848 27 110 5931
4.1836433 -1.8182861 0.19829035 362 5667360 754 28 37 4566
4.6275277 -1.8133801 0.1684373 262 5667360 647 29 22 4973
5.0757246 -1.7817338 0.13269009 238 5667360 688 30 33 5381
5.6282706 -1.7475842 0.088053197 218 5667360 759 31 59 5894
4.1818948 -1.8177863 0.03183455 299 5667360 623 32 62 4560
4.6341586 -1.8179383 -0.012597948 284 5667360 705 33 64 4978
5.1125398 -1.7953587 -0.064690769 230 5667360 677 34 64 5419
5.6742053 -1.7658652 -0.1274896 250 5667360 885 35 58 5944
4.1911798 -1.8242581 -0.13574353 350 5667360 732 36 110 4573
4.5921016 -1.805325 -0.19300379 334 5667360 813 37 56 4938
5.1051631 -1.7951705 -0.26344022 296 5667360 869 38 104 5418
5.6936078 -1.7717944 -0.3468481 253 5667360 901 39 49 5973
4.1988544 -1.8315223 -0.30402362 333 5667360 703 40 70 4591
4.6187735 -1.818231 -0.3761031 316 5667360 784 41 81 4978
5.0978193 -1.7941881 -0.46141496 289 5667360 850 42 102 5424
5.690073 -1.7740717 -0.56561106 289 5667360 1034 43 47 5987
4.2107334 -1.8384538 -0.47431764 375 5667360 801 44 90 4619
4.6299005 -1.8247581 -0.56066853 319 5667360 799 45 50 5008
5.0626731 -1.784798 -0.65597779 299 5667360 876 46 72 5408
5.6811619 -1.7728165 -0.78583395 282 5667360 1017 47 104 6003
4.2095451 -1.8421353 -0.64488107 339 5667360 730 48 85 4640
4.6270614 -1.8259721 -0.74634647 313 5667360 791 49 39 5030
5.0792384 -1.7936286 -0.86096609 284 5667360 844 50 33 5455
5.7169542 -1.7857379 -1.0164654 286 5667360 1057 51 59 6075
4.211164 -1.8473119 -0.81961954 354 5667360 773 52 92 4671
4.6111541 -1.8223926 -0.93175596 320 5667360 816 53 64 5045
5.0842428 -1.7971923 -1.0665768 278 5667360 841 54 64 5497
5.6910329 -1.7775321 -1.2412189 266 5667360 985 55 46 6090
4.2123747 -1.850649 -0.99812949 346 5667360 767 56 96 4708
4.5983543 -1.8201184 -1.1213146 272 5667360 698 57 56 5071
5.1106472 -1.8076297 -1.2844456 253 5667360 784 58 45 5571
5.7436628 -1.7945206 -1.4891738 224 5667360 862 59 66 6199
4.1906495 -1.8469536 -1.1752464 304 5667360 679 60 37 4728
4.6261916 -1.8356211 -1.327271 271 5667360 718 61 44 5151
5.1144829 -1.8100911 -1.5041733 229 5667360 724 62 55 5630
5.7280579 -1.7870117 -1.7308877 217 5667360 845 63 44 6245
1.4903195 -0.65886921 0.50861442 72 5764620 21 0 19 1707
1.7001063 -0.67546123 0.5490821 263 5764620 96 1 19 1910
1.7509582 -0.62060362 0.53791547 222 5764620 83 2 31 1934
1.723626 -0.53877062 0.50444531 253 5764620 89 3 15 1875
1.126021 -0.49713188 0.3325085 16 5764620 3 4 73 1275
1.8068724 -0.71879303 0.50460875 277 5764620 112 5 12 2009
1.8636954 -0.66136742 0.49262267 275 5764620 114 6 56 2038
1.8792197 -0.58949488 0.47080213 303 5764620 124 7 53 2025
1.1420397 -0.50394207 0.28766122 82 5764620 13 8 43 1281
1.2080405 -0.48003411 0.28594887 61 5764620 11 9 26 1331
1.5538009 -0.55234224 0.34618777 10 5764620 3 10 38 1685
5.7373595 -1.8052608 1.2040333 17 5764620 63 11 35 6134
1.1276953 -0.49740085 0.23647591 85 5764620 13 12 66 1255
1.2223241 -0.4862535 0.23885193 82 5764620 15 13 18 1337
0 -0 0 9 5764620 0 14 57 0
5.514338 -1.7365679 0.9385432 208 5764620 712 15 41 5857
1.1212965 -0.49460185 0.1888469 53 5764620 8 16 23 1240
4.5408401 -1.8075879 0.70515472 240 5764620 586 17 68 4938
4.9759207 -1.7729405 0.7111963 252 5764620 715 18 50 5330
5.5820413 -1.7616377 0.73188359 246 5764620 858 19 59 5899
1.1659312 -0.51431441 0.14891015 45 5764620 7 20 49 1283
4.5374608 -1.8070683 0.52316254 263 5764620 636 21 69 4912
5.0028415 -1.7851897 0.5179261 232 5764620 662 22 59 5337
5.5363216 -1.7505034 0.51198334 230 5764620 782 23 98 5829
4.1329165 -1.8240559 0.36172694 287 5764620 591 24 58 4532
4.5340366 -1.80708 0.34412968 284 5764620 681 25 58 4893
5.0181379 -1.7908456 0.32466823 251 5764620 716 26 75 5338
5.5665455 -1.7636939 0.300607 224 5764620 767 27 84 5847
4.1175799 -1.8196919 0.19568469 343 5764620 696 28 55 4506
4.5494781 -1.8150749 0.16599864 255 5764620 612 29 34 4901
4.9969287 -1.7885876 0.13091464 266 5764620 749 30 38 5309
5.5602574 -1.7639444 0.087156825 281 5764620 958 31 63 5834
4.12676 -1.8240073 0.031499445 287 5764620 585 32 73 4512
4.5337648 -1.8107325 -0.012354999 307 5764620 731 33 56 4882
5.011054 -1.7943342 -0.06354475 258 5764620 730 34 56 5323
5.5717974 -1.7715664 -0.12543054 230 5764620 788 35 60 5848
4.1250648 -1.8256681 -0.1339625 336 5764620 684 36 106 4513
4.5475411 -1.820101 -0.19159673 312 5764620 749 37 57 4902
5.0037918 -1.7940989 -0.25877237 274 5764620 776 38 131 5322
5.54563 -1.7631398 -0.33848614 251 5764620 851 39 52 5829
4.1328101 -1.8329791 -0.30005032 361 5764620 742 40 77 4531
4.5519953 -1.8242806 -0.37156993 340 5764620 823 41 76 4918
5.0191917 -1.8012025 -0.45528999 305 5764620 874 42 107 5352
5.5652518 -1.7726942 -0.55427426 295 5764620 1014 43 56 5867
4.144824 -1.8400391 -0.46815628 363 5764620 755 44 80 4559
4.5300808 -1.817609 -0.54992086 316 5764620 762 45 45 4912
5.0067892 -1.7997115 -0.65015548 297 5764620 854 46 84 5360
5.5794992 -1.7787343 -0.77326691 248 5764620 866 47 81 5907
4.1330185 -1.8389448 -0.63487428 369 5764620 771 48 66 4568
4.5276756 -1.818938 -0.7321021 300 5764620 729 49 42 4934
5.0012436 -1.8006755 -0.84960228 326 5764620 944 50 31 5383
5.5819097 -1.7812201 -0.99437928 287 5764620 1012 51 45 5943
4.1458035 -1.8490558 -0.80909139 350 5764620 745 52 78 4611
4.5232968 -1.8198383 -0.91624212 310 5764620 764 53 66 4961
5.0177464 -1.8083982 -1.0549352 313 5764620 924 54 43 5437
5.5904822 -1.783848 -1.221653 292 5764620 1048 55 44 5994
4.1366944 -1.8477638 -0.98286498 333 5764620 716 56 89 4636
4.5653906 -1.8395516 -1.1160078 269 5764620 684 57 35 5047
5.0335541 -1.8151872 -1.2678454 258 5764620 779 58 33 5499
5.6104765 -1.7907674 -1.4574636 247 5764620 908 59 48 6067
4.1580234 -1.8631263 -1.1692805 318 5764620 703 60 36 4704
4.5610867 -1.8422604 -1.3118106 279 5764620 722 61 35 5091
5.0271392 -1.8139647 -1.4817311 240 5764620 737 62 48 5546
5.6400871 -1.7976159 -1.7076058 210 5764620 796 63 33 6161
1.5071449 -0.67739314 0.51576543 66 5862210 20 0 43 1731
1.7065847 -0.69018936 0.55253184 267 5862210 99 1 9 1922
1.7579577 -0.63525289 0.54125309 216 5862210 82 2 19 1946
1.7753369 -0.56691515 0.52058756 293 5862210 110 3 14 1935
0.99612218 -0.44710574 0.2949546 29 5862210 4 4 51 1131
1.8131942 -0.73422587 0.5076229 268 5862210 109 5 7 2021
1.815804 -0.65694445 0.48102018 258 5862210 102 6 75 1990
1.897796 -0.60813755 0.47638199 281 5862210 118 7 57 2049
1.1175878 -0.50136739 0.2822718 90 5862210 14 8 45 1257
1.0638317 -0.43030733 0.25243419 56 5862210 8 9 20 1175
0 -0 0 8 5862210 0 10 41 0
0 -0 0 5 5862210 0 11 31 0
1.092362 -0.48984459 0.22969253 82 5862210 12 12 69 1219
1.1974301 -0.4848814 0.23456439 92 5862210 16 13 37 1313
1.1109182 -0.40284321 0.20292631 21 5862210 3 14 57 1199
5.4471993 -1.7522346 0.92892861 210 5862210 704 15 39 5797
1.139884 -0.51117861 0.19250201 65 5862210 10 16 20 1264
1.2053418 -0.48840347 0.18764141 28 5862210 5 17 90 1314
4.9202356 -1.7871976 0.70479149 242 5862210 674 18 42 5282
5.4691296 -1.7629764 0.71848416 222 5862210 743 19 55 5791
1.1192522 -0.50194979 0.14333907 45 5862210 7 20 42 1235
4.4820566 -1.8169453 0.51805025 252 5862210 597 21 78 4864
4.890779 -1.7791072 0.50744528 249 5862210 680 22 53 5229
5.4572258 -1.7623992 0.50565928 247 5862210 819 23 94 5757
4.1216464 -1.8493807 0.36172694 82 5862210 167 24 54 4532
4.4563098 -1.8078665 0.33906585 291 5862210 677 25 68 4821
4.9057508 -1.7847474 0.31809941 272 5862210 745 26 87 5230
5.4644032 -1.7682987 0.29567146 262 5862210 868 27 68 5751
4.084466 -1.8350964 0.19464244 355 5862210 712 28 49 4482
4.4715843 -1.8158811 0.16355997 265 5862210 617 29 32 4829
4.8844337 -1.7822067 0.12825148 238 5862210 643 30 24 5201
5.4808426 -1.775838 0.086081184 284 5862210 941 31 52 5762
4.0826545 -1.8345393 0.031248122 299 5862210 600 32 61 4476
4.4669862 -1.8159214 -0.012203155 276 5862210 643 33 69 4822
4.9435911 -1.804476 -0.062828481 237 5862210 655 34 57 5263
5.5037689 -1.7871944 -0.12414364 246 5862210 823 35 40 5788
4.0809698 -1.8361799 -0.13289389 358 5862210 718 36 85 4477
4.4696593 -1.8208271 -0.18878257 293 5862210 682 37 56 4830
4.9364018 -1.8041954 -0.25585499 308 5862210 853 38 102 5262
5.4663424 -1.7749357 -0.33430514 288 5862210 956 39 60 5757
4.0996547 -1.8484601 -0.29846102 371 5862210 754 40 70 4507
4.4742393 -1.8250607 -0.36613011 337 5862210 792 41 93 4846
4.9182148 -1.7991054 -0.44712335 324 5862210 895 42 117 5256
5.463387 -1.7772444 -0.54520488 296 5862210 987 43 67 5771
4.0572968 -1.831066 -0.4595305 389 5862210 780 44 86 4475
4.4746847 -1.8273379 -0.54454702 334 5862210 789 45 44 4864
4.9397306 -1.8099091 -0.64287764 347 5862210 976 46 83 5300
5.4666696 -1.7797894 -0.75912899 261 5862210 878 47 109 5799
4.0783472 -1.8446802 -0.62820309 349 5862210 714 48 66 4520
4.4944611 -1.8377025 -0.72854102 315 5862210 758 49 45 4910
4.9011073 -1.7986689 -0.83445054 300 5862210 838 50 33 5287
5.492135 -1.7897766 -0.98032445 289 5862210 991 51 51 5859
4.0698218 -1.8451897 -0.79645753 355 5862210 732 52 68 4539
4.4793029 -1.8341514 -0.90959328 325 5862210 789 53 69 4925
4.9402561 -1.8147974 -1.0409651 284 5862210 819 54 60 5365
5.4900708 -1.788998 -1.2020869 296 5862210 1028 55 50 5898
4.0718889 -1.8488692 -0.97014457 323 5862210 676 56 112 4576
4.5107055 -1.8497682 -1.1053939 297 5862210 741 57 55 4999
4.9456034 -1.8178394 -1.2484785 261 5862210 764 58 52 5415
5.4997067 -1.7926688 -1.4315189 275 5862210 975 59 51 5959
4.0724688 -1.8548795 -1.1484007 303 5862210 646 60 44 4620
4.4639044 -1.8349459 -1.2870741 297 5862210 740 61 32 4995
4.9290895 -1.8128438 -1.4560826 225 5862210 667 62 39 5450
5.5412412 -1.8036399 -1.6809981 203 5862210 745 63 53 6065
1.5550559 -0.710428 0.53364289 90 5960300 29 0 17 1791
1.734203 -0.71377128 0.56288105 263 5960300 101 1 27 1958
1.7864754 -0.65797871 0.55126601 237 5960300 93 2 23 1982
1.771825 -0.57779777 0.52058756 270 5960300 101 3 21 1935
1.0038996 -0.45801798 0.29808408 27 5960300 3 4 55 1143
1.8086549 -0.74533755 0.5076229 257 5960300 105 5 12 2021
1.8663642 -0.68821663 0.49552333 261 5960300 110 6 60 2050
1.8718442 -0.6125114 0.47080213 294 5960300 120 7 37 2025
1.146409 -0.5227704 0.29035598 81 5960300 13 8 44 1293
1.1587088 -0.47697768 0.27563667 68 5960300 11 9 21 1283
1.1062442 -0.40860453 0.2475705 9 5960300 1 10 37 1205
0 -0 0 0 5960300 0 11 21 0
1.1429536 -0.52097791 0.24099815 70 5960300 12 12 68 1279
1.2162651 -0.50121671 0.23885193 102 5960300 18 13 22 1337
1.1306125 -0.41785195 0.20698823 50 5960300 8 14 76 1223
5.3575711 -1.7597508 0.91546822 235 5960300 766 15 34 5713
1.136726 -0.5181632 0.19250201 60 5960300 10 16 24 1264
1.2133025 -0.50031793 0.18935505 66 5960300 12 17 60 1326
4.8422589 -1.7925812 0.69518435 243 5960300 661 18 59 5210
5.3790364 -1.7704425 0.70806229 230 5960300 750 19 77 5707
1.213758 -0.55330288 0.15587398 44 5960300 8 20 46 1343
4.3825836 -1.8080095 0.50782555 273 5960300 621 21 76 4768
4.8349762 -1.7924764 0.50278711 252 5960300 678 22 67 5181
5.3327847 -1.7584177 0.49511918 246 5960300 782 23 97 5637
1.128225 -0.51457351 0.09929134 40 5960300 6 24 58 1244
4.3787465 -1.8077681 0.33400202 303 5960300 684 25 69 4749
4.8273234 -1.7898309 0.31372026 279 5960300 742 26 113 5158
5.3737965 -1.7754771 0.29135281 253 5960300 813 27 78 5667
3.9858866 -1.8202815 0.19047339 389 5960300 748 28 48 4386
4.3827705 -1.8112204 0.16071488 260 5960300 585 29 21 4745
4.8171859 -1.7912381 0.12677194 235 5960300 620 30 32 5141
5.3673191 -1.7755193 0.084467724 261 5960300 833 31 42 5654
3.9949155 -1.8246577 0.030661697 326 5960300 629 32 84 4392
4.3892283 -1.8157729 -0.012020943 301 5960300 678 33 49 4750
4.8649483 -1.8096749 -0.061968964 261 5960300 704 34 71 5191
5.3788214 -1.7831787 -0.12156983 274 5960300 881 35 77 5668
4.0041776 -1.8312536 -0.13075666 349 5960300 677 36 103 4405
4.391942 -1.820667 -0.18596843 316 5960300 715 37 41 4758
4.8353825 -1.8009831 -0.25118721 322 5960300 859 38 119 5166
5.3871212 -1.7858258 -0.33012414 293 5960300 949 39 61 5685
4.0011554 -1.8336725 -0.29210374 395 5960300 769 40 84 4411
4.3745451 -1.8157818 -0.358877 318 5960300 718 41 67 4750
4.8286595 -1.8000147 -0.43997756 345 5960300 923 42 107 5172
5.3843546 -1.7881426 -0.5384028 297 5960300 966 43 61 5699
4.0025868 -1.8360194 -0.45460144 360 5960300 706 44 77 4427
4.3863068 -1.8227284 -0.53514284 339 5960300 774 45 44 4780
4.8504195 -1.8110194 -0.63268858 322 5960300 877 46 64 5216
5.3766198 -1.7870326 -0.74813277 271 5960300 885 47 107 5715
4.0129657 -1.8448511 -0.61986411 361 5960300 719 48 64 4460
4.406404 -1.8333348 -0.71607715 273 5960300 635 49 42 4826
4.8455834 -1.8121051 -0.82687467 312 5960300 855 50 38 5239
5.335113 -1.7748916 -0.95422256 299 5960300 971 51 37 5703
3.9940467 -1.840462 -0.78382367 365 5960300 729 52 76 4467
4.3917594 -1.8298501 -0.89407939 297 5960300 697 53 65 4841
4.8298039 -1.8079339 -1.02001 284 5960300 786 54 63 5257
5.3786635 -1.7892758 -1.1800752 259 5960300 867 55 50 5790
4.0285239 -1.8590776 -0.96251237 316 5960300 652 56 99 4540
4.4020672 -1.8368504 -1.0815126 264 5960300 633 57 61 4891
4.8578119 -1.8194814 -1.2291116 241 5960300 684 58 44 5331
5.4112349 -1.8006355 -1.4113399 267 5960300 920 59 52 5875
4.0082703 -1.8554194 -1.1334864 337 5960300 700 60 30 4560
4.3883801 -1.8354573 -1.2685217 303 5960300 734 61 25 4923
4.8745604 -1.8268216 -1.4432584 225 5960300 655 62 52 5402
5.4097123 -1.7976123 -1.6444124 218 5960300 766 63 28 5933
1.4987187 -0.69583708 0.51576543 129 6058490 39 0 27 1731
1.6873852 -0.70664018 0.5490821 262 6058490 96 1 18 1910
1.7608213 -0.66082788 0.54459071 219 6058490 84 2 40 1958
1.7463146 -0.58135742 0.51413065 263 6058490 96 3 21 1911
1.0746399 -0.49828139 0.31999055 72 6058490 11 4 57 1227
1.6219467 -0.68006796 0.45638335 257 6058490 85 5 24 1817
1.8512061 -0.69555986 0.49262267 246 6058490 102 6 68 2038
1.8569806 -0.62028754 0.46801218 292 6058490 118 7 38 2013
1.0264746 -0.47570902 0.26071405 60 6058490 8 8 44 1161
1.1341404 -0.47502312 0.27048054 86 6058490 14 9 15 1259
1.1586732 -0.4360677 0.25989768 11 6058490 2 10 30 1265
0 -0 0 7 6058490 0 11 19 0
0.99002826 -0.45862943 0.20934241 59 6058490 7 12 79 1111
1.1696125 -0.49040821 0.23027685 61 6058490 10 13 39 1289
1.2387087 -0.4664607 0.22729778 100 6058490 18 14 67 1343
5.2343674 -1.7549382 0.89623904 227 6058490 709 15 36 5593
1.0797187 -0.50020128 0.18336426 69 6058490 10 16 25 1204
1.232114 -0.51694328 0.19278227 53 6058490 10 17 54 1350
4.7198944 -1.7802876 0.67917246 240 6058490 621 18 54 5090
5.2326236 -1.7579103 0.69019634 272 6058490 840 19 56 5563
1.2103401 -0.56073993 0.15587398 55 6058490 10 20 57 1343
4.3053961 -1.8071588 0.500157 247 6058490 545 21 77 4696
4.7568498 -1.7967877 0.49579993 240 6058490 626 22 42 5109
5.2765784 -1.7758545 0.4909032 259 6058490 810 23 89 5589
1.2552767 -0.58185142 0.11078487 33 6058490 6 24 50 1388
4.3454995 -1.8253301 0.33231407 296 6058490 661 25 80 4725
4.7266111 -1.7855543 0.30788133 286 6058490 733 26 90 5062
5.2946658 -1.7854404 0.28765115 257 6058490 805 27 81 5595
3.963768 -1.8396571 0.18995225 356 6058490 682 28 58 4374
4.3494635 -1.8287816 0.15990198 250 6058490 556 29 46 4721
4.7500129 -1.7995123 0.12529241 266 6058490 686 30 45 5081
5.2767463 -1.7815518 0.083212808 257 6058490 799 31 72 5570
3.9618757 -1.839031 0.030494146 313 6058490 598 32 68 4368
4.3337636 -1.8240498 -0.011899468 290 6058490 642 33 79 4702
4.7639894 -1.8054729 -0.060822934 235 6058490 611 34 79 5095
5.2654996 -1.7815435 -0.1192534 276 6058490 854 35 67 5560
3.9602344 -1.8406219 -0.12968805 313 6058490 598 36 108 4369
4.2923007 -1.8103033 -0.18221623 317 6058490 688 37 48 4662
4.7457981 -1.8008523 -0.24710284 332 6058490 857 38 131 5082
5.2512355 -1.7766151 -0.32245898 283 6058490 871 39 51 5553
3.9572659 -1.8430231 -0.28971973 394 6058490 755 40 71 4375
4.3082056 -1.8193146 -0.35434383 371 6058490 817 41 81 4690
4.7616363 -1.8083837 -0.43487343 324 6058490 846 42 127 5112
5.2601399 -1.7828001 -0.52706605 307 6058490 954 43 45 5579
3.9587893 -1.8454145 -0.45090467 346 6058490 668 44 75 4391
4.3311067 -1.8310345 -0.52976906 350 6058490 783 45 57 4732
