# .PCD v0.7 - Point Cloud Data file format
VERSION 0.7
FIELDS x y z intensity t reflectivity ring noise range
SIZE 4 4 4 4 4 2 1 2 4
TYPE F F F F U U U U U
COUNT 1 1 1 1 1 1 1 1 1
WIDTH 825
HEIGHT 1
VIEWPOINT 0 0 0 1 0 0 0
POINTS 825
DATA ascii
2.1465666 -1.9350342 -0.77069843 422 11339040 377 61 44 2991
2.317565 -1.9364281 -0.83731425 344 11339040 337 62 50 3134
2.5028403 -1.9356186 -0.91270024 290 11339040 314 63 50 3293
1.4628056 -1.4245452 0.63733232 60 11436320 27 0 42 2139
0 -0 0 5 11436320 0 1 54 0
0 -0 0 5 11436320 0 2 41 0
0 -0 0 0 11436320 0 3 34 0
0 -0 0 7 11436320 0 4 54 0
0 -0 0 5 11436320 0 5 33 0
1.7575711 -1.4710599 0.57093954 262 11436320 146 6 96 2362
1.7958257 -1.3933272 0.54334056 293 11436320 160 7 78 2337
1.5236276 -1.4817051 0.48976514 108 11436320 52 8 75 2181
1.8177928 -1.6403024 0.53859794 238 11436320 150 9 62 2507
1.8851106 -1.5795438 0.51630259 240 11436320 151 10 54 2513
1.8967587 -1.4742916 0.48090667 132 11436320 79 11 40 2450
1.4836791 -1.4424024 0.39701572 122 11436320 54 12 79 2107
1.6335157 -1.4751567 0.39963484 102 11436320 51 13 50 2237
0 -0 0 5 11436320 0 14 86 0
0 -0 0 7 11436320 0 15 38 0
1.5079737 -1.4660723 0.32408565 15 11436320 7 16 31 2128
1.5290384 -1.3814378 0.29731309 11 11436320 5 17 67 2082
1.9328576 -1.6219643 0.33971965 46 11436320 30 18 65 2546
2.4576032 -1.9135923 0.3894529 342 11436320 337 19 95 3139
1.7255161 -1.6776285 0.28122315 135 11436320 79 20 81 2423
1.8796287 -1.6987212 0.27137992 345 11436320 224 21 90 2548
2.009676 -1.6880413 0.25590613 79 11436320 55 22 48 2637
2.1094465 -1.6443371 0.23583379 14 11436320 10 23 106 2685
1.977916 -1.9237626 0.2209312 181 11436320 139 24 62 2768
2.0487707 -1.8525586 0.1947466 169 11436320 130 25 69 2769
2.12623 -1.7860682 0.16920699 173 11436320 134 26 110 2782
2.2130489 -1.7272086 0.14451964 45 11436320 36 27 83 2811
2.0401306 -1.9862149 0.12376862 214 11436320 174 28 58 2850
2.1291018 -1.9265476 0.097309552 306 11436320 252 29 52 2873
2.2984028 -1.9343939 0.074100308 226 11436320 204 30 51 3005
2.4507136 -1.9141434 0.046461731 331 11436320 321 31 71 3110
2.0032146 -1.9504788 0.019519605 345 11436320 270 32 96 2796
2.1155269 -1.9156749 -0.0072226888 338 11436320 276 33 74 2854
2.3002317 -1.9364132 -0.035896871 207 11436320 187 34 102 3007
2.450762 -1.9167305 -0.066747583 363 11436320 352 35 75 3112
1.976374 -1.9262271 -0.08195667 362 11436320 276 36 130 2761
2.1184349 -1.9211364 -0.11186247 342 11436320 281 37 63 2862
2.2961001 -1.9345793 -0.14616118 379 11436320 342 38 147 3006
2.4322815 -1.9022087 -0.17960843 332 11436320 318 39 85 3093
1.9756784 -1.9285772 -0.18323533 424 11436320 325 40 80 2767
2.1072185 -1.9127078 -0.21562842 346 11436320 282 41 94 2854
2.2853765 -1.9266355 -0.25520739 402 11436320 362 42 113 3000
2.4448495 -1.9141704 -0.29466194 428 11436320 416 43 51 3119
1.9888098 -1.9427516 -0.28701401 431 11436320 337 44 105 2795
2.1389267 -1.9430559 -0.32556391 390 11436320 330 45 61 2908
2.2909212 -1.9333627 -0.36631894 383 11436320 349 46 114 3020
2.437356 -1.9092643 -0.40882218 370 11436320 361 47 130 3123
1.9762304 -1.9337016 -0.38804048 418 11436320 326 48 72 2792
2.1263247 -1.9333019 -0.43118945 327 11436320 277 49 58 2906
2.2863252 -1.9315348 -0.47838464 382 11436320 351 50 61 3031
2.4512582 -1.9212593 -0.52856201 441 11436320 440 51 56 3159
1.9678456 -1.9289289 -0.49114004 455 11436320 357 52 103 2799
2.166676 -1.9719945 -0.55055791 239 11436320 213 53 77 2981
2.2932165 -1.9385914 -0.5939225 377 11436320 354 54 75 3061
2.4457121 -1.9168433 -0.64690131 403 11436320 406 55 55 3174
1.978159 -1.9412059 -0.6012522 411 11436320 330 56 131 2836
2.0033822 -1.8252918 -0.61450082 52 11436320 40 57 70 2779
2.284694 -1.932139 -0.70896971 367 11436320 347 58 58 3075
2.443927 -1.9157887 -0.76848954 395 11436320 404 59 86 3199
1.9804866 -1.9480414 -0.7129032 321 11436320 264 60 41 2868
2.1346531 -1.9481689 -0.77069843 357 11436320 319 61 48 2991
2.2879832 -1.9356743 -0.83090216 369 11436320 357 62 58 3110
2.4727619 -1.9367205 -0.90604824 318 11436320 339 63 52 3269
1.4948237 -1.4737041 0.65520978 55 11534110 26 0 48 2199
0 -0 0 6 11534110 0 1 69 0
0 -0 0 0 11534110 0 2 30 0
0 -0 0 5 11534110 0 3 24 0
0 -0 0 4 11534110 0 4 51 0
0 -0 0 4 11534110 0 5 27 0
1.7573948 -1.4893446 0.57384014 140 11534110 79 6 82 2374
1.7872425 -1.40432 0.54334056 290 11534110 158 7 54 2337
1.5645049 -1.5402484 0.50593346 125 11534110 64 8 62 2253
1.6779032 -1.5328547 0.49992713 164 11534110 89 9 50 2327
1.8753833 -1.5910809 0.51630259 277 11534110 175 10 48 2513
2.0078719 -1.5805147 0.51152772 94 11534110 64 11 35 2606
1.5167978 -1.4928119 0.40832132 147 11534110 69 12 91 2167
1.6767176 -1.532953 0.41249746 74 11534110 39 13 49 2309
0 -0 0 9 11534110 0 14 77 0
0 -0 0 6 11534110 0 15 41 0
1.4059697 -1.3837847 0.30398259 14 11534110 5 16 35 1996
1.3803114 -1.2625362 0.2698952 11 11534110 4 17 69 1890
1.9500581 -1.6568952 0.34452322 33 11534110 22 18 63 2582
2.3710151 -1.8696524 0.37754226 198 11534110 184 19 66 3043
1.6727171 -1.6463805 0.2742593 179 11534110 100 20 57 2363
1.8515642 -1.6941136 0.26882377 351 11534110 224 21 83 2524
2.0902605 -1.7777169 0.26755148 55 11534110 42 22 43 2757
2.0524051 -1.6202159 0.23056377 26 11534110 18 23 100 2625
1.9660748 -1.9358625 0.2209312 221 11534110 169 24 55 2768
2.037365 -1.8650948 0.1947466 191 11534110 147 25 78 2769
2.106107 -1.7913207 0.16847715 163 11534110 125 26 109 2770
2.3622427 -1.8670852 0.15500772 50 11534110 46 27 78 3015
1.9852123 -1.9566177 0.12116297 321 11534110 250 28 53 2790
2.1172407 -1.9395753 0.097309552 326 11534110 269 29 54 2873
2.2956212 -1.9562411 0.074396215 305 11534110 277 30 40 3017
2.3918693 -1.8919265 0.045565363 87 11534110 81 31 61 3050
1.9741169 -1.9458859 0.019352054 311 11534110 239 32 84 2772
2.0860419 -1.9124013 -0.0071619512 379 11534110 304 33 60 2830
2.260911 -1.9271393 -0.035467114 277 11534110 245 34 80 2971
2.4201455 -1.9168344 -0.066232823 348 11534110 332 35 73 3088
1.9645177 -1.9383177 -0.08195667 357 11534110 272 36 114 2761
2.1066072 -1.9340987 -0.11186247 372 11534110 305 37 68 2862
2.2568312 -1.9252945 -0.14441074 377 11534110 332 38 139 2970
2.4017818 -1.9022214 -0.17821477 354 11534110 334 39 67 3069
1.9638077 -1.9406633 -0.18323533 435 11534110 333 40 93 2767
2.1042533 -1.9336979 -0.21653506 359 11534110 295 41 88 2866
2.2644179 -1.9328595 -0.25418657 385 11534110 344 42 128 2988
2.4236972 -1.9217135 -0.29352823 374 11534110 362 43 58 3107
1.9513897 -1.9297385 -0.28331721 415 11534110 316 44 95 2759
2.118187 -1.9480714 -0.32422045 371 11534110 312 45 62 2896
2.2880709 -1.955121 -0.36777452 396 11534110 364 46 102 3032
2.425595 -1.9241837 -0.40882218 349 11534110 341 47 96 3123
1.9558856 -1.9374284 -0.38637272 417 11534110 322 48 81 2780
2.0969596 -1.9302382 -0.42762837 339 11534110 282 49 59 2882
2.2474165 -1.9224194 -0.47270271 390 11534110 349 50 57 2995
2.4301569 -1.9289085 -0.52655417 401 11534110 397 51 56 3147
1.9475871 -1.9326458 -0.48903441 435 11534110 338 52 86 2787
2.1371894 -1.9692687 -0.54612535 280 11534110 245 53 84 2957
2.2544484 -1.9296613 -0.58693743 381 11534110 349 54 77 3025
2.4247026 -1.9245101 -0.64445555 376 11534110 375 55 52 3162
1.9495713 -1.9367769 -0.59616399 418 11534110 331 56 104 2812
2.0437584 -1.8851583 -0.63042164 60 11534110 48 57 53 2851
2.2373178 -1.9157429 -0.69790292 363 11534110 333 58 61 3027
2.432126 -1.9307482 -0.76848954 400 11534110 410 59 87 3199
1.9520237 -1.943754 -0.70693749 390 11534110 315 60 30 2844
2.1311755 -1.9690987 -0.77379054 153 11534110 138 61 48 3003
2.2672808 -1.9421538 -0.82769608 353 11534110 338 62 49 3098
2.4337318 -1.9303616 -0.89607036 342 11534110 357 63 51 3233
1.4695376 -1.4666646 0.64805883 43 11630600 21 0 60 2175
0 -0 0 8 11630600 0 1 67 0
0 -0 0 3 11630600 0 2 41 0
0 -0 0 6 11630600 0 3 36 0
0 -0 0 8 11630600 0 4 57 0
0 -0 0 0 11630600 0 5 34 0
1.8012444 -1.5455956 0.59124392 130 11630600 78 6 82 2446
1.787725 -1.422527 0.54613048 290 11630600 160 7 54 2349
1.5964369 -1.5910926 0.51940709 116 11630600 62 8 77 2313
1.5738218 -1.455587 0.47156858 136 11630600 65 9 39 2195
1.8744938 -1.6102105 0.51876807 245 11630600 156 10 46 2525
1.9337296 -1.5414636 0.49503943 307 11630600 195 11 33 2522
1.4909124 -1.4854548 0.40379909 109 11630600 50 12 78 2143
1.6586152 -1.5351923 0.41035372 67 11630600 35 13 38 2297
1.4344326 -1.232672 0.32478365 10 11630600 4 14 86 1919
0 -0 0 7 11630600 0 15 40 0
1.4730662 -1.467725 0.32043055 14 11630600 6 16 24 2104
1.2941078 -1.1983542 0.25447261 12 11630600 4 17 53 1782
1.9218237 -1.6533173 0.34132084 23 11630600 15 18 61 2558
1.9966178 -1.5943891 0.31947792 205 11630600 136 19 71 2575
1.6879129 -1.6818514 0.27843761 161 11630600 93 20 84 2399
1.8236275 -1.689226 0.26626757 357 11630600 223 21 75 2500
1.9435583 -1.6736096 0.25008348 75 11630600 50 22 50 2577
2.0797722 -1.6626352 0.23477979 30 11630600 21 23 107 2673
1.9541595 -1.9478898 0.2209312 262 11630600 201 24 60 2768
2.0346622 -1.8856976 0.19559057 187 11630600 145 25 80 2781
2.1132283 -1.819842 0.16993687 182 11630600 142 26 87 2794
2.4068792 -1.926477 0.15870939 202 11630600 193 27 82 3087
1.9222488 -1.9179552 0.11803618 384 11630600 283 28 53 2718
2.087713 -1.9362193 0.096496664 340 11630600 276 29 41 2849
2.2472432 -1.9389429 0.073212579 334 11630600 294 30 41 2969
2.3802156 -1.9065671 0.045565363 64 11630600 60 31 74 3050
1.9621401 -1.9579623 0.019352054 340 11630600 262 32 74 2772
2.0830638 -1.9333283 -0.0071923202 380 11630600 307 33 60 2842
2.2399597 -1.933136 -0.035323858 329 11630600 288 34 93 2959
2.3989797 -1.9241416 -0.065975443 345 11630600 327 35 79 3076
1.9271281 -1.9249053 -0.080888055 329 11630600 244 36 137 2725
2.0771344 -1.9306612 -0.11092442 371 11630600 299 37 61 2838
2.2449753 -1.9391059 -0.14441074 357 11630600 315 38 149 2970
2.39941 -1.9244179 -0.1789116 338 11630600 320 39 57 3081
1.9264684 -1.9272712 -0.18085136 411 11630600 307 40 90 2731
2.0748272 -1.9302725 -0.2147218 356 11630600 288 41 71 2842
2.1982379 -1.8998084 -0.24806158 356 11630600 302 42 145 2916
2.402545 -1.9290693 -0.29239455 387 11630600 370 43 52 3095
1.9226409 -1.9247855 -0.28085271 427 11630600 320 44 91 2735
2.0800121 -1.9366541 -0.32019007 370 11630600 303 45 67 2860
2.2219832 -1.9223634 -0.35904106 358 11630600 314 46 97 2960
2.3951936 -1.9241294 -0.40568042 361 11630600 347 47 98 3099
1.9187875 -1.924149 -0.38136932 420 11630600 316 48 94 2744
2.0850763 -1.9430686 -0.42762837 326 11630600 270 49 52 2882
2.2355785 -1.9361732 -0.47270271 403 11630600 361 50 48 2995
2.3998332 -1.9289594 -0.52253854 399 11630600 390 51 63 3123
1.9106884 -1.9194415 -0.48271751 417 11630600 316 52 80 2751
2.0819464 -1.9421216 -0.53504401 314 11630600 264 53 87 2897
2.2247736 -1.9280388 -0.58228076 387 11630600 349 54 67 3001
2.3853776 -1.9172717 -0.63711828 406 11630600 396 55 56 3126
1.9211133 -1.9320709 -0.59107584 417 11630600 324 56 96 2788
2.0834734 -1.9455873 -0.64634252 59 11630600 51 57 75 2923
2.2343435 -1.9370835 -0.70066959 374 11630600 345 58 39 3039
2.3839188 -1.9164416 -0.7569586 398 11630600 395 59 85 3151
1.9400604 -1.9556947 -0.70693749 421 11630600 340 60 31 2844
1.8734885 -1.75244 -0.68412048 54 11630600 38 61 58 2655
2.2465854 -1.9484525 -0.82449007 374 11630600 356 62 56 3086
2.385885 -1.9163774 -0.88276654 360 11630600 365 63 43 3185
1.4766265 -1.4919369 0.65520978 62 11729360 30 0 52 2199
0 -0 0 8 11729360 0 1 74 0
0 -0 0 3 11729360 0 2 35 0
0 -0 0 6 11729360 0 3 36 0
0 -0 0 8 11729360 0 4 68 0
0 -0 0 8 11729360 0 5 33 0
1.7653564 -1.5337086 0.582542 245 11729360 142 6 81 2410
1.8062266 -1.4554384 0.55450034 315 11729360 179 7 63 2385
1.6936549 -1.7088279 0.55443841 169 11729360 103 8 80 2469
1.5819709 -1.4812369 0.47672465 147 11729360 72 9 43 2219
1.8823011 -1.6370959 0.52369887 241 11729360 156 10 48 2549
1.924235 -1.5532997 0.49503943 280 11729360 178 11 35 2522
1.4900672 -1.502944 0.40606022 113 11729360 53 12 89 2155
1.6147019 -1.5130477 0.40177861 63 11729360 32 13 48 2249
0 -0 0 7 11729360 0 14 84 0
1.4198664 -1.1467315 0.29628929 10 11729360 3 15 27 1849
1.3554827 -1.3672441 0.2966724 18 11729360 7 16 32 1948
0 -0 0 6 11729360 0 17 75 0
1.9744179 -1.7197565 0.3525292 15 11729360 10 18 56 2642
1.9590206 -1.5841486 0.31501141 260 11729360 168 19 78 2539
1.6020397 -1.615997 0.2659027 184 11729360 97 20 83 2291
1.8393388 -1.7248693 0.27010185 250 11729360 161 21 93 2536
1.9602597 -1.7090496 0.25357708 343 11729360 235 22 64 2613
2.1810212 -1.7656205 0.24742785 27 11729360 21 23 115 2817
1.9169112 -1.9343543 0.21805783 369 11729360 276 24 71 2732
2.049242 -1.922718 0.19812249 154 11729360 122 25 74 2817
2.1020222 -1.8327742 0.16993687 178 11729360 139 26 89 2794
2.3670831 -1.918571 0.15685856 295 11729360 275 27 92 3051
1.8935751 -1.9126743 0.11699392 387 11729360 281 28 66 2694
2.0495634 -1.9243653 0.095277332 358 11729360 283 29 43 2813
2.2172346 -1.9369105 0.072620764 335 11729360 290 30 32 2945
2.3405166 -1.8984603 0.045027543 66 11729360 60 31 74 3014
1.8994377 -1.9187969 0.018849403 332 11729360 242 32 94 2700
2.0536714 -1.9296391 -0.0071315826 358 11729360 285 33 68 2818
2.2190201 -1.9389484 -0.035180606 313 11729360 272 34 74 2947
2.3685029 -1.9236978 -0.065460674 353 11729360 329 35 77 3052
1.9068465 -1.9281651 -0.08053185 355 11729360 261 36 130 2713
2.0390513 -1.9187182 -0.10951734 394 11729360 310 37 65 2802
2.2059679 -1.9291736 -0.14266032 378 11729360 325 38 139 2934
2.3596592 -1.9164467 -0.1768211 350 11729360 325 39 59 3045
1.9061937 -1.9305353 -0.18005669 398 11729360 294 40 113 2719
2.0542338 -1.934763 -0.21381515 362 11729360 290 41 87 2830
2.1955378 -1.9211344 -0.24908243 364 11729360 312 42 136 2928
2.3721249 -1.9287019 -0.29012722 372 11729360 351 43 58 3071
1.9024106 -1.9280496 -0.27962044 402 11729360 298 44 96 2723
2.0594125 -1.9412011 -0.31884661 344 11729360 279 45 62 2848
2.1922259 -1.920264 -0.35612994 382 11729360 329 46 101 2936
2.3833423 -1.9387898 -0.40568042 382 11729360 367 47 112 3099
1.8986055 -1.9274201 -0.37970152 427 11729360 319 48 70 2732
2.0472188 -1.9313949 -0.42228672 349 11729360 282 49 51 2846
2.2058375 -1.9342291 -0.46891481 414 11729360 366 50 67 2971
2.369601 -1.9287114 -0.51852286 386 11729360 371 51 72 3099
1.890592 -1.9227053 -0.48061186 418 11729360 314 52 89 2739
2.0528419 -1.9386648 -0.53061146 352 11729360 291 53 82 2873
2.2040527 -1.9338894 -0.57995236 376 11729360 336 54 74 2989
2.3735685 -1.931872 -0.63711828 426 11729360 416 55 49 3126
1.9092221 -1.9438223 -0.59107584 420 11729360 326 56 115 2788
2.0714962 -1.9583346 -0.64634252 75 11729360 64 57 64 2923
2.196089 -1.9276482 -0.69236952 410 11729360 369 58 53 3003
2.3811483 -1.9383868 -0.75984132 408 11729360 409 59 74 3163
1.9117537 -1.950958 -0.70097184 378 11729360 300 60 41 2820
1.7785106 -1.684178 -0.65319973 46 11729360 30 61 67 2535
2.1998305 -1.9316802 -0.81166583 408 11729360 376 62 53 3038
2.3830261 -1.9382563 -0.88609254 339 11729360 347 63 60 3197
1.4914681 -1.5255417 0.66593629 69 11825870 34 0 51 2235
0 -0 0 9 11825870 0 1 74 0
0 -0 0 0 11825870 0 2 33 0
0 -0 0 6 11825870 0 3 25 0
0 -0 0 9 11825870 0 4 56 0
0 -0 0 7 11825870 0 5 27 0
1.6859674 -1.4829876 0.55933702 150 11825870 80 6 80 2314
1.7791765 -1.4517365 0.54892039 295 11825870 165 7 74 2361
1.7731234 -1.8111005 0.58408034 223 11825870 151 8 80 2601
1.5898639 -1.5070411 0.48188075 151 11825870 76 9 58 2243
1.8634069 -1.6408535 0.5212335 250 11825870 161 10 42 2537
1.9328884 -1.579971 0.49975035 289 11825870 187 11 45 2546
1.5220466 -1.5541576 0.41736585 128 11825870 63 12 81 2215
1.6567829 -1.5716821 0.41464126 41 11825870 22 13 54 2321
0 -0 0 4 11825870 0 14 76 0
0 -0 0 8 11825870 0 15 52 0
1.4964348 -1.5280589 0.3295683 12 11825870 6 16 28 2164
1.3309938 -1.2632011 0.26475433 10 11825870 4 17 70 1854
0 -0 0 3 11825870 0 18 60 0
1.9308382 -1.5810517 0.31203377 251 11825870 159 19 73 2515
1.5920941 -1.6257964 0.2659027 222 11825870 117 20 93 2291
1.8373739 -1.7443379 0.27137992 215 11825870 140 21 81 2548
1.9228742 -1.6973341 0.25008348 370 11825870 246 22 69 2577
2.1054349 -1.7259227 0.24004981 291 11825870 217 23 114 2733
1.9050062 -1.9460799 0.21805783 335 11825870 250 24 62 2732
2.0287268 -1.9270117 0.19727851 120 11825870 95 25 88 2805
2.0907369 -1.8456374 0.16993687 181 11825870 141 26 100 2794
2.3367393 -1.9178531 0.15562467 310 11825870 284 27 90 3027
1.8901856 -1.9328283 0.11751504 397 11825870 291 28 74 2706
2.0377171 -1.936905 0.095277332 342 11825870 270 29 54 2813
2.2142944 -1.9584265 0.072916679 332 11825870 290 30 56 2957
2.4122722 -1.9813261 0.046641007 100 11825870 98 31 67 3122
1.7953444 -1.8360397 0.017927878 202 11825870 133 32 88 2568
2.0417929 -1.9422039 -0.0071315826 368 11825870 293 33 74 2818
2.171133 -1.9207253 -0.034607593 323 11825870 272 34 78 2899
2.3473887 -1.9305738 -0.065203294 291 11825870 269 35 64 3040
1.8949796 -1.939829 -0.08053185 330 11825870 243 36 132 2713
2.018558 -1.922923 -0.10904832 363 11825870 282 37 47 2790
2.1761415 -1.9267818 -0.14149337 362 11825870 306 38 133 2910
2.3571084 -1.9384986 -0.17751794 364 11825870 341 39 75 3057
1.8775917 -1.9250519 -0.17846738 395 11825870 287 40 111 2695
2.0076833 -1.9143021 -0.2101886 376 11825870 291 41 76 2782
2.1837084 -1.9345698 -0.24908243 399 11825870 342 42 126 2928
2.3325779 -1.9204412 -0.28672618 404 11825870 373 43 66 3035
1.8905445 -1.9396863 -0.27962044 420 11825870 312 44 90 2723
2.0474627 -1.9538009 -0.31884661 354 11825870 287 45 66 2848
2.1714902 -1.9257758 -0.35467434 386 11825870 330 46 105 2924
2.3438535 -1.9306855 -0.40096778 368 11825870 345 47 115 3063
1.878456 -1.9305165 -0.3780337 403 11825870 298 48 97 2720
2.0181656 -1.9275272 -0.41872561 347 11825870 277 49 70 2822
2.1850662 -1.9398605 -0.46702081 383 11825870 336 50 75 2959
2.3394625 -1.9281656 -0.51450717 420 11825870 398 51 58 3075
1.8705279 -1.9257953 -0.47850624 419 11825870 312 52 97 2727
2.0153344 -1.9267746 -0.52396268 388 11825870 312 53 84 2837
2.2009461 -1.9551951 -0.58228076 275 11825870 248 54 74 3001
2.3344724 -1.9239843 -0.62978107 420 11825870 401 55 54 3090
1.8972591 -1.9555005 -0.59107584 394 11825870 306 56 84 2788
2.0509865 -1.9629165 -0.6436891 247 11825870 210 57 58 2911
2.1667635 -1.9255736 -0.68683606 394 11825870 349 58 56 2979
2.333256 -1.9233238 -0.74831039 420 11825870 408 59 71 3115
1.8754947 -1.9375964 -0.69202322 384 11825870 298 60 62 2784
1.9941308 -1.9117057 -0.73668569 62 11825870 50 61 30 2859
2.1879365 -1.9451418 -0.81166583 389 11825870 359 62 52 3038
2.3443885 -1.9308517 -0.87611461 354 11825870 353 63 53 3161
1.4104621 -1.4605062 0.63375682 60 11923650 27 0 71 2127
0 -0 0 3 11923650 0 1 73 0
0 -0 0 3 11923650 0 2 36 0
0 -0 0 0 11923650 0 3 31 0
0 -0 0 5 11923650 0 4 68 0
1.1428472 -1.097546 0.411172 12 11923650 3 5 37 1637
1.6072701 -1.4313525 0.53613204 104 11923650 51 6 79 2218
1.7792327 -1.47006 0.55171037 311 11923650 175 7 61 2373
1.7619773 -1.8219461 0.58408034 184 11923650 125 8 90 2601
1.5890431 -1.5248827 0.48445883 152 11923650 77 9 50 2255
1.7042797 -1.5193985 0.47932115 167 11923650 91 10 58 2333
1.9140931 -1.5842987 0.49739492 294 11923650 189 11 36 2534
1.5206757 -1.5719376 0.41962692 148 11923650 74 12 92 2227
1.527886 -1.4673223 0.38462844 102 11923650 47 13 37 2153
1.4732854 -1.3139703 0.33900034 11 11923650 5 14 79 2003
1.4148103 -1.1716239 0.2982122 17 11923650 6 15 39 1861
0 -0 0 8 11923650 0 16 28 0
0 -0 0 8 11923650 0 17 62 0
0 -0 0 4 11923650 0 18 64 0
1.930267 -1.6004696 0.31352261 201 11923650 129 19 85 2527
1.5157939 -1.5670007 0.25476053 231 11923650 111 20 76 2195
1.8610469 -1.7886512 0.27649227 183 11923650 124 21 80 2596
1.8946127 -1.6931835 0.24775441 365 11923650 238 22 51 2553
2.0580142 -1.7082701 0.23583379 366 11923650 264 23 123 2685
1.8680847 -1.9319347 0.21518444 332 11923650 242 24 64 2696
2.0082364 -1.9311266 0.19643454 164 11923650 128 25 78 2793
2.1150959 -1.8903586 0.17285633 210 11923650 170 26 112 2842
2.2511935 -1.8708776 0.15068911 248 11923650 213 27 94 2931
1.8616315 -1.9271448 0.11647279 393 11923650 282 28 57 2682
2.034436 -1.9576875 0.095683776 269 11923650 214 29 43 2825
2.1754248 -1.9479684 0.07202895 339 11923650 289 30 52 2921
2.3447187 -1.9500561 0.045565363 317 11923650 295 31 62 3050
1.7757082 -1.8383904 0.017844103 203 11923650 133 32 86 2556
2.0125499 -1.938048 -0.0070708455 359 11923650 281 33 82 2794
2.1503685 -1.9260054 -0.034464337 325 11923650 271 34 102 2887
2.3078415 -1.9219086 -0.064431153 294 11923650 266 35 68 3004
1.8830414 -1.9514198 -0.08053185 339 11923650 249 36 130 2713
2.0067213 -1.9352725 -0.10904832 369 11923650 287 37 51 2790
2.1553533 -1.9320978 -0.1409099 384 11923650 322 38 147 2898
2.3175523 -1.929927 -0.17542744 373 11923650 341 39 63 3021
1.8657445 -1.9365363 -0.17846738 400 11923650 291 40 109 2695
2.004509 -1.9348953 -0.21109524 364 11923650 284 41 84 2794
2.1628962 -1.9399489 -0.24806158 417 11923650 354 42 138 2916
2.3023984 -1.9194182 -0.28445882 397 11923650 360 43 58 3011
1.8786073 -1.95125 -0.27962044 393 11923650 291 44 117 2723
1.9925544 -1.9249017 -0.31212935 365 11923650 284 45 69 2788
2.141907 -1.9231479 -0.35176322 421 11923650 354 46 92 2900
2.3319628 -1.9450308 -0.40096778 397 11923650 372 47 133 3063
1.8583404 -1.9334385 -0.37636593 405 11923650 297 48 76 2708
2.014832 -1.9481231 -0.42050615 351 11923650 282 49 54 2834
2.1643093 -1.94531 -0.46512684 400 11923650 347 50 42 2947
2.2821712 -1.9045819 -0.50446802 397 11923650 361 51 72 3015
1.8341392 -1.9116623 -0.47218934 404 11923650 293 52 86 2691
1.9865253 -1.9227 -0.51953018 401 11923650 318 53 79 2813
2.092628 -1.8820707 -0.55666894 95 11923650 79 54 62 2869
2.3045833 -1.9232177 -0.62488955 421 11923650 396 55 67 3066
1.868996 -1.9501716 -0.58598769 411 11923650 314 56 109 2764
2.0052838 -1.9428904 -0.63307512 355 11923650 291 57 65 2863
2.1896293 -1.9700724 -0.69790292 203 11923650 186 58 68 3027
2.2945824 -1.9152113 -0.73966217 433 11923650 411 59 79 3079
1.8555379 -1.9406667 -0.68904036 389 11923650 299 60 43 2772
2.0489273 -1.9885067 -0.76142222 117 11923650 102 61 44 2955
2.1415806 -1.9275857 -0.79884166 390 11923650 349 62 69 2990
2.3059325 -1.9230467 -0.86613673 381 11923650 372 63 40 3125
1.472635 -1.5437294 0.66593629 50 12022920 25 0 54 2235
1.0566347 -1.0263914 0.44214049 11 12022920 3 1 62 1538
0 -0 0 3 12022920 0 2 25 0
0 -0 0 6 12022920 0 3 20 0
0 -0 0 5 12022920 0 4 63 0
0 -0 0 0 12022920 0 5 38 0
1.5811609 -1.425593 0.53033078 70 12022920 34 6 74 2194
1.7880822 -1.4959275 0.55729026 318 12022920 183 7 73 2397
1.6538367 -1.7312574 0.55174369 77 12022920 47 8 88 2457
1.5544382 -1.5101049 0.47672465 130 12022920 64 9 47 2219
1.6164627 -1.4590079 0.45713225 160 12022920 79 10 39 2225
1.9043361 -1.5960135 0.49739492 281 12022920 180 11 41 2534
1.5435694 -1.6153202 0.42867145 173 12022920 90 12 84 2275
1.535785 -1.4931303 0.38891599 110 12022920 52 13 39 2177
1.2633013 -1.140687 0.29228836 12 12022920 4 14 84 1727
0 -0 0 7 12022920 0 15 38 0
0 -0 0 5 12022920 0 16 35 0
1.6474328 -1.6024046 0.3315855 10 12022920 6 17 68 2322
0 -0 0 8 12022920 0 18 51 0
1.9842466 -1.6658771 0.32394439 45 12022920 31 19 77 2611
1.5226187 -1.5935068 0.25754607 232 12022920 114 20 78 2219
1.8414851 -1.791716 0.27521417 169 12022920 113 21 90 2584
1.9196131 -1.7368289 0.25241253 298 12022920 202 22 67 2601
2.0200412 -1.6977925 0.23267178 349 12022920 245 23 107 2649
1.8479333 -1.9347106 0.21422663 349 12022920 252 24 59 2684
2.0049267 -1.9517623 0.19727851 369 12022920 290 25 95 2805
2.0679307 -1.871155 0.16993687 190 12022920 148 26 99 2794
2.212163 -1.8615072 0.14883827 233 12022920 195 27 99 2895
1.8332191 -1.9211843 0.11543053 393 12022920 277 28 57 2658
2.0481575 -1.9952399 0.096903108 169 12022920 138 29 38 2861
2.1367681 -1.937108 0.071141228 375 12022920 312 30 42 2885
2.2868199 -1.9257623 0.044668999 417 12022920 372 31 54 2990
1.830663 -1.9187067 0.018514303 323 12022920 227 32 68 2652
1.9748428 -1.9252304 -0.0069797393 367 12022920 279 33 46 2758
2.1207328 -1.923043 -0.034177832 324 12022920 266 34 76 2863
2.277662 -1.9205655 -0.063916393 361 12022920 321 35 89 2980
1.8544805 -1.9455725 -0.079819448 328 12022920 237 36 116 2689
1.9604895 -1.9140427 -0.10717221 360 12022920 271 37 59 2742
2.134582 -1.9372313 -0.14032641 369 12022920 307 38 138 2886
2.2873499 -1.9286661 -0.17403378 378 12022920 340 39 78 2997
1.8290634 -1.9219271 -0.17608339 391 12022920 277 40 96 2659
1.9840407 -1.9387953 -0.2101886 368 12022920 285 41 96 2782
2.133249 -1.9371082 -0.24601993 368 12022920 308 42 107 2892
2.2540624 -1.9026861 -0.27992409 388 12022920 340 43 45 2963
1.8419214 -1.9367913 -0.27592367 398 12022920 288 44 102 2687
1.9636555 -1.9204165 -0.30944243 377 12022920 288 45 65 2764
2.1036241 -1.9122179 -0.34739649 380 12022920 312 46 111 2864
2.283628 -1.9285986 -0.39468423 385 12022920 350 47 104 3015
1.8300776 -1.9275686 -0.37303033 410 12022920 295 48 95 2684
1.9943599 -1.952148 -0.41872561 393 12022920 313 49 55 2822
2.1348042 -1.9426032 -0.46133891 400 12022920 342 50 67 2923
2.2885151 -1.9338211 -0.50848365 366 12022920 338 51 67 3039
1.8630075 -1.9657539 -0.48271751 393 12022920 298 52 105 2751
1.9831142 -1.9431068 -0.5217464 393 12022920 314 53 84 2825
2.1158574 -1.9265776 -0.56598228 54 12022920 46 54 67 2917
2.2837658 -1.9297395 -0.6224438 418 12022920 389 55 51 3054
1.8408705 -1.9445701 -0.58089954 386 12022920 290 56 98 2740
1.976615 -1.9387683 -0.62776822 372 12022920 300 57 61 2839
2.0911767 -1.9048394 -0.67023581 91 12022920 77 58 58 2907
2.3005812 -1.9442925 -0.74542767 414 12022920 399 59 65 3103
1.8435953 -1.9520154 -0.68904036 395 12022920 303 60 31 2772
2.0118752 -1.976663 -0.75214601 258 12022920 220 61 43 2919
2.1297128 -1.9406899 -0.79884166 414 12022920 370 62 67 2990
2.2940896 -1.9371594 -0.86613673 348 12022920 339 63 56 3125
1.5102698 -1.6027573 0.68738925 54 12118920 28 0 57 2307
1.5829873 -1.5566703 0.66637295 10 12118920 6 1 67 2318
0 -0 0 5 12118920 0 2 34 0
0 -0 0 7 12118920 0 3 28 0
1.1863941 -1.2577718 0.46707663 13 12118920 4 4 52 1791
0 -0 0 0 12118920 0 5 31 0
1.6411848 -1.4980693 0.55353582 77 12118920 41 6 65 2290
1.8144917 -1.5370458 0.56845003 276 12118920 165 7 63 2445
1.5468792 -1.6393143 0.51940709 64 12118920 34 8 71 2313
1.5117195 -1.486743 0.46641243 132 12118920 62 9 36 2171
1.6594974 -1.5164318 0.47192484 156 12118920 82 10 52 2297
1.9124504 -1.6228948 0.50210583 253 12118920 165 11 43 2558
1.5740763 -1.6676118 0.43997705 147 12118920 80 12 97 2335
1.5013498 -1.4776791 0.38248464 135 12118920 62 13 51 2141
1.3872164 -1.268113 0.32275268 14 12118920 5 14 80 1907
0 -0 0 4 12118920 0 15 30 0
1.4029285 -1.4863459 0.3149479 16 12118920 7 16 30 2068
1.451386 -1.4291515 0.29388586 10 12118920 4 17 66 2058
1.703509 -1.5589421 0.31089821 10 12118920 6 18 60 2330
1.9195536 -1.6317483 0.31501141 141 12118920 91 19 65 2539
1.5291744 -1.620155 0.2603316 221 12118920 111 20 77 2243
1.8814602 -1.8532193 0.28288269 157 12118920 111 21 89 2656
1.891306 -1.7324404 0.25008348 243 12118920 162 22 67 2577
2.0004821 -1.7024083 0.23161776 394 12118920 274 23 145 2637
1.8114012 -1.9199116 0.21135327 315 12118920 221 24 63 2648
1.950284 -1.9220163 0.19305865 361 12118920 272 25 79 2745
2.1005712 -1.9242624 0.17358619 186 12118920 151 26 116 2854
2.1642108 -1.8439567 0.14637047 210 12118920 170 27 93 2847
1.8131733 -1.9236723 0.11490939 339 12118920 237 28 52 2646
1.9931808 -1.9656632 0.094870888 212 12118920 166 29 36 2801
2.1071656 -1.933959 0.070549406 372 12118920 304 30 50 2861
2.2567 -1.9241877 0.044310447 400 12118920 352 31 65 2966
1.8270856 -1.9386358 0.018598078 325 12118920 231 32 63 2664
1.9459107 -1.9204532 -0.0069190017 337 12118920 252 33 63 2734
2.1177325 -1.9441341 -0.034321088 334 12118920 276 34 87 2875
2.2749588 -1.9422947 -0.064173773 326 12118920 292 35 83 2992
1.8425078 -1.9569148 -0.079819448 333 12118920 241 36 142 2689
1.9657648 -1.9428941 -0.10811026 363 12118920 278 37 68 2766
2.1138291 -1.942183 -0.13974293 363 12118920 300 38 129 2874
2.2572505 -1.9271078 -0.17264012 360 12118920 319 39 62 2973
1.8254374 -1.9418379 -0.17687806 416 12118920 297 40 97 2671
1.9721072 -1.9509326 -0.2101886 388 12118920 300 41 93 2782
2.1213229 -1.9501611 -0.24601993 366 12118920 306 42 156 2892
2.2605083 -1.9320045 -0.28219146 384 12118920 343 43 66 2987
1.7973123 -1.9132571 -0.27099463 373 12118920 260 44 107 2639
1.9687829 -1.9492085 -0.31212935 360 12118920 280 45 63 2788
2.109381 -1.9412216 -0.35030767 402 12118920 335 46 115 2888
2.244626 -1.9193796 -0.38997158 396 12118920 351 47 106 2979
1.8182158 -1.9387614 -0.37303033 383 12118920 276 48 89 2684
1.9739147 -1.9559956 -0.41694507 357 12118920 281 49 55 2810
2.0966992 -1.9315794 -0.45565701 397 12118920 331 50 49 2887
2.2586272 -1.9324442 -0.50446802 411 12118920 374 51 68 3015
1.810542 -1.9340261 -0.47218934 417 12118920 302 52 91 2691
1.9376621 -1.9220167 -0.51288134 360 12118920 278 53 84 2777
2.1039963 -1.9395241 -0.56598228 63 12118920 54 54 60 2917
2.2540286 -1.9284414 -0.61755228 425 12118920 390 55 50 3030
1.8289042 -1.9558289 -0.58089954 378 12118920 284 56 102 2740
1.9480728 -1.934368 -0.6224612 359 12118920 285 57 60 2815
2.0708656 -1.909719 -0.66746908 81 12118920 67 58 55 2895
2.2620564 -1.9356515 -0.73677945 428 12118920 402 59 50 3067
1.8157254 -1.9462926 -0.68307465 386 12118920 291 60 34 2748
1.9668255 -1.9562638 -0.73977768 327 12118920 269 61 38 2871
2.1007659 -1.9380388 -0.79242951 251 12118920 221 62 68 2966
2.2558696 -1.9287214 -0.85615885 356 12118920 339 63 32 3089
1.4769936 -1.5868393 0.67666274 53 12219010 28 0 61 2271
1.4919528 -1.4852659 0.63187569 46 12219010 22 1 68 2198
0 -0 0 4 12219010 0 2 34 0
1.1524272 -0.9864006 0.42373407 9 12219010 2 3 26 1575
0 -0 0 4 12219010 0 4 62 0
1.1059951 -1.1019993 0.40514383 11 12219010 3 5 31 1613
1.5378923 -1.4211806 0.52162892 122 12219010 57 6 80 2158
1.8227445 -1.563347 0.57402986 131 12219010 80 7 56 2469
1.5846293 -1.7000986 0.53557539 87 12219010 50 8 82 2385
1.5524004 -1.5456045 0.48188075 131 12219010 66 9 32 2243
1.5984367 -1.4787345 0.45713225 161 12219010 80 10 44 2225
1.9113814 -1.642267 0.50446129 277 12219010 183 11 38 2570
1.5477411 -1.6599995 0.43545482 151 12219010 81 12 93 2311
1.5340742 -1.5285318 0.39320356 102 12219010 49 13 46 2201
1.344689 -1.2444683 0.31462887 11 12219010 4 14 70 1859
1.3121642 -1.1279745 0.28090596 11 12219010 3 15 34 1753
1.4423083 -1.5469738 0.32591322 15 12219010 7 16 29 2140
1.6108216 -1.6057304 0.32815829 19 12219010 10 17 54 2298
0 -0 0 8 12219010 0 18 47 0
1.9185302 -1.6512635 0.31650025 135 12219010 88 19 92 2551
1.5679709 -1.6818143 0.26868823 219 12219010 118 20 86 2315
1.8193593 -1.8141789 0.27521417 181 12219010 121 21 76 2584
1.8718829 -1.7358913 0.24891894 175 12219010 115 22 74 2565
1.9537759 -1.6834401 0.22740175 403 12219010 270 23 116 2589
1.7832762 -1.9134885 0.20943767 335 12219010 231 24 64 2624
1.9215058 -1.9170381 0.19137071 376 12219010 279 25 71 2721
2.0623775 -1.9126805 0.1713966 209 12219010 166 26 108 2818
2.1347075 -1.8415453 0.14513658 184 12219010 147 27 90 2823
1.7278118 -1.8557917 0.11021921 123 12219010 80 28 69 2538
1.9725947 -1.9693826 0.094464436 242 12219010 188 29 38 2789
2.077683 -1.9305205 0.069957592 310 12219010 249 30 33 2837
2.2266862 -1.9223166 0.043951903 418 12219010 362 31 73 2942
1.8069797 -1.9410273 0.018514303 325 12219010 229 32 81 2652
1.9340904 -1.932357 -0.0069190017 331 12219010 248 33 61 2734
2.0881851 -1.9407542 -0.03403458 333 12219010 271 34 87 2851
2.2266936 -1.9248339 -0.063144244 332 12219010 288 35 69 2944
1.8059597 -1.9418335 -0.078750834 333 12219010 234 36 141 2653
1.94533 -1.9464381 -0.10764124 339 12219010 257 37 55 2754
2.0843201 -1.9387901 -0.13857597 387 12219010 314 38 151 2850
2.2272575 -1.9252534 -0.17124645 364 12219010 317 39 77 2949
1.7890458 -1.9266793 -0.17449407 402 12219010 279 40 84 2635
1.9516447 -1.9545294 -0.20928197 355 12219010 273 41 82 2770
2.056803 -1.9142658 -0.23989496 357 12219010 284 42 120 2820
2.1944096 -1.8989348 -0.2753894 394 12219010 335 43 67 2915
1.7936579 -1.932999 -0.27222687 390 12219010 274 44 113 2651
1.9399412 -1.944369 -0.30944243 377 12219010 288 45 84 2764
2.0799999 -1.9378886 -0.34739649 368 12219010 302 46 84 2864
2.2328067 -1.9331162 -0.38997158 381 12219010 338 47 98 2979
1.7982099 -1.9411635 -0.37136254 399 12219010 285 48 75 2672
1.9367415 -1.9428567 -0.41160342 368 12219010 284 49 59 2774
2.0848079 -1.9444081 -0.45565701 377 12219010 314 50 57 2887
2.2199008 -1.9230275 -0.49844453 393 12219010 349 51 75 2979
1.7825994 -1.9277513 -0.46797803 356 12219010 253 52 98 2667
1.9341542 -1.9422264 -0.51509756 382 12219010 297 53 74 2789
2.1523004 -2.00862 -0.58228076 167 12219010 151 54 66 3001
2.2243936 -1.9268514 -0.61266077 394 12219010 356 55 53 3006
1.7770834 -1.9239405 -0.56817907 384 12219010 276 56 108 2680
1.9279135 -1.937988 -0.61980778 371 12219010 292 57 65 2803
2.059109 -1.9223896 -0.66746908 68 12219010 57 58 67 2895
2.2061172 -1.9113568 -0.7223658 413 12219010 374 59 64 3007
1.7958723 -1.9488494 -0.6800918 375 12219010 281 60 33 2736
1.9221032 -1.9353875 -0.72740948 375 12219010 299 61 44 2823
1.9958725 -1.8640692 -0.75716293 110 12219010 88 62 94 2834
2.2178407 -1.9198881 -0.84618092 404 12219010 376 63 53 3053
1.4672291 -1.5958722 0.67666274 53 12317770 27 0 49 2271
1.4666203 -1.478075 0.62497616 71 12317770 34 1 73 2174
0 -0 0 0 12317770 0 2 32 0
1.1550872 -1.0010223 0.42696252 8 12317770 2 3 24 1587
0 -0 0 8 12317770 0 4 76 0
0.99290305 -1.0015315 0.36596066 11 12317770 2 5 30 1457
1.5631557 -1.4624107 0.53323144 94 12317770 46 6 81 2206
1.7866809 -1.5515442 0.56566006 244 12317770 144 7 53 2433
1.5741678 -1.7097898 0.53557539 58 12317770 33 8 63 2385
1.5428876 -1.5551007 0.48188075 132 12317770 66 9 37 2243
1.5636182 -1.4644307 0.44973594 135 12317770 65 10 49 2189
1.7414732 -1.5149539 0.46206298 181 12317770 100 11 44 2354
1.5694611 -1.7041403 0.44449934 188 12317770 105 12 110 2359
1.5496039 -1.5630702 0.39963484 108 12317770 54 13 56 2237
1.5182709 -1.4225072 0.35727894 16 12317770 7 14 75 2111
0 -0 0 7 12317770 0 15 43 0
1.2721025 -1.3813128 0.28936219 9 12317770 3 16 31 1900
1.4838989 -1.4974735 0.3041676 13 12317770 6 17 72 2130
1.8490607 -1.7343123 0.34132084 13 12317770 8 18 53 2558
1.9442703 -1.6942956 0.32245559 81 12317770 55 19 58 2599
1.5737702 -1.7089387 0.27147377 182 12317770 100 20 79 2339
1.8417823 -1.8592149 0.28032652 161 12317770 112 21 76 2632
1.9047334 -1.788218 0.25474161 198 12317770 137 22 63 2625
1.9524173 -1.7032546 0.22845575 405 12317770 274 23 128 2601
1.7958058 -1.9507962 0.21231106 336 12317770 238 24 72 2660
1.9181288 -1.9372982 0.19221467 344 12317770 257 25 76 2733
2.059335 -1.9334977 0.17212646 192 12317770 154 26 111 2830
2.1594718 -1.8861432 0.14760436 186 12317770 154 27 73 2871
1.7245078 -1.8751829 0.11074035 122 12317770 80 28 69 2550
1.9267331 -1.9473475 0.092838667 287 12317770 215 29 31 2741
2.0657983 -1.9432325 0.069957592 327 12317770 263 30 42 2837
2.1877472 -1.9122537 0.043414079 403 12317770 341 31 74 2906
1.8112804 -1.969744 0.018681854 332 12317770 238 32 80 2676
1.9221973 -1.944188 -0.0069190017 350 12317770 262 33 83 2734
2.0674984 -1.9453081 -0.033891328 317 12317770 256 34 100 2839
2.2058132 -1.930559 -0.062886864 385 12317770 331 35 86 2932
1.7858962 -1.9440448 -0.078394629 349 12317770 243 36 121 2641
1.9080778 -1.9327385 -0.10623417 349 12317770 258 37 81 2718
2.0462072 -1.9268917 -0.13682555 384 12317770 304 38 139 2814
2.2063875 -1.9309937 -0.17054962 363 12317770 313 39 47 2937
1.7610033 -1.9199722 -0.17290474 373 12317770 254 40 80 2611
1.8976017 -1.9238726 -0.20474878 355 12317770 261 41 105 2710
2.0276141 -1.9104513 -0.2378533 361 12317770 282 42 127 2796
2.1917019 -1.9202361 -0.27652305 390 12317770 334 43 57 2927
1.6769145 -1.8295741 -0.2562075 284 12317770 177 44 108 2495
1.9196038 -1.9477425 -0.30809897 372 12317770 282 45 58 2752
2.0680702 -1.9506148 -0.34739649 355 12317770 291 46 94 2864
2.2209032 -1.9467801 -0.38997158 363 12317770 322 47 122 2979
1.770221 -1.9346263 -0.36802697 397 12317770 279 48 73 2648
1.9081311 -1.9377922 -0.40804234 384 12317770 290 49 43 2750
2.0211425 -1.9083531 -0.4442932 373 12317770 295 50 48 2815
2.1991653 -1.9288114 -0.49643672 374 12317770 330 51 82 2967
1.7946395 -1.9648213 -0.47429493 359 12317770 262 52 88 2703
1.8891187 -1.9204274 -0.50623256 394 12317770 296 53 82 2741
2.07148 -1.9571129 -0.56365401 340 12317770 287 54 59 2905
2.2125287 -1.9404638 -0.61266077 436 12317770 394 55 67 3006
1.765245 -1.9348084 -0.56817907 402 12317770 289 56 106 2680
1.932391 -1.9664755 -0.62511474 369 12317770 295 57 67 2827
2.0642467 -1.9510292 -0.67300254 73 12317770 62 58 54 2919
2.1855907 -1.9171757 -0.71948302 436 12317770 391 59 79 2995
1.7760566 -1.9512364 -0.67710894 319 12317770 236 60 44 2724
1.9020718 -1.9388679 -0.72431737 367 12317770 290 61 46 2811
1.8415542 -1.7412201 -0.70266002 62 12317770 43 62 85 2630
2.1973479 -1.9258608 -0.84285492 372 12317770 344 63 59 3041
1.4343065 -1.5794048 0.66593629 51 12414730 26 0 58 2235
1.4575235 -1.4870461 0.62497616 55 12414730 26 1 70 2174
0 -0 0 3 12414730 0 2 30 0
0 -0 0 0 12414730 0 3 29 0
0 -0 0 7 12414730 0 4 63 0
0 -0 0 8 12414730 0 5 30 0
1.5795156 -1.4959959 0.5419333 38 12414730 19 6 90 2242
1.7508318 -1.5393586 0.55729026 260 12414730 150 7 77 2397
1.0680004 -1.1743938 0.3658081 12 12414730 3 8 71 1629
1.5497231 -1.581279 0.48703688 138 12414730 71 9 42 2267
1.5290364 -1.4497561 0.44233966 141 12414730 65 10 39 2153
1.705655 -1.5022795 0.45499659 166 12414730 89 11 32 2318
1.5510448 -1.7050205 0.44223818 171 12414730 94 12 96 2347
1.5234621 -1.5556777 0.3953473 120 12414730 59 13 51 2213
1.5524181 -1.4724916 0.3674337 36 12414730 17 14 87 2171
1.2004678 -1.0578498 0.25975388 9 12414730 2 15 35 1621
1.399274 -1.538237 0.32043055 15 12414730 7 16 26 2104
1.3002131 -1.3283106 0.26818156 16 12414730 6 17 75 1878
0 -0 0 6 12414730 0 18 58 0
1.9427663 -1.7140713 0.32394439 71 12414730 49 19 71 2611
1.5792948 -1.7361968 0.2742593 159 12414730 89 20 83 2363
1.8219947 -1.8619528 0.27904844 151 12414730 104 21 70 2620
1.9110392 -1.8163275 0.25707066 172 12414730 121 22 59 2649
1.9060924 -1.6835494 0.22423974 374 12414730 244 23 123 2553
1.7596605 -1.935228 0.20943767 309 12414730 213 24 76 2624
1.8810965 -1.9233578 0.18968275 352 12414730 256 25 72 2697
2.0734775 -1.9708531 0.17431606 176 12414730 145 26 105 2866
2.1388805 -1.8914193 0.14698742 193 12414730 158 27 71 2859
1.7290914 -1.9034768 0.1117826 126 12414730 84 28 59 2574
1.9063654 -1.950556 0.092432216 317 12414730 236 29 34 2729
2.0451486 -1.9475985 0.069661684 359 12414730 286 30 40 2825
2.1490164 -1.9017863 0.042876258 390 12414730 322 31 75 2870
1.7668881 -1.9452902 0.018346753 284 12414730 196 32 77 2628
1.893463 -1.9387757 -0.0068582641 336 12414730 247 33 75 2710
2.0468349 -1.9496813 -0.033748072 330 12414730 264 34 75 2827
2.1849468 -1.9361007 -0.062629484 374 12414730 319 35 63 2920
1.7578136 -1.9372007 -0.077682219 351 12414730 240 36 111 2617
1.8878111 -1.9358253 -0.10576514 359 12414730 263 37 65 2706
2.043021 -1.9476811 -0.13740902 370 12414730 295 38 123 2826
2.1855314 -1.9365507 -0.16985279 402 12414730 344 39 81 2925
1.7652677 -1.9484886 -0.17449407 392 12414730 272 40 97 2635
1.869061 -1.9183391 -0.2029355 377 12414730 272 41 79 2686
2.0245054 -1.9311091 -0.23887412 365 12414730 288 42 129 2808
2.1620045 -1.9177932 -0.27425572 391 12414730 330 43 69 2903
1.633612 -1.8044335 -0.25127846 248 12414730 149 44 104 2447
1.8909804 -1.9423958 -0.30541208 368 12414730 274 45 67 2728
2.0302181 -1.9385896 -0.3430298 389 12414730 311 46 102 2828
2.1555285 -1.91299 -0.38054627 377 12414730 319 47 114 2907
1.7344124 -1.919003 -0.36302358 375 12414730 256 48 94 2612
1.8796563 -1.9324501 -0.4044812 370 12414730 275 49 58 2726
2.0350926 -1.9452821 -0.4499751 384 12414730 312 50 50 2851
2.1784422 -1.9344133 -0.49442887 414 12414730 362 51 71 2955
1.7429816 -1.9319383 -0.46376675 392 12414730 274 52 95 2643
1.9019558 -1.9573572 -0.51288134 372 12414730 287 53 85 2777
2.025404 -1.9372391 -0.5543406 384 12414730 313 54 55 2857
2.1917961 -1.9462028 -0.61021501 281 12414730 252 55 58 2994
1.7454892 -1.9368917 -0.56563503 382 12414730 272 56 111 2668
1.8876837 -1.9447056 -0.61450082 387 12414730 299 57 68 2779
2.0437999 -1.9555857 -0.67023581 181 12414730 153 58 52 2907
2.1737862 -1.9305501 -0.71948302 440 12414730 395 59 80 2995
1.7407372 -1.9361665 -0.66816038 331 12414730 239 60 43 2688
1.8740016 -1.9338492 -0.71813327 379 12414730 294 61 27 2787
1.7807139 -1.7045101 -0.6834237 54 12414730 36 62 75 2558
2.1854897 -1.9393072 -0.84285492 375 12414730 346 63 51 3041
1.4551835 -1.6222842 0.68023825 57 12513120 30 0 61 2283
1.5283186 -1.5785352 0.65947354 48 12513120 25 1 83 2294
0 -0 0 5 12513120 0 2 32 0
0.86621773 -0.7694968 0.32365212 10 12513120 1 3 34 1203
0 -0 0 6 12513120 0 4 76 0
0 -0 0 5 12513120 0 5 31 0
0 -0 0 0 12513120 0 6 74 0
1.7675066 -1.5733527 0.56566006 252 12513120 149 7 72 2433
0 -0 0 7 12513120 0 8 70 0
1.548143 -1.5991784 0.4896149 171 12513120 89 9 47 2279
1.5624747 -1.4997734 0.45466679 142 12513120 69 10 43 2213
1.6524947 -1.4735612 0.4432193 173 12513120 88 11 36 2258
1.5326771 -1.7057393 0.43997705 164 12513120 90 12 85 2335
1.5713514 -1.6243997 0.41035372 81 12513120 43 13 47 2297
1.5518847 -1.490181 0.36946467 95 12513120 45 14 76 2183
1.4856299 -1.3254164 0.32321012 10 12513120 4 15 48 2017
1.4770025 -1.643836 0.34053361 13 12513120 6 16 31 2236
1.2425033 -1.285033 0.25789985 9 12513120 3 17 62 1806
1.3560823 -1.3035747 0.25325528 12 12513120 4 18 57 1898
1.9410928 -1.7338921 0.32543322 81 12513120 56 19 63 2623
1.6084414 -1.7901843 0.28122315 157 12513120 92 20 56 2423
1.7027328 -1.7615694 0.26243335 122 12513120 74 21 82 2464
1.8998585 -1.8280193 0.25707066 168 12513120 118 22 64 2649
1.9135475 -1.7111493 0.22634774 236 12513120 157 23 108 2577
1.7317675 -1.92819 0.20752208 296 12513120 200 24 65 2600
1.8609426 -1.926255 0.18883879 375 12513120 271 25 83 2685
2.0440838 -1.9669284 0.17285633 219 12513120 177 26 127 2842
2.1540205 -1.9284889 0.14883827 180 12513120 151 27 100 2895
1.6933601 -1.8872806 0.11021921 130 12513120 84 28 65 2538
1.8943611 -1.9622166 0.092432216 305 12513120 227 29 42 2729
2.0245235 -1.9517846 0.069365777 301 12513120 238 30 47 2813
2.1373067 -1.9149367 0.042876258 365 12513120 301 31 75 2870
1.7469056 -1.9471631 0.018262979 251 12513120 172 32 82 2616
1.8731998 -1.9417211 -0.006827896 318 12513120 232 33 80 2698
2.0175586 -1.9455456 -0.033461567 312 12513120 245 34 85 2803
2.1462352 -1.9254363 -0.061857335 371 12513120 309 35 78 2884
1.7538997 -1.9568821 -0.078038424 319 12513120 220 36 123 2629
1.8842164 -1.9560081 -0.10623417 333 12513120 246 37 63 2718
2.0137827 -1.9435331 -0.13624206 372 12513120 292 38 141 2802
2.1201036 -1.9019263 -0.1656718 378 12513120 308 39 64 2853
1.7452942 -1.9503605 -0.17369941 393 12513120 271 40 83 2623
1.87385 -1.9470142 -0.20474878 364 12513120 267 41 91 2710
2.0040174 -1.9351894 -0.2378533 388 12513120 303 42 131 2796
2.1413081 -1.9230406 -0.27312201 398 12513120 333 43 60 2891
1.5986392 -1.7877295 -0.24758166 251 12513120 146 44 96 2411
1.8790265 -1.9539621 -0.30541208 393 12513120 293 45 64 2728
2.0182848 -1.9510102 -0.3430298 369 12513120 295 46 83 2828
2.1614487 -1.9420826 -0.38368806 376 12513120 323 47 122 2931
1.7305188 -1.9384739 -0.36469135 383 12513120 264 48 97 2624
1.8677636 -1.9439471 -0.4044812 338 12513120 252 49 59 2726
1.9890566 -1.9247719 -0.44239926 410 12513120 322 50 42 2803
2.166532 -1.9477437 -0.49442887 363 12513120 317 51 63 2955
1.7546736 -1.9690565 -0.47008368 196 12513120 141 52 113 2679
1.8490764 -1.9264483 -0.5018 389 12513120 287 53 80 2717
1.9881079 -1.9250637 -0.54735553 390 12513120 311 54 64 2821
2.0749724 -1.8653647 -0.58086598 72 12513120 58 55 55 2850
1.7257746 -1.9388057 -0.56309092 364 12513120 257 56 115 2656
1.8757157 -1.9562516 -0.61450082 349 12513120 270 57 60 2779
1.998214 -1.9355928 -0.65916896 337 12513120 275 58 52 2859
2.1445756 -1.9282752 -0.71371758 268 12513120 237 59 87 2971
1.7288244 -1.9468111 -0.66816038 367 12513120 265 60 34 2688
1.8540827 -1.9369354 -0.71504116 394 12513120 303 61 31 2775
2.0110493 -1.9487743 -0.77639925 85 12513120 71 62 53 2906
2.1392412 -1.9218589 -0.82955104 395 12513120 353 63 49 2993
1.467991 -1.6569041 0.6909647 53 12609630 29 0 69 2319
1.5186042 -1.5878831 0.65947354 52 12609630 28 1 80 2294
0 -0 0 3 12609630 0 2 47 0
0 -0 0 5 12609630 0 3 32 0
0 -0 0 5 12609630 0 4 58 0
0 -0 0 7 12609630 0 5 34 0
0 -0 0 0 12609630 0 6 91 0
1.7664893 -1.5919818 0.56845003 321 12609630 192 7 51 2445
0 -0 0 6 12609630 0 8 65 0
1.5302017 -1.6001774 0.48703688 139 12609630 71 9 42 2267
1.5279754 -1.4847792 0.44727051 139 12609630 66 10 47 2177
1.634688 -1.475788 0.44086382 172 12609630 87 11 33 2246
1.5691186 -1.7679971 0.45354381 175 12609630 101 12 101 2407
1.5613548 -1.6340107 0.41035372 37 12609630 19 13 49 2297
1.6529561 -1.6068438 0.39586711 96 12609630 53 14 84 2339
0 -0 0 0 12609630 0 15 47 0
1.3566749 -1.5286809 0.3149479 15 12609630 6 16 35 2068
0 -0 0 8 12609630 0 17 60 0
0 -0 0 8 12609630 0 18 51 0
1.8244394 -1.6499287 0.30756727 94 12609630 57 19 57 2479
1.6132493 -1.817849 0.28400865 60 12609630 36 20 66 2447
1.6094946 -1.685686 0.24965249 190 12609630 105 21 59 2344
1.86294 -1.8146414 0.25357708 144 12609630 98 22 45 2613
1.9650427 -1.7790167 0.23372577 165 12609630 117 23 146 2661
1.7278419 -1.9477279 0.20847988 310 12609630 212 24 93 2612
1.8408242 -1.9289774 0.18799482 334 12609630 239 25 71 2673
1.9804978 -1.9292861 0.16847715 313 12609630 240 26 97 2770
2.1599057 -1.9577661 0.15007216 238 12609630 203 27 87 2919
1.6737964 -1.8886631 0.10969808 120 12609630 76 28 56 2526
1.8491783 -1.9390863 0.090806447 295 12609630 212 29 51 2681
1.995339 -1.947412 0.068773963 170 12609630 132 30 46 2789
2.098855 -1.9038308 0.042338438 413 12609630 332 31 78 2834
1.7508419 -1.9758072 0.018430527 336 12609630 234 32 81 2640
1.8446935 -1.9358037 -0.0067671579 325 12609630 233 33 63 2674
1.9969968 -1.9495064 -0.033318315 300 12609630 234 34 72 2791
2.1343806 -1.9385691 -0.061857335 358 12609630 298 35 74 2884
1.7339088 -1.9586259 -0.077682219 298 12609630 204 36 131 2617
1.8391163 -1.9327859 -0.10435806 292 12609630 208 37 76 2670
1.9932467 -1.9474767 -0.13565859 371 12609630 289 38 124 2790
2.1349981 -1.9390619 -0.16776229 381 12609630 318 39 65 2889
1.7253644 -1.9520612 -0.17290474 375 12609630 256 40 72 2611
1.8453792 -1.9411309 -0.2029355 323 12609630 233 41 95 2686
1.9750057 -1.930733 -0.23581164 386 12609630 296 42 131 2772
2.1029513 -1.9120334 -0.26972097 394 12609630 321 43 46 2855
1.603444 -1.8153981 -0.25004619 196 12609630 116 44 100 2435
1.8587892 -1.956809 -0.3040686 359 12609630 265 45 72 2716
1.9892495 -1.9466953 -0.34011865 385 12609630 303 46 90 2804
2.1230905 -1.9312924 -0.37897542 371 12609630 311 47 132 2895
1.718592 -1.9490557 -0.36469135 409 12609630 282 48 78 2624
1.86397 -1.9639785 -0.40626177 349 12609630 262 49 65 2738
1.977209 -1.9369403 -0.44239926 413 12609630 324 50 54 2803
2.1282918 -1.9371102 -0.48840538 410 12609630 350 51 64 2919
1.7971966 -2.0418622 -0.48482317 87 12609630 67 52 82 2763
1.8209924 -1.9206409 -0.49736744 398 12609630 289 53 79 2693
