# .PCD v0.7 - Point Cloud Data file format
VERSION 0.7
FIELDS x y z intensity t reflectivity ring noise range
SIZE 4 4 4 4 4 2 1 2 4
TYPE F F F F U U U U U
COUNT 1 1 1 1 1 1 1 1 1
WIDTH 788
HEIGHT 1
VIEWPOINT 0 0 0 1 0 0 0
POINTS 788
DATA ascii
7.0014362 5.2081079 0.93470567 86 89681130 665 21 70 8776
6.5204105 5.2277937 0.81488198 262 89681130 1844 22 54 8397
6.0773458 5.2482657 0.70802844 571 89681130 3712 23 90 8061
7.4157362 5.1053104 0.72089982 71 89681130 583 24 62 9032
6.8565087 5.0975142 0.60238522 352 89681130 2585 25 69 8565
6.3906403 5.123383 0.4991059 627 89681130 4222 26 108 8206
6.0097675 5.1836839 0.40857258 757 89681130 4782 27 88 7947
7.1962304 4.9490113 0.37964395 426 89681130 3252 28 51 8742
6.752634 5.0166287 0.28508687 627 89681130 4439 29 46 8417
6.3265424 5.0622082 0.19986123 781 89681130 5128 30 45 8105
5.9182239 5.1009417 0.11673697 824 89681130 5034 31 67 7814
7.1091776 4.8885946 0.060234316 653 89681130 4864 32 70 8628
6.6563544 4.9413161 -0.020979708 715 89681130 4916 33 82 8290
6.2739763 5.0188899 -0.095919982 696 89681130 4496 34 70 8035
5.8768673 5.0586858 -0.16635421 832 89681130 5006 35 81 7756
7.0303345 4.82932 -0.25329092 769 89681130 5598 36 131 8533
6.5938978 4.8874583 -0.32104763 713 89681130 4813 37 73 8214
6.1746941 4.9352288 -0.38480359 797 89681130 4995 38 175 7914
5.7993612 4.9921465 -0.44510141 866 89681130 5090 39 79 7665
6.9378443 4.7577701 -0.5583148 842 89681130 5986 40 104 8431
6.4893346 4.8053942 -0.61182863 826 89681130 5418 41 90 8098
6.1376166 4.9027853 -0.67068505 514 89681130 3194 42 133 7884
5.7330356 4.9296546 -0.71752399 900 89681130 5189 43 52 7595
6.8720536 4.7091269 -0.86001509 809 89681130 5676 44 95 8375
6.4066353 4.7401743 -0.89787567 526 89681130 3385 45 84 8020
6.0487413 4.8266053 -0.94563657 856 89681130 5205 46 87 7796
5.6773534 4.8793626 -0.98847783 884 89681130 5040 47 119 7551
6.7841487 4.640542 -1.1535587 847 89681130 5837 48 73 8300
6.3667245 4.7063475 -1.1879225 830 89681130 5317 49 44 8006
5.9727693 4.7608666 -1.2208198 884 89681130 5286 50 52 7735
5.6113591 4.819921 -1.2553976 908 89681130 5114 51 60 7503
6.7053585 4.5778913 -1.4470997 895 89681130 6089 52 88 8247
6.2940259 4.6476831 -1.4703091 783 89681130 4964 53 82 7961
5.9213071 4.716805 -1.4973211 832 89681130 4956 54 85 7717
5.5564489 4.7729239 -1.5249261 863 89681130 4833 55 66 7482
6.6595492 4.5411654 -1.7486347 850 89681130 5784 56 92 8248
6.2496505 4.6098604 -1.7608024 838 89681130 5315 57 94 7963
5.8575473 4.6641774 -1.7741536 830 89681130 4912 58 53 7695
5.5193653 4.7402325 -1.8005092 768 89681130 4315 59 89 7495
6.5834069 4.4779744 -2.0432582 745 89681130 5031 60 57 8220
6.1832643 4.5528989 -2.0477233 834 89681130 5265 61 36 7947
5.8100867 4.6245637 -2.0588205 801 89681130 4759 62 68 7706
5.4422002 4.6779227 -2.0701361 770 89681130 4293 63 51 7469
8.0310192 5.4491963 3.0293398 600 89778700 6205 0 80 10167
7.4358678 5.4701095 2.7707086 673 89778700 6255 1 81 9638
6.9843631 5.5539465 2.5838857 588 89778700 5071 2 50 9290
6.482338 5.5657821 2.3866317 719 89778700 5655 3 51 8871
7.93715 5.3913732 2.5920014 315 89778700 3115 4 78 9939
7.3697052 5.4164834 2.3733442 667 89778700 5959 5 58 9449
6.8542042 5.4461498 2.1807859 683 89778700 5563 6 65 9022
6.3966508 5.4809713 2.0136383 720 89778700 5404 7 75 8661
7.7640042 5.2759414 2.1631856 647 89778700 6006 8 84 9633
7.2686906 5.3465409 1.9848847 551 89778700 4706 9 85 9239
6.7833338 5.3838534 1.8180507 609 89778700 4766 10 52 8849
6.3948808 5.4697838 1.6845474 409 89778700 3010 11 38 8582
7.6468768 5.1981049 1.7740403 564 89778700 5000 12 113 9415
7.177352 5.2751102 1.6172974 472 89778700 3865 13 52 9053
6.8368793 5.4242129 1.4986761 97 89778700 764 14 68 8855
6.3570423 5.4347301 1.3577389 69 89778700 493 15 41 8473
7.6048865 5.1693668 1.4169611 351 89778700 3034 16 56 9304
7.1453667 5.2491055 1.2792175 49 89778700 390 17 49 8958
6.675148 5.2900171 1.1467206 134 89778700 988 18 31 8594
6.2987604 5.3782477 1.0356047 114 89778700 798 19 62 8347
7.5203376 5.1117034 1.0625662 129 89778700 1085 20 58 9155
7.0044103 5.1438632 0.93087155 105 89778700 805 21 65 8740
6.5804567 5.209928 0.81837559 217 89778700 1547 22 59 8433
6.1367183 5.234148 0.7111904 514 89778700 3370 23 122 8097
7.3875575 5.0193772 0.71515298 103 89778700 824 24 40 8960
6.9359069 5.0907612 0.60660505 315 89778700 2346 25 66 8625
6.4783034 5.1286826 0.50348514 626 89778700 4290 26 106 8278
6.0505838 5.1544828 0.40918955 763 89778700 4834 27 89 7959
7.2958989 4.9518914 0.38329187 414 89778700 3222 28 48 8826
6.8219709 5.0034723 0.28671262 618 89778700 4426 29 36 8465
6.3951354 5.0530434 0.20104487 699 89778700 4643 30 55 8153
5.9859571 5.0956426 0.11745406 791 89778700 4891 31 80 7862
7.1986146 4.8853121 0.060736969 574 89778700 4346 32 85 8700
6.7252645 4.9287543 -0.021101184 779 89778700 5419 33 62 8338
6.3329005 5.0026126 -0.096349731 706 89778700 4602 34 76 8071
5.9260769 5.0380721 -0.16686895 813 89778700 4923 35 70 7780
7.0896192 4.806284 -0.25435954 761 89778700 5587 36 121 8569
6.6431155 4.8610682 -0.32198566 780 89778700 5291 37 49 8238
6.2519021 4.9343772 -0.387721 834 89778700 5301 38 152 7974
5.8663912 4.9875064 -0.44788873 841 89778700 5005 39 80 7713
6.9966545 4.7352438 -0.56069875 858 89778700 6152 40 93 8467
6.5766559 4.8078561 -0.61726844 824 89778700 5500 41 114 8170
6.1581964 4.8576283 -0.6696642 748 89778700 4635 42 106 7872
5.7995982 4.9253168 -0.72205865 910 89778700 5318 43 62 7643
6.9205947 4.6802459 -0.86247963 836 89778700 5899 44 104 8399
6.5704107 4.7992449 -0.91668403 210 89778700 1409 45 96 8188
6.1156669 4.8188887 -0.95145887 879 89778700 5410 46 96 7844
5.734395 4.8675313 -0.99319047 915 89778700 5268 47 95 7587
6.8518929 4.6254239 -1.16023 866 89778700 6037 48 89 8348
6.4338264 4.6951756 -1.1950448 854 89778700 5543 49 60 8054
6.039114 4.7534451 -1.2283958 911 89778700 5516 50 42 7783
5.6769152 4.8160138 -1.2634289 911 89778700 5197 51 62 7551
6.772511 4.5630665 -1.4555222 887 89778700 6105 52 90 8295
6.3700752 4.6437125 -1.4813904 883 89778700 5684 53 61 8021
5.9871473 4.709496 -1.5066345 895 89778700 5399 54 62 7765
5.6125059 4.7615409 -1.5322633 895 89778700 5061 55 58 7518
6.7164764 4.5198603 -1.756267 860 89778700 5903 56 82 8284
6.3062005 4.5920939 -1.7687629 859 89778700 5499 57 62 7999
5.9227719 4.6570177 -1.7852205 831 89778700 4979 58 55 7743
5.5749965 4.7288818 -1.8091574 785 89778700 4454 59 78 7531
6.6783147 4.482842 -2.0641384 761 89778700 5245 60 41 8304
6.2392201 4.535326 -2.0569994 835 89778700 5319 61 35 7983
5.8656282 4.6102643 -2.0684388 799 89778700 4787 62 48 7742
5.4883804 4.6593657 -2.0767879 808 89778700 4534 63 53 7493
8.0928574 5.4189358 3.040066 624 89875580 6491 0 57 10203
7.53439 5.4716568 2.7948565 692 89875580 6542 1 101 9722
7.0183101 5.5109868 2.5838857 622 89875580 5365 2 39 9290
6.5428119 5.5483274 2.396317 737 89875580 5844 3 52 8907
7.9700813 5.3425703 2.5920014 632 89875580 6238 4 54 9939
7.4404073 5.398447 2.3854005 663 89875580 5975 5 52 9497
6.9424582 5.4471173 2.1981897 652 89875580 5395 6 83 9094
6.4657979 5.471777 2.0247979 743 89875580 5632 7 56 8709
7.8545027 5.2672806 2.179354 665 89875580 6267 8 69 9705
7.3298097 5.3224993 1.9926189 613 89875580 5277 9 73 9275
6.8532143 5.3711081 1.8279126 626 89875580 4952 10 54 8897
6.4552875 5.4532218 1.6916137 358 89875580 2656 11 41 8618
7.737349 5.1904788 1.7876071 659 89875580 5934 12 81 9487
7.2382541 5.2517729 1.6237288 493 89875580 4069 13 53 9089
6.860723 5.374867 1.4966451 140 89875580 1098 14 62 8843
6.4355206 5.4338298 1.3673533 68 89875580 492 15 44 8533
7.685708 5.1556416 1.4260987 335 89875580 2935 16 40 9364
7.2543588 5.2609458 1.2929265 36 89875580 291 17 51 9054
6.7917733 5.3149223 1.1611314 131 89875580 995 18 64 8702
6.3316422 5.339498 1.0356047 110 89875580 763 19 51 8347
7.5614591 5.072103 1.063959 131 89875580 1104 20 71 9167
7.0841413 5.1358047 0.93726188 133 89875580 1033 21 66 8800
6.6687551 5.2135887 0.82536274 178 89875580 1291 22 63 8505
6.196146 5.2194991 0.71435243 478 89875580 3162 23 112 8133
7.5672436 5.0738769 0.72951996 110 89875580 917 24 34 9140
7.0154791 5.0832248 0.61082494 268 89875580 2025 25 65 8685
6.5379596 5.1109662 0.50567466 580 89875580 4009 26 101 8314
6.1187773 5.1481214 0.4116573 735 89875580 4714 27 81 8007
7.3759499 4.9403901 0.38589752 347 89875580 2743 28 68 8886
6.8914003 4.9896531 0.28833839 611 89875580 4425 29 38 8513
6.47331 5.0506053 0.20252439 739 89875580 4982 30 49 8213
6.0538468 5.0897031 0.11817116 803 89875580 5027 31 69 7910
7.2882762 4.8811135 0.061239619 644 89875580 4958 32 76 8772
6.8137145 4.9295998 -0.021283397 744 89875580 5264 33 85 8410
6.3918605 4.9858003 -0.096779495 708 89875580 4656 34 75 8107
6.0028181 5.0401883 -0.16815586 820 89875580 5042 35 64 7840
7.1787934 4.8027105 -0.25649679 809 89875580 6039 36 135 8641
6.7019777 4.84128 -0.32339275 790 89875580 5406 37 37 8274
6.3198762 4.9253945 -0.39005491 830 89875580 5338 38 171 8022
5.9152327 4.9668241 -0.44928241 831 89875580 4976 39 85 7737
7.0853209 4.7321248 -0.56546676 832 89875580 6067 40 102 8539
6.6642499 4.8094263 -0.62270832 781 89875580 5307 41 91 8242
6.244483 4.8638344 -0.67578918 606 89875580 3823 42 134 7944
5.8571696 4.9126697 -0.72545975 859 89875580 5068 43 63 7679
6.9888964 4.6641984 -0.86740875 858 89875580 6124 44 96 8447
6.5513725 4.7239671 -0.90996677 591 89875580 3901 45 53 8128
6.1733232 4.8032165 -0.95582563 855 89875580 5311 46 88 7880
5.8097382 4.8704691 -1.0010449 874 89875580 5111 47 114 7647
6.9394846 4.6228242 -1.1702367 773 89875580 5482 48 90 8420
6.501029 4.6833558 -1.2021668 819 89875580 5373 49 52 8102
6.0962348 4.7381153 -1.2340777 859 89875580 5249 50 52 7819
5.7335644 4.8038845 -1.2694523 864 89875580 4976 51 63 7587
6.8397336 4.5475888 -1.4639448 852 89875580 5932 52 97 8343
6.4175935 4.6183167 -1.4858229 862 89875580 5581 53 77 8045
6.0438228 4.6943345 -1.5136195 882 89875580 5365 54 55 7801
5.6776366 4.757194 -1.5420464 906 89875580 5183 55 57 7566
6.8026986 4.5174885 -1.7715313 825 89875580 5759 56 138 8356
6.3722677 4.580636 -1.7793766 851 89875580 5513 57 63 8047
5.9881282 4.6492324 -1.7962873 825 89875580 5006 58 34 7791
5.6128368 4.7020659 -1.8120402 898 89875580 5112 59 69 7543
6.7347655 4.4610362 -2.0730867 778 89875580 5409 60 39 8340
6.2951918 4.5172367 -2.0662756 819 89875580 5264 61 39 8019
5.9120765 4.5883665 -2.0748508 757 89875580 4563 62 48 7766
5.5610423 4.6626415 -2.0934179 750 89875580 4276 63 49 7553
8.1928558 5.4133811 3.0650947 584 89974170 6184 0 65 10287
7.6145272 5.4588065 2.8121054 645 89974170 6175 1 86 9782
7.1157565 5.5172591 2.607249 605 89974170 5320 2 60 9374
6.6298952 5.5526013 2.4156876 736 89974170 5930 3 56 8979
8.0510235 5.3255229 2.6076488 694 89974170 6941 4 88 9999
7.5111628 5.379745 2.3974566 632 89974170 5754 5 38 9545
6.9941592 5.4186792 2.2039909 664 89974170 5522 6 96 9118
6.5440259 5.4694238 2.0387475 750 89974170 5770 7 73 8769
7.9451842 5.2577057 2.1955223 638 89974170 6102 8 71 9777
7.3909063 5.2979083 2.0003531 644 89974170 5586 9 86 9311
6.9324808 5.3648944 1.8402399 628 89974170 5035 10 50 8957
6.5338016 5.4512005 1.7033911 427 89974170 3213 11 35 8678
7.8378401 5.1884418 1.8034348 622 89974170 5700 12 92 9571
7.3279347 5.2485108 1.6365913 535 89974170 4493 13 77 9161
6.9029279 5.3399053 1.4986761 140 89974170 1101 14 68 8855
6.5142264 5.4321699 1.376968 62 89974170 455 15 42 8593
7.7765355 5.1476645 1.4370641 418 89974170 3719 16 43 9436
7.2671876 5.2025075 1.2894993 41 89974170 338 17 70 9030
6.8524895 5.2949638 1.165935 126 89974170 959 18 49 8738
6.4557815 5.37675 1.050493 84 89974170 605 19 70 8467
7.6620102 5.0716624 1.0737083 115 89974170 980 20 52 9251
7.1931448 5.1477923 0.94748664 130 89974170 1031 21 85 8896
6.7762532 5.230958 0.83467907 168 89974170 1240 22 46 8601
6.2648129 5.2119622 0.71856844 464 89974170 3106 23 106 8181
7.618186 5.0405507 0.73143554 143 89974170 1198 24 36 9164
7.0757461 5.0609746 0.61335683 219 89974170 1669 25 58 8721
6.6071239 5.1000295 0.50859416 502 89974170 3512 26 75 8362
6.1779022 5.1334577 0.41350815 745 89974170 4820 27 85 8043
7.4761348 4.9413123 0.38954544 294 89974170 2362 28 54 8970
6.951158 4.9681959 0.28955775 581 89974170 4244 29 39 8549
6.5326881 5.0327544 0.20341213 743 89974170 5054 30 41 8249
6.1126571 5.0754566 0.11870898 782 89974170 4940 31 70 7946
7.3381109 4.849534 0.061407167 586 89974170 4535 32 91 8796
6.8731289 4.9086208 -0.021374501 711 89974170 5074 33 85 8446
6.4698648 4.9830961 -0.097495764 722 89974170 4818 34 78 8167
6.0428667 5.0109191 -0.16841325 773 89974170 4767 35 76 7852
7.2581773 4.7916136 -0.2582778 773 89974170 5852 36 119 8701
6.7998981 4.8487983 -0.32667595 695 89974170 4859 37 62 8358
6.3784757 4.908453 -0.39180535 820 89974170 5322 38 154 8058
5.9824834 4.9610238 -0.45206973 837 89974170 5075 39 85 7785
7.184207 4.7346835 -0.57102937 715 89974170 5318 40 88 8623
6.7131262 4.78233 -0.62452155 806 89974170 5508 41 92 8266
6.31212 4.8545842 -0.67987251 825 89974170 5269 42 109 7992
5.9792023 4.9528456 -0.7367965 410 89974170 2491 43 53 7799
7.0771976 4.6606174 -0.87480223 831 89974170 6033 44 83 8519
6.580235 4.6836796 -0.90996677 816 89974170 5389 45 40 8128
6.2404613 4.7942743 -0.96164787 861 89974170 5413 46 105 7928
5.8578405 4.8499031 -1.0041866 809 89974170 4761 47 108 7671
7.1464639 4.6976533 -1.2002571 77 89974170 576 48 91 8636
6.5779996 4.6777654 -1.2110697 808 89974170 5386 49 63 8162
6.1533942 4.7222629 -1.2397596 878 89974170 5420 50 62 7855
5.808507 4.806325 -1.2794915 778 89974170 4552 51 65 7647
6.9366522 4.5508986 -1.4786842 834 89974170 5924 52 92 8427
6.5034986 4.6198316 -1.4991206 857 89974170 5649 53 62 8117
6.1005359 4.6786532 -1.5206045 867 89974170 5327 54 75 7837
5.7338724 4.7447362 -1.5493836 886 89974170 5123 55 64 7602
6.8499074 4.4885178 -1.7766196 844 89974170 5928 56 101 8380
6.4288874 4.5617676 -1.7873372 820 89974170 5354 57 55 8083
6.044343 4.6337152 -1.8045874 853 89974170 5223 58 50 7827
5.6685081 4.6898141 -1.8206885 876 89974170 5033 59 84 7579
6.7912002 4.4387064 -2.0820353 793 89974170 5567 60 59 8376
6.3700995 4.5120344 -2.0817361 802 89974170 5232 61 48 8079
5.986012 4.587173 -2.0908811 733 89974170 4486 62 55 7826
5.6073079 4.6431384 -2.1000695 753 89974170 4325 63 67 7577
8.293087 5.4068012 3.0901229 564 90070630 6070 0 74 10371
7.7135525 5.4584556 2.8362534 632 90070630 6154 1 93 9866
7.1952367 5.5085278 2.6239371 517 90070630 4604 2 77 9434
6.6816525 5.5265493 2.4221447 731 90070630 5923 3 39 9003
8.1417561 5.3140135 2.6264257 662 90070630 6716 4 96 10071
7.5914531 5.3670835 2.4125273 372 90070630 3429 5 37 9605
7.082767 5.4181108 2.2213948 644 90070630 5442 6 82 9190
6.5954647 5.4440265 2.0443275 743 90070630 5748 7 60 8793
8.0360422 5.2472157 2.2116907 581 90070630 5640 8 71 9849
7.4998112 5.3066134 2.0209775 602 90070630 5329 9 100 9407
7.0025945 5.3507776 1.8501015 650 90070630 5268 10 51 9005
6.585289 5.425972 1.7081021 447 90070630 3382 11 38 8702
7.8892617 5.1531415 1.8079572 682 90070630 6280 12 98 9595
7.3985648 5.2307129 1.6451664 562 90070630 4769 13 83 9209
7.0107536 5.3548808 1.5149236 219 90070630 1758 14 68 8951
6.5382915 5.3845668 1.3750451 59 90070630 432 15 39 8581
7.8377628 5.1193085 1.4425466 463 90070630 4151 16 43 9472
7.4832659 5.2880497 1.322058 23 90070630 200 17 72 9258
6.8848495 5.2528181 1.165935 127 90070630 967 18 46 8738
6.4794555 5.3294735 1.0490042 67 90070630 482 19 61 8455
7.7728171 5.0766945 1.0848504 99 90070630 869 20 58 9347
7.2343407 5.1104431 0.94876462 154 90070630 1225 21 68 8908
6.8177209 5.1965208 0.83584362 104 90070630 768 22 57 8613
6.3520908 5.2189546 0.72489244 416 90070630 2834 23 111 8253
7.6489706 4.9937115 0.73143554 145 90070630 1222 24 59 9164
7.2240105 5.1003113 0.62348455 180 90070630 1418 25 69 8865
6.6573453 5.0739141 0.51005393 527 90070630 3708 26 74 8386
6.2463412 5.1258636 0.41597596 698 90070630 4570 27 100 8091
7.5565233 4.9280915 0.39215112 261 90070630 2125 28 46 9030
7.0403099 4.9669328 0.29199639 568 90070630 4218 29 53 8621
6.6111851 5.0288897 0.20489165 706 90070630 4872 30 39 8309
6.1807966 5.0682869 0.11942607 791 90070630 5058 31 61 7994
7.4280376 4.8437433 0.061909817 552 90070630 4343 32 80 8868
6.9717741 4.9147549 -0.021587083 687 90070630 5002 33 66 8530
6.5385222 4.9723568 -0.098068774 724 90070630 4887 34 102 8215
6.138473 5.0269551 -0.17021492 809 90070630 5097 35 66 7936
7.3276439 4.7731752 -0.25970262 761 90070630 5826 36 97 8749
6.8589377 4.8276882 -0.32808298 760 90070630 5358 37 75 8394
6.4466467 4.8982277 -0.39413923 814 90070630 5346 38 157 8106
6.040616 4.9469934 -0.45416024 852 90070630 5214 39 73 7821
7.2231612 4.6970401 -0.57182401 885 90070630 6599 40 102 8635
6.7521315 4.747932 -0.6254282 829 90070630 5682 41 83 8278
6.3703551 4.8374553 -0.682935 857 90070630 5523 42 112 8028
6.0557122 4.9538851 -0.7424649 101 90070630 621 43 51 7859
7.1456985 4.6431198 -0.8797313 786 90070630 5770 44 97 8567
6.6869068 4.6980567 -0.92071432 502 90070630 3398 45 67 8224
6.2887411 4.7702904 -0.96455902 860 90070630 5439 46 105 7952
5.9243288 4.8439908 -1.0104702 902 90070630 5373 47 131 7719
7.0854225 4.5955167 -1.1852469 272 90070630 1980 48 82 8528
6.6357169 4.6577687 -1.2164112 841 90070630 5649 49 54 8198
6.2200317 4.7130427 -1.2473354 857 90070630 5355 50 63 7903
5.8470502 4.7780805 -1.2814994 898 90070630 5265 51 54 7659
6.9941978 4.5275097 -1.4850012 865 90070630 6196 52 105 8463
6.5510359 4.5933814 -1.5035532 839 90070630 5562 53 83 8141
6.176053 4.6766658 -1.5322462 834 90070630 5203 54 77 7897
5.7810717 4.7243328 -1.5542752 886 90070630 5150 55 47 7626
6.9462571 4.4909735 -1.7944283 848 90070630 6073 56 139 8464
6.4951 4.5490899 -1.7979511 840 90070630 5556 57 67 8131
6.1099029 4.6247292 -1.8156543 765 90070630 4741 58 51 7875
5.7152181 4.6696849 -1.8264538 898 90070630 5193 59 73 7603
6.8573813 4.4221501 -2.093967 811 90070630 5752 60 54 8424
6.4451776 4.5060816 -2.0971963 799 90070630 5290 61 45 8139
6.060154 4.5852437 -2.1069114 791 90070630 4922 62 64 7886
5.6713943 4.6378412 -2.1133735 800 90070630 4649 63 49 7625
8.4031782 5.4053907 3.1187272 564 90168520 6183 0 67 10467
7.7940125 5.4439306 2.8535023 691 90168520 6811 1 86 9926
7.2656817 5.4920774 2.6372879 588 90168520 5291 2 58 9482
6.7691431 5.5293169 2.4415154 748 90168520 6157 3 48 9075
8.2521286 5.3141346 2.6514618 595 90168520 6153 4 83 10167
7.70997 5.3802252 2.4396541 130 90168520 1223 5 36 9713
7.1623368 5.4096389 2.2358978 649 90168520 5556 6 77 9250
6.7011161 5.4624491 2.0666471 657 90168520 5194 7 70 8889
8.1074076 5.2231402 2.2224693 141 90168520 1384 8 79 9897
7.5706644 5.2873378 2.0312898 619 90168520 5537 9 80 9455
7.0727954 5.3360023 1.8599632 652 90168520 5340 10 54 9053
6.6549649 5.4151692 1.7175238 507 90168520 3878 11 47 8750
7.9900756 5.1493263 1.8237851 656 90168520 6148 12 94 9679
7.4789329 5.2190013 1.6558852 571 90168520 4910 13 59 9269
7.0529213 5.3188839 1.5169545 275 90168520 2211 14 83 8963
6.6079655 5.3742423 1.3827368 55 90168520 407 15 45 8629
7.9388118 5.1160927 1.4553396 517 90168520 4718 16 47 9556
7.4863467 5.2216496 1.3169171 61 90168520 523 17 64 9222
6.9739451 5.253408 1.1755421 109 90168520 843 18 45 8810
6.5120344 5.2896161 1.0490042 91 90168520 648 19 49 8455
7.8939905 5.0870128 1.0973854 75 90168520 666 20 54 9455
7.3438616 5.120553 0.95898938 174 90168520 1407 21 53 9004
6.8494778 5.1545906 0.83584362 83 90168520 612 22 52 8613
6.4025593 5.1949439 0.72700047 391 90168520 2679 23 118 8277
7.7297473 4.9790721 0.73622447 198 90168520 1681 24 51 9224
7.2453485 5.0490456 0.62264055 158 90168520 1235 25 46 8853
6.7170649 5.0545754 0.51224345 469 90168520 3328 26 84 8422
6.3149171 5.1176209 0.41844371 602 90168520 3988 27 102 8139
7.6269464 4.9075813 0.39423561 215 90168520 1769 28 42 9078
7.1395483 4.9716153 0.29484153 452 90168520 3422 29 51 8705
6.6706948 5.0098419 0.20577939 701 90168520 4880 30 34 8345
6.2490778 5.0604711 0.12014317 834 90168520 5391 31 53 8042
7.4979849 4.8240452 0.062244918 556 90168520 4421 32 94 8916
7.0313487 4.8924451 -0.021678187 695 90168520 5102 33 83 8566
6.6168871 4.9681668 -0.098785043 729 90168520 4994 34 80 8275
6.2065158 5.019372 -0.17124444 780 90168520 4974 35 76 7984
7.3870649 4.7475791 -0.26077124 804 90168520 6206 36 101 8785
6.9278216 4.8128772 -0.32995909 787 90168520 5606 37 56 8442
6.5149322 4.8873501 -0.39647314 814 90168520 5410 38 147 8154
6.1267447 4.9550357 -0.45834121 817 90168520 5093 39 73 7893
7.322391 4.6978917 -0.57738668 826 90168520 6281 40 89 8719
6.8401175 4.7473469 -0.63086802 838 90168520 5844 41 86 8350
6.4190497 4.8126202 -0.68497664 830 90168520 5381 42 119 8052
6.0209455 4.8640842 -0.7345292 573 90168520 3466 43 78 7775
7.2343464 4.6378403 -0.88712484 820 90168520 6121 44 108 8639
6.7940006 4.7112999 -0.93146205 418 90168520 2890 45 53 8320
6.3560286 4.7601743 -0.97038126 873 90168520 5589 46 87 8000
5.9817076 4.8299704 -1.0151829 861 90168520 5177 47 132 7755
7.1034775 4.5455494 -1.1835792 287 90168520 2082 48 99 8516
6.7031908 4.6439981 -1.2235334 848 90168520 5769 49 67 8246
6.2867866 4.7031813 -1.2549113 864 90168520 5465 50 58 7951
5.9038777 4.7644033 -1.2875228 880 90168520 5212 51 85 7695
7.0517163 4.5035853 -1.4913181 865 90168520 6250 52 92 8499
6.6469808 4.6000776 -1.5190669 877 90168520 5934 53 99 8225
6.2329178 4.6598287 -1.5392313 814 90168520 5125 54 64 7933
5.8373775 4.710906 -1.5616124 887 90168520 5205 55 52 7662
7.0033431 4.4671869 -1.8020605 840 90168520 6069 56 109 8500
6.5517707 4.5291157 -1.8059117 810 90168520 5405 57 75 8167
6.1662245 4.6081223 -1.8239543 832 90168520 5204 58 55 7911
5.7981563 4.6784182 -1.8437502 860 90168520 5069 59 59 7675
6.9432263 4.4174266 -2.1118639 811 90168520 5851 60 47 8496
6.5013351 4.4862061 -2.1064725 804 90168520 5371 61 45 8175
6.0881743 4.5479727 -2.1069114 780 90168520 4848 62 45 7886
5.708715 4.610199 -2.1166995 764 90168520 4453 63 52 7637
8.4942169 5.3905549 3.1401801 521 90266910 5790 0 77 10539
7.8651204 5.4220991 2.8673012 684 90266910 6808 1 76 9974
7.3454323 5.4818625 2.653976 606 90266910 5522 2 59 9542
6.8479204 5.5239596 2.4576576 689 90266910 5746 3 51 9135
8.3334713 5.2944617 2.6671093 667 90266910 6971 4 51 10227
7.7524033 5.3394051 2.4426682 94 90266910 886 5 39 9725
7.2327332 5.3934331 2.2475002 649 90266910 5614 6 81 9298
6.7526894 5.4358659 2.0722268 735 90266910 5842 7 77 8913
8.2083855 5.2172041 2.2413325 166 90266910 1658 8 66 9981
7.6319122 5.2607393 2.0390236 654 90266910 5893 9 101 9491
7.1242404 5.3065348 1.8648942 652 90266910 5369 10 47 9077
6.7155833 5.3963442 1.7245902 560 90266910 4321 11 31 8786
8.0811911 5.1381421 1.8373518 672 90266910 6392 12 92 9751
7.5594344 5.2064991 1.6666042 602 90266910 5244 13 64 9329
7.1138835 5.2966971 1.5230476 249 90266910 2018 14 88 8999
6.6592875 5.3484302 1.3865826 48 90266910 357 15 37 8653
7.9800625 5.073648 1.4571671 519 90266910 4747 16 53 9568
7.5475945 5.1958203 1.322058 139 90266910 1196 17 59 9258
7.0633049 5.2531009 1.1851492 124 90266910 975 18 50 8882
6.6279626 5.3166146 1.0624037 100 90266910 735 19 81 8563
7.9552293 5.0576644 1.1015637 60 90266910 537 20 43 9491
7.3948011 5.0889239 0.96154559 187 90266910 1528 21 58 9028
6.9384975 5.1552029 0.84283078 80 90266910 600 22 54 8685
6.4529715 5.1705098 0.72910851 359 90266910 2475 23 106 8301
7.8308225 4.9764595 0.7429291 182 90266910 1573 24 46 9308
7.3649564 5.0655451 0.63023627 96 90266910 774 25 65 8961
6.8248711 5.0704103 0.51808244 436 90266910 3164 26 105 8518
6.3836265 5.1087294 0.42091152 667 90266910 4470 27 115 8187
7.758131 4.9249434 0.39944693 166 90266910 1401 28 46 9198
7.1896863 4.9412999 0.29565439 454 90266910 3456 29 44 8729
6.7302184 4.9902525 0.20666711 700 90266910 4915 30 38 8381
6.3174934 5.0520067 0.12086026 776 90266910 5082 31 65 8090
7.5780993 4.810101 0.062663801 523 90266910 4217 32 66 8976
7.1008043 4.8763824 -0.021799663 683 90266910 5072 33 63 8614
6.6761651 4.9489098 -0.099214807 717 90266910 4955 34 75 8311
6.2746959 5.0111423 -0.17227398 768 90266910 4955 35 91 8032
7.497097 4.7535472 -0.26362085 712 90266910 5615 36 122 8881
7.00667 4.8041825 -0.33230424 773 90266910 5591 37 68 8502
6.5640612 4.8615503 -0.39764011 815 90266910 5454 38 175 8178
6.1663933 4.9248252 -0.45903802 793 90266910 4959 39 65 7905
7.3713131 4.6656814 -0.57897592 862 90266910 6591 40 79 8743
6.9184771 4.7390981 -0.63540125 843 90266910 5963 41 98 8410
6.4772892 4.7944837 -0.68803912 829 90266910 5421 42 133 8088
6.17208 4.9239001 -0.74926698 264 90266910 1662 43 83 7931
7.2929325 4.612505 -0.89082164 816 90266910 6141 44 120 8675
6.891664 4.7166681 -0.94086617 523 90266910 3690 45 56 8404
6.4330053 4.7564931 -0.97765917 893 90266910 5804 46 82 8060
6.0391359 4.8154268 -1.0198954 877 90266910 5325 47 79 7791
7.2317214 4.5653143 -1.2002571 397 90266910 2962 48 95 8636
6.7707443 4.6295738 -1.2306557 849 90266910 5837 49 49 8294
6.3536534 4.6926775 -1.2624872 806 90266910 5154 50 50 7999
5.9700098 4.7575812 -1.2955543 913 90266910 5477 51 65 7743
7.1391888 4.4980168 -1.5039519 865 90266910 6358 52 68 8571
6.7042975 4.5791616 -1.5257158 870 90266910 5940 53 64 8261
6.2992783 4.6494594 -1.5485446 863 90266910 5500 54 66 7981
5.8937359 4.6969657 -1.5689497 851 90266910 5045 55 77 7698
7.0802498 4.4553609 -1.814781 699 90266910 5122 56 104 8560
6.6374412 4.5284023 -1.8218324 821 90266910 5576 57 58 8239
6.2131758 4.5840654 -1.8294878 814 90266910 5128 58 58 7935
5.8540845 4.6645303 -1.8523985 890 90266910 5294 59 74 7711
6.9898906 4.3870988 -2.1178298 816 90266910 5921 60 40 8520
6.5670738 4.4723363 -2.1188409 801 90266910 5414 61 41 8223
6.1624985 4.5448489 -2.1229417 777 90266910 4909 62 63 7946
5.7819672 4.6110282 -2.1333294 760 90266910 4505 63 58 7697
8.5950966 5.3808823 3.1652083 570 90365820 6437 0 68 10623
7.9457541 5.406064 2.8845496 660 90365820 6648 1 83 10034
7.4253283 5.4708743 2.6706641 588 90365820 5417 2 49 9602
6.9268861 5.5178437 2.4737999 683 90365820 5779 3 62 9195
8.4246979 5.2801423 2.6858864 623 90365820 6611 4 82 10299
7.8042321 5.3047962 2.4486964 384 90365820 3646 5 37 9749
7.3031993 5.3765659 2.2591028 635 90365820 5549 6 84 9346
6.8133245 5.4161177 2.0805967 711 90365820 5697 7 78 8949
8.2600565 5.1791635 2.2467217 245 90365820 2457 8 67 10005
7.741569 5.2665491 2.0596483 600 90365820 5517 9 83 9587
7.2228951 5.3114233 1.8821521 567 90365820 4755 10 52 9161
6.7762198 5.3769789 1.7316567 570 90365820 4434 11 36 8822
8.1425171 5.1072464 1.8441352 690 90365820 6610 12 106 9787
7.6498265 5.1998415 1.6794667 597 90365820 5279 13 81 9401
7.1938958 5.2879705 1.5332022 341 90365820 2802 14 67 9059
6.8126245 5.4031539 1.4115804 33 90365820 254 15 26 8809
8.0713272 5.062398 1.4681324 526 90365820 4884 16 50 9640
7.6186304 5.1761098 1.3289125 186 90365820 1607 17 48 9306
7.104991 5.2167006 1.1867504 126 90365820 993 18 51 8894
6.66046 5.275846 1.0624037 115 90365820 847 19 64 8563
8.0366001 5.040421 1.1085275 63 90365820 579 20 67 9551
7.4851093 5.0836768 0.96921402 147 90365820 1220 21 77 9100
7.0374112 5.1619797 0.85098249 112 90365820 859 22 39 8769
6.5501943 5.1827378 0.73648649 304 90365820 2140 23 81 8385
7.9220185 4.9664388 0.74867582 205 90365820 1799 24 57 9380
7.4355164 5.0471506 0.63361222 79 90365820 645 25 67 9009
6.8848295 5.0496902 0.52027202 416 90365820 3045 26 90 8554
6.4524632 5.0991864 0.4233793 619 90365820 4199 27 83 8235
7.828846 4.9026995 0.40153146 135 90365820 1150 28 53 9246
7.2694974 4.9307528 0.29768664 419 90365820 3234 29 42 8789
6.8187914 4.9913774 0.20844255 646 90365820 4613 30 43 8453
6.4048734 5.057765 0.1219359 723 90365820 4820 31 62 8162
7.6684933 4.801722 0.063166447 434 90365820 3556 32 69 9048
7.1703258 4.8596506 -0.021921139 698 90365820 5240 33 84 8662
6.7548208 4.9432836 -0.099931061 718 90365820 5034 34 72 8371
6.3147459 4.9799762 -0.17253135 806 90365820 5218 35 66 8044
7.5769691 4.7392597 -0.26540187 728 90365820 5819 36 125 8941
7.0757389 4.7879791 -0.33418033 798 90365820 5838 37 59 8550
6.6227942 4.8424058 -0.39939055 820 90365820 5529 38 168 8214
6.2341218 4.9165702 -0.46182537 817 90365820 5169 39 88 7953
7.4505849 4.652072 -0.58294928 849 90365820 6580 40 103 8803
6.9870772 4.7233634 -0.63902771 832 90365820 5953 41 100 8458
6.5548544 4.7899218 -0.69314331 831 90365820 5517 42 109 8148
6.1740241 4.8637581 -0.74586594 605 90365820 3774 43 67 7895
7.3818603 4.6055803 -0.89821523 835 90365820 6391 44 89 8747
6.9204755 4.6742926 -0.94086617 832 90365820 5879 45 77 8404
6.5197949 4.7590675 -0.98639256 580 90365820 3838 46 86 8132
6.0966101 4.8003597 -1.0246081 897 90365820 5496 47 103 7827
7.2495103 4.5145736 -1.1985893 437 90365820 3252 48 88 8624
6.8383713 4.6144934 -1.2377778 823 90365820 5724 49 48 8342
6.4110518 4.6745481 -1.2681692 886 90365820 5723 50 58 8035
6.0269814 4.7428093 -1.3015777 910 90365820 5504 51 53 7779
7.206789 4.4790716 -1.5123745 845 90365820 6279 52 85 8619
6.7616057 4.5577135 -1.5323645 882 90365820 6074 53 81 8297
6.3562303 4.6315179 -1.5555297 847 90365820 5447 54 67 8017
5.9593735 4.689775 -1.5787326 885 90365820 5307 55 48 7746
7.1373458 4.430388 -1.8224132 820 90365820 6059 56 111 8596
6.6942248 4.5071993 -1.8297929 819 90365820 5611 57 65 8275
6.2695012 4.5664797 -1.8377879 839 90365820 5327 58 52 7971
5.9009042 4.6429281 -1.858164 891 90365820 5333 59 68 7735
7.075973 4.3808374 -2.1357267 810 90365820 5977 60 43 8592
6.642508 4.4642954 -2.1343012 774 90365820 5308 61 42 8283
6.2183146 4.52737 -2.1325598 759 90365820 4839 62 61 7982
5.8282671 4.5897303 -2.1399813 769 90365820 4581 63 57 7721
8.6961765 5.3701735 3.190237 569 90461760 6526 0 84 10707
8.0551119 5.4084625 2.9121475 593 90461760 6089 1 82 10130
7.5333295 5.4794512 2.6973653 585 90461760 5506 2 64 9698
6.9969482 5.5038185 2.4867136 691 90461760 5900 3 47 9243
8.5357666 5.2770848 2.7109222 561 90461760 6066 4 73 10395
7.788404 5.2244573 2.4336259 821 90461760 7703 5 39 9689
7.420825 5.3932643 2.2852085 614 90461760 5490 6 83 9454
6.9106932 5.424655 2.1001263 661 90461760 5397 7 60 9033
8.2419548 5.0976286 2.2332482 846 90461760 8371 8 76 9945
7.8321199 5.2581434 2.0751164 613 90461760 5720 9 103 9659
7.2838612 5.2877021 1.8895484 661 90461760 5588 10 47 9197
6.8553944 5.3715854 1.7434338 592 90461760 4667 11 43 8882
8.2638979 5.1129951 1.8644853 649 90461760 6356 12 104 9895
7.720809 5.1791148 1.6880418 614 90461760 5486 13 76 9449
7.2549238 5.2645688 1.5392951 372 90461760 3081 14 60 9095
6.8736258 5.3831606 1.4173492 37 90461760 286 15 47 8845
8.1930094 5.0689373 1.4845803 583 90461760 5537 16 43 9748
7.6897063 5.1557212 1.3357669 199 90461760 1746 17 58 9354
7.2139006 5.2288437 1.19956 85 90461760 683 18 50 8990
6.7396011 5.2715588 1.0698478 121 90461760 903 19 58 8623
8.1180553 5.022368 1.1154913 63 90461760 578 20 52 9611
7.5657187 5.070869 0.97560447 156 90461760 1313 21 66 9160
7.1173201 5.1537256 0.85680521 126 90461760 979 22 44 8829
6.6478086 5.1939659 0.7438646 271 90461760 1944 23 113 8469
8.003211 4.9491935 0.75346482 195 90461760 1735 24 39 9440
7.5160704 5.0347414 0.63783205 122 90461760 1000 25 48 9069
6.9350867 5.0213995 0.52173173 370 90461760 2724 26 87 8578
6.5119739 5.0816169 0.42523018 589 90461760 4031 27 79 8271
7.9709764 4.9238763 0.40726388 99 90461760 867 28 55 9378
7.3494468 4.9194107 0.29971883 390 90461760 3052 29 34 8849
6.8881831 4.9775496 0.2096262 643 90461760 4644 30 40 8501
6.4452486 5.0257483 0.12211518 799 90461760 5335 31 55 8174
7.7386489 4.7798018 0.063501552 450 90461760 3726 32 70 9096
7.2399068 4.8422475 -0.022042612 668 90461760 5071 33 78 8710
6.8142047 4.9228244 -0.10036083 691 90461760 4886 34 85 8407
6.3641152 4.9558783 -0.17304613 801 90461760 5215 35 81 8068
7.6365304 4.7115741 -0.26647049 724 90461760 5833 36 135 8977
7.1648159 4.7844272 -0.3369945 774 90461760 5758 37 61 8622
6.7301302 4.8577967 -0.40405837 761 90461760 5252 38 164 8310
6.2925267 4.9003077 -0.46391585 834 90461760 5325 39 78 7989
7.550355 4.6502223 -0.58851188 858 90461760 6779 40 78 8887
7.0756526 4.7202454 -0.64446759 855 90461760 6223 41 78 8530
6.6616955 4.8055716 -0.70130992 793 90461760 5389 42 117 8244
6.1660337 4.7964439 -0.74133128 896 90461760 5519 43 85 7847
7.4404774 4.5789676 -0.90191197 807 90461760 6228 44 85 8783
6.9986386 4.6648097 -0.9475835 836 90461760 5986 45 53 8464
6.6745038 4.8094997 -1.0053149 78 90461760 538 46 71 8288
6.1635184 4.7920704 -1.0308917 864 90461760 5357 47 124 7875
7.3985844 4.5446444 -1.2186029 667 90461760 5130 48 80 8768
6.9159446 4.6053348 -1.2466806 815 90461760 5756 49 65 8402
6.4780827 4.6628118 -1.2757449 895 90461760 5850 50 60 8083
6.0746531 4.7202573 -1.3055934 910 90461760 5543 51 68 7803
7.2744246 4.459465 -1.5207971 834 90461760 6266 52 105 8667
6.8483624 4.5553298 -1.5456622 840 90461760 5886 53 79 8369
6.4227552 4.619926 -1.5648432 862 90461760 5604 54 54 8065
6.0158672 4.6747465 -1.5860699 878 90461760 5320 55 59 7782
7.2144027 4.4171281 -1.8351336 843 90461760 6316 56 112 8656
6.7802396 4.5048976 -1.8457136 808 90461760 5632 57 66 8347
6.3637657 4.5756407 -1.857155 840 90461760 5447 58 47 8055
5.9568777 4.6280737 -1.8668122 850 90461760 5136 59 65 7771
7.1523209 4.3676267 -2.1506412 812 90461760 6076 60 36 8652
6.6891012 4.4362707 -2.1404853 793 90461760 5470 61 34 8307
6.2929277 4.5228748 -2.1485901 756 90461760 4887 62 34 8042
5.8927274 4.5821934 -2.1532853 775 90461760 4675 63 54 7769
8.768096 5.3405485 3.2045388 534 90559510 6182 0 65 10755
8.1360531 5.3906765 2.9293962 682 90559510 7087 1 60 10190
7.6136231 5.4667382 2.7140534 593 90559510 5642 2 55 9758
7.0670981 5.4891415 2.4996274 698 90559510 6022 3 49 9291
8.6273308 5.2607989 2.7296991 604 90559510 6621 4 71 10467
8.0430832 5.3240294 2.50295 188 90559510 1862 5 49 9965
7.4727001 5.3612051 2.2910097 644 90559510 5788 6 86 9478
6.9715219 5.4035997 2.108496 713 90559510 5861 7 51 9069
8.4627476 5.1626678 2.2844479 197 90559510 2041 8 87 10173
7.8935471 5.2294059 2.0828507 630 90559510 5924 9 85 9695
7.3925357 5.297636 1.9092718 576 90559510 4972 10 37 9293
6.9161439 5.3510213 1.7505003 563 90559510 4474 11 51 8918
8.3454142 5.0928884 1.875791 673 90559510 6672 12 90 9955
7.8016696 5.1642284 1.6987607 525 90559510 4743 13 56 9509
7.3447781 5.2612777 1.5514809 415 90559510 3490 14 77 9167
6.9627476 5.3843598 1.4288868 58 90559510 459 15 26 8917
8.2340813 5.0247488 1.4864079 597 90559510 5684 16 43 9760
7.7509127 5.1281018 1.3409078 309 90559510 2728 17 68 9390
7.2942071 5.2190833 1.2075659 99 90559510 808 18 38 9050
6.8283634 5.2737765 1.0787808 125 90559510 948 19 68 8695
8.230113 5.02213 1.1266335 98 90559510 919 20 56 9707
7.6763062 5.0770078 0.98582911 157 90559510 1349 21 68 9256
7.168242 5.123848 0.85913426 144 90559510 1126 22 46 8853
6.6890168 5.1603789 0.74491853 221 90559510 1591 23 95 8481
8.1151237 4.9498239 0.76112711 227 90559510 2069 24 60 9536
7.6067371 5.0281339 0.64289588 150 90559510 1250 25 44 9141
7.0339799 5.0275068 0.52684081 328 90559510 2462 26 101 8662
6.5810027 5.0708227 0.42769793 626 90559510 4333 27 96 8319
8.0215149 4.8873506 0.40830615 106 90559510 934 28 45 9402
7.4195228 4.9006624 0.3013446 360 90559510 2846 29 47 8897
6.9674268 4.9700236 0.21110573 610 90559510 4468 30 46 8561
6.5139928 5.0153856 0.12283226 774 90559510 5235 31 81 8222
7.8498139 4.7821727 0.064171746 377 90559510 3189 32 71 9192
7.3295746 4.8373933 -0.022224827 648 90559510 4994 33 54 8782
6.9126678 4.9296889 -0.10136359 708 90559510 5107 34 78 8491
6.4514685 4.9606128 -0.17459041 805 90559510 5335 35 83 8140
7.7165298 4.695806 -0.26825151 715 90559510 5839 36 120 9037
7.2340875 4.7667646 -0.33887056 785 90559510 5905 37 61 8670
6.7988567 4.8442307 -0.40639231 725 90559510 5062 38 150 8358
6.3604636 4.8908148 -0.46670321 803 90559510 5189 39 77 8037
7.5992131 4.6162395 -0.59010118 814 90559510 6465 40 99 8911
7.1344652 4.6964784 -0.64718741 851 90559510 6246 41 80 8566
6.6813169 4.7576704 -0.70028907 858 90559510 5814 42 108 8232
6.2616673 4.8094578 -0.74926698 564 90559510 3549 43 82 7931
7.5092492 4.558002 -0.90684104 833 90559510 6497 44 109 8831
7.0669804 4.6479893 -0.95295727 829 90559510 6003 45 57 8512
6.6359439 4.7201266 -0.99512607 379 90559510 2552 46 109 8204
6.2211156 4.7758946 -1.0356042 856 90559510 5357 47 118 7911
7.4364944 4.5053196 -1.2202706 847 90559510 6531 48 82 8780
6.9936614 4.5953965 -1.2555834 808 90559510 5782 49 51 8462
6.5548697 4.6572919 -1.2852148 877 90559510 5812 50 50 8143
6.150434 4.7189035 -1.3156326 884 90559510 5468 51 65 7863
7.3521976 4.4453082 -1.5313252 874 90559510 6658 52 88 8727
6.9057631 4.5326376 -1.5523111 823 90559510 5816 53 83 8405
6.5085721 4.6213207 -1.5788132 733 90559510 4856 54 66 8137
6.0910411 4.6735034 -1.5982987 879 90559510 5408 55 65 7842
7.2915645 4.4030886 -1.8478541 847 90559510 6435 56 102 8716
6.8371148 4.4824595 -1.8536741 820 90559510 5765 57 68 8383
6.4107661 4.550024 -1.8626884 845 90559510 5518 58 59 8079
6.0221319 4.6197963 -1.8783431 854 90559510 5223 59 70 7819
7.2188134 4.3476458 -2.1625726 730 90559510 5529 60 59 8700
6.7647061 4.4268894 -2.1559458 784 90559510 5486 61 39 8367
6.3582859 4.510941 -2.1614141 717 90559510 4690 62 53 8090
5.9573131 4.5740366 -2.166589 707 90559510 4318 63 40 7817
9.0952845 5.4636073 3.3118038 319 90657280 3945 0 79 11115
8.2555561 5.3972569 2.9604437 686 90657280 7279 1 76 10298
7.6846395 5.4465799 2.7274039 568 90657280 5458 2 48 9806
7.1465011 5.4808426 2.5157697 690 90657280 6030 3 49 9351
8.7090864 5.2376161 2.7453465 651 90657280 7218 4 79 10527
8.1144981 5.2999849 2.5150063 670 90657280 6714 5 33 10013
7.552968 5.3489003 2.3055127 606 90657280 5517 6 69 9538
7.0508885 5.3961883 2.1224458 700 90657280 5830 7 56 9129
8.6044836 5.1769576 2.3140898 569 90657280 6047 8 70 10305
8.0235834 5.2449999 2.1086311 562 90657280 5418 9 74 9815
7.444078 5.2657409 1.9142027 642 90657280 5578 10 59 9317
7.0049491 5.3513427 1.7646332 610 90657280 4926 11 52 8990
8.4471874 5.0841265 1.8916187 704 90657280 7096 12 103 10039
7.9024062 5.1614566 1.7137672 591 90657280 5435 13 54 9593
7.4252057 5.2502522 1.5616356 439 90657280 3739 14 88 9227
7.0050688 5.3487239 1.4308097 89 90657280 708 15 26 8929
8.3460512 5.023057 1.5010284 493 90657280 4786 16 37 9856
7.8419046 5.1194024 1.3511896 365 90657280 3271 17 71 9462
7.3455219 5.1879501 1.2107683 75 90657280 614 18 51 9074
6.8700628 5.2389998 1.0802697 140 90657280 1065 19 60 8707
8.3118343 5.0022659 1.1335974 178 90657280 1702 20 70 9767
7.7972431 5.0884995 0.99733186 129 90657280 1135 21 65 9364
7.287375 5.1417375 0.86961508 144 90657280 1153 22 54 8961
6.7681003 5.1554556 0.75018859 191 90657280 1395 23 86 8541
8.1760921 4.9184356 0.76400054 192 90657280 1755 24 48 9572
7.5873146 4.948668 0.63867599 155 90657280 1282 25 65 9081
7.1527796 5.0463972 0.5334096 278 90657280 2139 26 105 8770
6.6596818 5.066628 0.43078268 589 90657280 4136 27 90 8379
8.0924568 4.8627391 0.4103907 151 90657280 1345 28 52 9450
7.5398812 4.9139795 0.3050026 323 90657280 2617 29 34 9005
7.0664525 4.9755235 0.21317708 618 90657280 4617 30 30 8645
6.5924039 5.0116301 0.12372864 755 90657280 5182 31 67 8282
7.9510102 4.7771773 0.064758174 361 90657280 3108 32 87 9276
7.4295082 4.8381672 -0.022437405 578 90657280 4546 33 79 8866
6.9722219 4.9079013 -0.10179336 633 90657280 4605 34 78 8527
6.529562 4.9572067 -0.17587732 815 90657280 5482 35 68 8200
7.8171897 4.6915765 -0.27074495 697 90657280 5799 36 107 9121
7.3034115 4.7484317 -0.34074667 781 90657280 5940 37 63 8718
6.8676677 4.8300023 -0.40872619 791 90657280 5592 38 178 8406
6.4380598 4.8879156 -0.47018734 848 90657280 5563 39 60 8097
7.7095661 4.618753 -0.59645844 851 90657280 6905 40 91 9007
7.2032871 4.6786852 -0.650814 852 90657280 6323 41 90 8614
6.7495117 4.7440872 -0.70437247 846 90657280 5798 42 136 8280
6.3672094 4.8286963 -0.75833642 517 90657280 3334 43 60 8027
7.619009 4.5608873 -0.91669911 817 90657280 6512 44 107 8927
7.1453815 4.6369967 -0.9596746 784 90657280 5757 45 55 8572
6.67453 4.6861649 -0.99658161 265 90657280 1786 46 172 8216
6.2787457 4.759192 -1.0403169 840 90657280 5304 47 129 7947
7.5150046 4.4900808 -1.2286096 848 90657280 6629 48 84 8840
7.0515985 4.5717649 -1.2609249 827 90657280 5969 49 50 8498
6.6124277 4.6373959 -1.2908968 853 90657280 5709 50 58 8179
6.2075639 4.702508 -1.321656 901 90657280 5624 51 76 7899
7.440217 4.4364147 -1.5439591 883 90657280 6839 52 80 8799
6.9730406 4.5158219 -1.5611759 832 90657280 5947 53 86 8453
6.5657263 4.6015668 -1.5857983 771 90657280 5152 54 80 8173
6.1476951 4.6573238 -1.6056359 851 90657280 5284 55 68 7878
7.3788986 4.3942676 -1.8631185 789 90657280 6094 56 108 8788
6.8939695 4.4594927 -1.8616346 844 90657280 5985 57 71 8419
6.4768176 4.5374017 -1.8737553 802 90657280 5299 58 74 8127
6.0875077 4.6108918 -1.8898741 791 90657280 4898 59 68 7867
7.3053155 4.3388834 -2.1804698 830 90657280 6384 60 48 8772
6.840445 4.4167452 -2.171406 804 90657280 5707 61 48 8427
6.4332066 4.5050082 -2.1774447 610 90657280 4054 62 74 8150
6.0036426 4.5513282 -2.1732409 749 90657280 4602 63 46 7841
9.5524225 5.6587424 3.4655502 401 90755840 5430 0 67 11631
8.3368101 5.3776512 2.9776926 637 90755840 6837 1 93 10358
7.7840271 5.4455767 2.7507672 598 90755840 5845 2 50 9890
7.2260661 5.4717746 2.5319118 659 90755840 5841 3 66 9411
8.8207731 5.2313552 2.7703824 609 90755840 6874 4 97 10623
8.2054462 5.2878466 2.5330908 602 90755840 6118 5 44 10085
7.6429086 5.3424826 2.3229165 627 90755840 5793 6 81 9610
7.1304245 5.3880038 2.1363955 708 90755840 5974 7 56 9189
8.6863699 5.1538987 2.3275635 589 90755840 6331 8 82 10365
8.0950108 5.2210789 2.1189435 611 90755840 5946 9 86 9863
7.5532808 5.2737508 1.9339261 653 90755840 5790 10 71 9413
7.065834 5.3295164 1.7716994 623 90755840 5072 11 42 9026
8.5491638 5.074306 1.9074465 604 90755840 6189 12 124 10123
7.9736261 5.1384544 1.7223423 639 90755840 5943 13 79 9641
7.4766779 5.2181311 1.5656976 492 90755840 4214 14 58 9251
7.0661306 5.3270321 1.4365784 143 90755840 1147 15 36 8965
8.4277086 5.002018 1.510166 601 90755840 5906 16 51 9916
7.9131083 5.0969143 1.358044 405 90755840 3667 17 60 9510
7.4357533 5.1835885 1.2203755 63 90755840 523 18 50 9146
6.9211035 5.211071 1.0832472 157 90755840 1193 19 53 8731
8.3731203 4.9694209 1.1377757 225 90755840 2167 20 65 9803
7.8483829 5.0534797 0.99988806 109 90755840 964 21 71 9388
7.3187871 5.0969262 0.86961508 180 90755840 1443 22 38 8961
6.8855863 5.178494 0.75967467 146 90755840 1093 23 99 8649
8.2472687 4.8925877 0.76783174 171 90755840 1579 24 48 9620
7.7483959 4.9862304 0.64964765 166 90755840 1420 25 65 9237
7.2130976 5.0229483 0.53559917 254 90755840 1971 26 89 8806
6.728972 5.0544591 0.43325043 517 90755840 3673 27 86 8427
8.1943388 4.8557754 0.4140386 140 90755840 1269 28 45 9534
7.6001534 4.8870831 0.30622196 260 90755840 2123 29 37 9041
7.1066999 4.9389172 0.21347299 528 90755840 3954 30 46 8657
6.6518197 4.9926939 0.12426646 761 90755840 5268 31 71 8318
8.0214672 4.7527685 0.065093271 287 90755840 2491 32 57 9324
7.4893422 4.8119493 -0.022528512 632 90755840 5011 33 81 8902
7.0416222 4.8924146 -0.10236637 664 90755840 4885 34 76 8575
6.588655 4.9386353 -0.17664945 800 90755840 5427 35 99 8236
7.8974414 4.6740694 -0.27252597 629 90755840 5302 36 113 9181
7.382874 4.7359009 -0.34309182 776 90755840 5976 37 56 8778
6.9365592 4.8151116 -0.41106009 819 90755840 5856 38 181 8454
6.4966874 4.8698769 -0.47227785 819 90755840 5420 39 76 8133
7.7893062 4.6018133 -0.6004318 864 90755840 7105 40 79 9067
7.3124561 4.6860471 -0.65806711 748 90755840 5676 41 86 8710
6.8276129 4.73666 -0.70947653 836 90755840 5814 42 117 8340
6.4349694 4.8181772 -0.76287115 527 90755840 3438 43 78 8075
7.7085261 4.5504603 -0.92409271 807 90755840 6538 44 89 8999
7.2038269 4.6123557 -0.963705 830 90755840 6153 45 71 8608
6.7716904 4.6926136 -1.0067706 564 90755840 3887 46 97 8300
6.3459287 4.7490888 -1.0466005 873 90755840 5579 47 128 7995
7.6038456 4.4800801 -1.2386165 844 90755840 6705 48 95 8912
7.1195059 4.5539894 -1.2680472 833 90755840 6080 49 54 8546
6.6699867 4.6169677 -1.2965785 835 90755840 5632 50 56 8215
6.2741976 4.6926746 -1.3296874 878 90755840 5548 51 72 7947
7.5182171 4.4206185 -1.5544872 784 90755840 6154 52 97 8859
7.0503087 4.5047007 -1.5722574 860 90755840 6235 53 73 8513
6.6228814 4.581285 -1.5927833 831 90755840 5601 54 90 8209
6.2231946 4.6546974 -1.6178646 815 90755840 5138 55 62 7938
7.4158354 4.3548474 -1.8656626 849 90755840 6575 56 103 8800
6.9705276 4.4485874 -1.8749018 864 90755840 6214 57 70 8479
6.5525579 4.5307798 -1.8875887 817 90755840 5479 58 65 8187
6.1529994 4.601357 -1.9014051 849 90755840 5320 59 82 7915
7.3719206 4.3174734 -2.1924012 753 90755840 5856 60 39 8820
6.8967543 4.3933787 -2.1806822 811 90755840 5806 61 43 8463
6.479753 4.4786 -2.1838567 708 90755840 4728 62 45 8174
6.0683784 4.5420403 -2.1865449 744 90755840 4628 63 49 7889
9.6463108 5.6346893 3.4870033 414 90854230 5676 0 62 11703
8.4181309 5.3572497 2.994941 598 90854230 6493 1 89 10418
7.8457494 5.4173603 2.7607803 607 90854230 5976 2 47 9926
7.2965307 5.4550152 2.5448258 661 90854230 5911 3 48 9459
8.9227085 5.218071 2.792289 557 90854230 6390 4 70 10707
8.3063517 5.281023 2.5541894 661 90854230 6830 5 55 10169
7.7138829 5.3219357 2.3345189 506 90854230 4721 6 101 9658
7.1914144 5.365088 2.1447654 715 90854230 6081 7 54 9225
8.7884808 5.1418381 2.3464265 586 90854230 6402 8 74 10449
8.1763325 5.2027688 2.1318336 597 90854230 5881 9 92 9923
7.6048384 5.2406335 1.9388571 658 90854230 5856 10 56 9437
7.1267142 5.3071446 1.7787658 649 90854230 5327 11 32 9062
8.6411648 5.0574713 1.9210134 656 90854230 6820 12 103 10195
8.0747509 5.1337757 1.7373486 641 90854230 6066 13 73 9725
7.547514 5.1989932 1.5738214 493 90854230 4265 14 85 9299
7.146193 5.3189363 1.446193 171 90854230 1389 15 46 9025
8.5196581 4.986156 1.5211314 639 90854230 6373 16 28 9988
8.0144043 5.092855 1.3700395 438 90854230 4036 17 63 9594
7.516407 5.1715713 1.2283814 53 90854230 445 18 57 9206
7.029398 5.2253356 1.0951579 148 90854230 1150 19 45 8827
8.4548883 4.9480519 1.1447395 262 90854230 2553 20 63 9863
7.9094577 5.0244217 1.0037223 108 90854230 962 21 78 9424
7.4286637 5.1060443 0.87893128 183 90854230 1498 22 49 9057
6.9844127 5.1860304 0.76705271 124 90854230 947 23 102 8733
8.3700581 4.8962493 0.77645189 158 90854230 1500 24 58 9728
7.8192682 4.9642568 0.65302354 194 90854230 1669 25 51 9285
7.3326221 5.0396538 0.54216796 208 90854230 1655 26 83 8914
6.7887373 5.034492 0.43510127 515 90854230 3690 27 84 8463
8.2446814 4.8175011 0.41508088 171 90854230 1559 28 39 9558
7.7008872 4.8853288 0.30906704 208 90854230 1730 29 32 9125
7.1764426 4.9223609 0.21465664 572 90854230 4332 30 37 8705
6.7208896 4.9803596 0.12498355 767 90854230 5370 31 83 8366
8.1126451 4.7397804 0.065595925 221 90854230 1953 32 92 9396
7.5795383 4.8044519 -0.022710724 579 90854230 4667 33 61 8974
7.1209884 4.8830452 -0.10308263 685 90854230 5111 34 67 8635
6.6574092 4.926662 -0.17767899 807 90854230 5541 35 59 8284
7.9984894 4.6678438 -0.27501941 515 90854230 4421 36 107 9265
7.4725876 4.7289839 -0.34590596 728 90854230 5706 37 65 8850
7.0055251 4.7995563 -0.41339403 806 90854230 5824 38 152 8502
6.5745945 4.8655543 -0.47576204 804 90854230 5399 39 82 8193
7.8794732 4.590095 -0.60519975 816 90854230 6817 40 87 9139
