# .PCD v0.7 - Point Cloud Data file format
VERSION 0.7
FIELDS x y z intensity t reflectivity ring noise range
SIZE 4 4 4 4 4 2 1 2 4
TYPE F F F F U U U U U
COUNT 1 1 1 1 1 1 1 1 1
WIDTH 764
HEIGHT 1
VIEWPOINT 0 0 0 1 0 0 0
POINTS 764
DATA ascii
-0.66067606 7.0344296 0.56573713 813 72654580 4087 24 62 7088
-0.91372526 6.9880214 0.49688867 799 72654580 3989 25 93 7065
-1.1668776 6.9435759 0.42903888 786 72654580 3910 26 118 7054
-1.4054235 6.846993 0.35983387 792 72654580 3879 27 118 6999
-0.64403617 6.8934426 0.30095315 866 72654580 4161 28 88 6930
-0.89079601 6.8312097 0.2334684 762 72654580 3622 29 65 6893
-1.1336303 6.7848554 0.16967861 836 72654580 3956 30 52 6881
-1.3779234 6.7255306 0.10257436 888 72654580 4188 31 70 6866
-0.6325534 6.7743664 0.047500499 825 72654580 3821 32 75 6804
-0.87551826 6.7332964 -0.017183622 748 72654580 3450 33 86 6790
-1.1136346 6.6701932 -0.080735132 827 72654580 3783 34 111 6763
-1.3474132 6.5982804 -0.14447679 881 72654580 3998 35 88 6736
-0.61687082 6.6414733 -0.19807927 807 72654580 3592 36 145 6673
-0.84788358 6.5583625 -0.25866732 853 72654580 3738 37 69 6618
-1.0858155 6.5203824 -0.32178801 899 72654580 3939 38 193 6618
-1.3321801 6.5231042 -0.38726434 196 72654580 873 39 77 6669
-0.59685582 6.4812579 -0.43196386 965 72654580 4107 40 95 6523
-0.84364629 6.5489569 -0.50031233 370 72654580 1622 41 131 6622
-1.0627172 6.3926926 -0.55328965 926 72654580 3916 42 140 6504
-1.2871962 6.3202777 -0.61209184 907 72654580 3809 43 73 6479
-0.59638608 6.5010071 -0.67394382 390 72654580 1680 44 110 6563
-0.81002778 6.3079686 -0.71650922 863 72654580 3536 45 71 6400
-1.0371996 6.2594519 -0.77533466 912 72654580 3727 46 104 6392
-1.2645059 6.2166333 -0.83767307 939 72654580 3844 47 140 6399
-0.56545597 6.2211347 -0.87670463 932 72654580 3709 48 94 6308
-0.79410076 6.2053709 -0.93864572 884 72654580 3540 49 58 6326
-1.0168111 6.156394 -0.99733174 909 72654580 3631 50 70 6319
-1.2439998 6.1245766 -1.0606377 931 72654580 3743 51 66 6339
-0.55301529 6.1449323 -1.0996695 679 72654580 2667 52 123 6267
-0.77748036 6.1000137 -1.155599 747 72654580 2925 53 89 6257
-0.99961102 6.0641031 -1.2155911 844 72654580 3313 54 102 6265
-1.217284 5.9925098 -1.2730137 882 72654580 3442 55 73 6246
-0.55399859 6.1946111 -1.3492134 167 72654580 677 56 110 6364
-0.77300346 6.090313 -1.3919692 305 72654580 1210 57 67 6295
-0.9849934 5.9825826 -1.4366149 451 72654580 1749 58 44 6231
-1.1996931 5.9085555 -1.4920565 592 72654580 2285 59 76 6211
-0.5354408 6.0670605 -1.563018 234 72654580 923 60 53 6288
-0.75887007 6.0193253 -1.6179255 197 72654580 775 61 40 6279
-0.98168063 5.9696112 -1.6773002 123 72654580 483 62 44 6278
-1.2102228 5.9476385 -1.7508434 42 72654580 166 63 37 6317
-0.70994329 8.1508369 2.5537984 593 72752820 4358 0 83 8571
-1.0087453 8.0301933 2.4291854 764 72752820 5458 1 79 8450
-1.3077434 7.9754934 2.3402383 662 72752820 4684 2 44 8414
-1.5978677 7.874918 2.2445798 753 72752820 5239 3 48 8343
-0.6918276 7.8966136 2.1413546 750 72752820 5057 4 110 8211
-0.98163491 7.8420463 2.0508366 754 72752820 5029 5 67 8165
-1.2703789 7.766294 1.9603386 722 72752820 4749 6 114 8110
-1.5535656 7.6965508 1.8769311 792 72752820 5164 7 79 8073
-0.67888659 7.7318292 1.7886196 742 72752820 4707 8 116 7965
-0.96211118 7.6622024 1.6987211 659 72752820 4121 9 102 7907
-1.2327868 7.5621591 1.6084892 770 72752820 4717 10 56 7829
-1.5025041 7.4772229 1.5267315 792 72752820 4789 11 39 7778
-0.66046828 7.5085273 1.4461772 802 72752820 4724 12 119 7675
-0.936239 7.4793892 1.3686198 784 72752820 4603 13 99 7661
-1.2029618 7.3881388 1.2854257 710 72752820 4096 14 101 7595
-1.4661957 7.3057761 1.2096744 784 72752820 4469 15 76 7549
-0.64765412 7.3643217 1.1391733 748 72752820 4188 16 69 7480
-0.91075939 7.2892575 1.0598742 786 72752820 4331 17 97 7422
-1.171824 7.2215328 0.98500019 738 72752820 4023 18 71 7382
-1.4355578 7.1758318 0.91500956 741 72752820 4032 19 84 7375
-0.63255787 7.1941051 0.84390157 775 72752820 4099 20 80 7271
-0.89435256 7.1670966 0.7736671 746 72752820 3938 21 85 7264
-1.1478069 7.0946684 0.70075774 769 72752820 4012 22 74 7221
-1.3978807 7.007205 0.63003194 805 72752820 4141 23 136 7173
-0.61750114 7.0383506 0.56573713 791 72752820 3975 24 96 7088
-0.87083036 6.9934959 0.49688867 824 72752820 4114 25 80 7065
-1.118513 6.915132 0.42684928 747 72752820 3678 26 122 7018
-1.3680598 6.8789954 0.36106774 809 72752820 3990 27 110 7023
-0.6006847 6.8853211 0.30043203 853 72752820 4084 28 78 6918
-0.85181928 6.8603506 0.2342813 773 72752820 3700 29 64 6917
-1.0957865 6.8153715 0.17027041 751 72752820 3579 30 43 6905
-1.3342942 6.7220898 0.10239508 886 72752820 4164 31 84 6854
-0.58889019 6.7542114 0.047332946 816 72752820 3751 32 103 6780
-0.82976425 6.7028141 -0.017092515 787 72752820 3591 33 91 6754
-1.0726861 6.6769004 -0.080735132 812 72752820 3715 34 96 6763
-1.3045733 6.5946546 -0.1442194 871 72752820 3938 35 112 6724
-0.57299984 6.6092834 -0.19701065 866 72752820 3813 36 164 6637
-0.80616182 6.5515404 -0.25819829 865 72752820 3777 37 64 6606
-1.047683 6.5387568 -0.32237145 898 72752820 3949 38 194 6630
-1.2874801 6.5076518 -0.3858707 619 72752820 2735 39 79 6645
-0.55605149 6.4728684 -0.43116921 924 72752820 3917 40 108 6511
-0.78306335 6.3877354 -0.48761943 804 72752820 3349 41 100 6454
-1.032914 6.4581251 -0.55839378 404 72752820 1740 42 137 6564
-1.2507037 6.3397775 -0.61322558 923 72752820 3890 43 78 6491
-0.54631048 6.385613 -0.66162121 914 72752820 3795 44 91 6443
-0.77275378 6.324657 -0.71785271 869 72752820 3574 45 70 6412
-1.0006479 6.2774615 -0.77679026 921 72752820 3779 46 89 6404
-1.2286373 6.2359476 -0.83924395 934 72752820 3839 47 98 6411
-0.52827626 6.2363281 -0.87837249 917 72752820 3664 48 89 6320
-0.75744444 6.2219067 -0.94042629 895 72752820 3593 49 51 6338
-0.97901702 6.1625171 -0.99733174 875 72752820 3496 50 60 6319
-1.2018293 6.1088777 -1.0566221 951 72752820 3794 51 77 6315
-0.51530027 6.14821 -1.0996695 642 72752820 2523 52 87 6267
-0.73861748 6.0929618 -1.1533828 746 72752820 2911 53 61 6245
-0.95869684 6.0468688 -1.2109344 816 72752820 3179 54 99 6241
-1.1804917 5.9998665 -1.2730137 908 72752820 3544 55 65 6246
-0.51597875 6.1978941 -1.3492134 136 72752820 551 56 103 6364
-0.73281491 6.0717044 -1.3866624 232 72752820 911 57 39 6271
-0.95009261 6.0000467 -1.4393816 387 72752820 1510 58 65 6243
-1.1634163 5.9158058 -1.4920565 555 72752820 2142 59 73 6211
-0.49535164 6.0354786 -1.5540694 236 72752820 921 60 44 6252
-0.71916246 6.0008435 -1.6117414 205 72752820 801 61 37 6255
-0.94322687 5.9641004 -1.6740942 130 72752820 508 62 56 6266
-1.1803949 5.9888887 -1.7608212 50 72752820 200 63 38 6353
-0.65806943 8.1322041 2.5466473 674 72849900 4927 0 64 8547
-0.959454 8.036232 2.4291854 732 72849900 5228 1 93 8450
-1.2569869 7.9719815 2.3369007 672 72849900 4747 2 64 8402
-1.5472894 7.8732333 2.2413514 763 72849900 5293 3 49 8331
-0.64712286 7.9468961 2.1538727 649 72849900 4429 4 85 8259
-0.93349856 7.8479218 2.0508366 705 72849900 4703 5 63 8165
-1.2208927 7.7624397 1.957438 726 72849900 4762 6 93 8098
-1.4995943 7.6715755 1.8685615 803 72849900 5190 7 67 8037
-0.63238353 7.7475038 1.7913144 770 72849900 4900 8 118 7977
-0.91368985 7.6563244 1.696143 596 72849900 3716 9 108 7895
-1.186363 7.569581 1.6084892 776 72849900 4760 10 58 7829
-1.4588437 7.4978514 1.5290869 776 72849900 4707 11 38 7790
-0.615345 7.5241842 1.4484384 815 72849900 4816 12 111 7687
-0.88753957 7.4615445 1.3643323 764 72849900 4458 13 95 7637
-1.1612644 7.4187503 1.2894876 752 72849900 4366 14 91 7619
-1.4258596 7.3378901 1.2135202 777 72849900 4458 15 77 7573
-0.60052228 7.3445158 1.1355182 783 72849900 4356 16 68 7456
-0.86741638 7.3065028 1.0615878 802 72849900 4434 17 81 7434
-1.1274915 7.2285867 0.98500019 769 72849900 4192 18 76 7382
-1.3892366 7.1728153 0.91352075 726 72849900 3937 19 87 7363
-0.5893749 7.2097301 0.8452943 778 72849900 4128 20 93 7283
-0.84754968 7.1487517 0.77111095 710 72849900 3722 21 102 7240
-1.1024182 7.089776 0.69959319 769 72849900 3999 22 65 7209
-1.3571255 7.0273871 0.63108599 805 72849900 4156 23 130 7185
-0.57430303 7.0420074 0.56573713 797 72849900 4006 24 82 7088
-0.82649642 6.9868202 0.4960447 819 72849900 4075 25 89 7053
-1.0760615 6.921865 0.42684928 798 72849900 3929 26 127 7018
-1.3212945 6.8637242 0.35983387 822 72849900 4027 27 105 6999
-0.5584259 6.8888769 0.30043203 869 72849900 4161 28 73 6918
-0.80689949 6.8416266 0.2334684 759 72849900 3604 29 45 6893
-1.0521159 6.810111 0.16997451 821 72849900 3899 30 44 6893
-1.2907593 6.7183676 0.10221581 877 72849900 4107 31 77 6842
-0.54840499 6.7696581 0.047416721 835 72849900 3852 32 112 6792
-0.78862095 6.7077794 -0.017092515 847 72849900 3865 33 84 6754
-1.0298666 6.6714978 -0.08059188 828 72849900 3775 34 103 6751
-1.2640847 6.6025352 -0.1442194 863 72849900 3902 35 98 6724
-0.53339791 6.6246309 -0.19736686 865 72849900 3823 36 136 6649
-0.76594716 6.5563631 -0.25819829 871 72849900 3803 37 84 6606
-1.0057186 6.533216 -0.32178801 900 72849900 3943 38 181 6618
-1.2295027 6.4213009 -0.38029602 895 72849900 3841 39 64 6549
-0.51822746 6.50003 -0.43275854 942 72849900 4023 40 95 6535
-0.75768477 6.5112748 -0.4966858 599 72849900 2589 41 110 6574
-1.0077951 6.5588841 -0.56656045 67 72849900 296 42 156 6660
-1.21178 6.3473325 -0.61322558 906 72849900 3818 43 104 6491
-0.50711882 6.388845 -0.66162121 940 72849900 3902 44 130 6443
-0.7339319 6.3292794 -0.71785271 882 72849900 3628 45 70 6412
-0.96211129 6.283483 -0.77679026 908 72849900 3725 46 105 6404
-1.188123 6.2316828 -0.83767307 942 72849900 3857 47 118 6399
-0.4900009 6.2394524 -0.87837249 903 72849900 3607 48 110 6320
-0.71789151 6.2146482 -0.93864572 869 72849900 3479 49 69 6326
-0.94297349 6.1801224 -0.99922568 897 72849900 3593 50 53 6331
-1.1643233 6.116137 -1.0566221 958 72849900 3822 51 67 6315
-0.47756588 6.1512561 -1.0996695 577 72849900 2266 52 113 6267
-0.70256525 6.1090956 -1.155599 688 72849900 2695 53 83 6257
-0.9215759 6.0526376 -1.2109344 747 72849900 2910 54 102 6241
-1.1414578 5.9954557 -1.2705679 905 72849900 3518 55 73 6234
-0.4797419 6.2243285 -1.3543016 107 72849900 437 56 108 6388
-0.69820774 6.0993404 -1.3919692 209 72849900 830 57 66 6295
-0.91325915 6.0057635 -1.4393816 343 72849900 1335 58 53 6243
-1.1270957 5.922833 -1.4920565 522 72849900 2015 59 67 6211
-0.45830932 6.0384045 -1.5540694 246 72849900 960 60 37 6252
-0.68101948 5.9936228 -1.6086494 216 72849900 841 61 19 6243
-0.90835035 5.9812083 -1.6773002 130 72849900 511 62 42 6278
-1.1328247 5.9393902 -1.7441914 59 72849900 233 63 33 6293
-0.60815883 8.1360884 2.5466473 643 72946710 4699 0 84 8547
-0.91012657 8.0419674 2.4291854 718 72946710 5128 1 109 8450
-1.2097734 7.990941 2.3402383 663 72946710 4697 2 68 8414
-1.5032692 7.9052877 2.2478085 706 72946710 4926 3 52 8355
-0.59748006 7.9391651 2.1507432 686 72946710 4667 4 93 8247
-0.88272482 7.8304181 2.0448084 711 72946710 4714 5 72 8141
-1.1732403 7.7697849 1.957438 759 72946710 4979 6 93 8098
-1.4524941 7.6806326 1.8685615 791 72946710 5111 7 88 8037
-0.58307427 7.7279177 1.785925 726 72946710 4593 8 96 7953
-0.86669433 7.6617866 1.696143 709 72946710 4420 9 112 7895
-1.1398946 7.5767179 1.6084892 789 72946710 4834 10 53 7829
-1.4149866 7.5182252 1.5314424 808 72946710 4916 11 49 7802
-0.56916589 7.5278182 1.4484384 785 72946710 4640 12 97 7687
-0.84173971 7.4668498 1.3643323 778 72946710 4540 13 79 7637
-1.1139647 7.4140401 1.2874566 767 72946710 4439 14 97 7607
-1.3764322 7.3232183 1.2096744 809 72946710 4612 15 77 7549
-0.5563398 7.3598886 1.1373458 812 72946710 4531 16 83 7468
-0.82256818 7.3116875 1.0615878 772 72946710 4268 17 94 7434
-1.0813557 7.2236071 0.98339903 752 72946710 4086 18 69 7370
-1.3473912 7.1929083 0.91500956 760 72946710 4135 19 85 7375
-0.54422754 7.2013259 0.84390157 779 72946710 4120 20 97 7271
-0.80233777 7.1419601 0.76983285 766 72946710 4003 21 101 7228
-1.0588953 7.0964069 0.69959319 767 72946710 3988 22 79 7209
-1.3095917 7.0120811 0.62897795 765 72946710 3923 23 114 7161
-0.53288156 7.0692544 0.5676527 777 72946710 3932 24 78 7112
-0.78227735 6.9798641 0.49520072 783 72946710 3883 25 78 7041
-1.0318023 6.916491 0.42611945 789 72946710 3872 26 115 7006
-1.2791547 6.8717022 0.35983387 831 72946710 4070 27 119 6999
-0.516146 6.8921738 0.30043203 846 72946710 4051 28 74 6918
-0.76756811 6.8702869 0.2342813 796 72946710 3810 29 65 6917
-1.0085512 6.8045721 0.16967861 845 72946710 3999 30 45 6881
-1.2517034 6.7379575 0.10239508 882 72946710 4145 31 86 6854
-0.5077523 6.784862 0.047500499 750 72946710 3473 32 88 6804
-0.74744791 6.712492 -0.017092515 824 72946710 3760 33 100 6754
-0.98891169 6.6776915 -0.08059188 796 72946710 3629 34 91 6751
-1.2279156 6.6337609 -0.14473416 818 72946710 3725 35 99 6748
-0.49273989 6.627779 -0.19736686 882 72946710 3897 36 160 6649
-0.72570366 6.5609398 -0.25819829 867 72946710 3786 37 67 6606
-0.96386176 6.5274067 -0.32120451 891 72946710 3890 38 186 6606
-1.1748147 6.3462663 -0.37541819 1083 72946710 4528 39 319 6465
-0.47745591 6.4911461 -0.43196386 963 72946710 4097 40 114 6523
-0.70985746 6.4444385 -0.49124596 924 72946710 3907 41 104 6502
-0.95009857 6.4466572 -0.55635214 476 72946710 2035 42 126 6540
-1.1706425 6.3429003 -0.61209184 915 72946710 3842 43 81 6479
-0.46790802 6.3918362 -0.66162121 938 72946710 3894 44 122 6443
-0.69508231 6.3336635 -0.71785271 881 72946710 3624 45 63 6412
-0.92180789 6.277483 -0.77533466 907 72946710 3707 46 104 6392
-1.1520201 6.2505555 -0.83924395 937 72946710 3851 47 118 6411
-0.45170712 6.2423415 -0.87837249 882 72946710 3523 48 102 6320
-0.68103504 6.2307334 -0.94042629 884 72946710 3549 49 49 6338
-0.89988887 6.1506176 -0.99354374 933 72946710 3698 50 77 6295
-1.1267735 6.1231661 -1.0566221 924 72946710 3686 51 75 6315
-0.4414978 6.1776381 -1.1038808 514 72946710 2035 52 103 6291
-0.66379184 6.1015668 -1.1533828 635 72946710 2477 53 90 6245
-0.88612086 6.0698266 -1.2132628 761 72946710 2976 54 87 6253
-1.1089016 6.025455 -1.2754595 844 72946710 3307 55 64 6258
-0.4382233 6.1803632 -1.3441252 135 72946710 543 56 100 6340
-0.66454864 6.1384149 -1.3999298 150 72946710 603 57 64 6331
-0.87976038 6.0343628 -1.4449149 277 72946710 1089 58 76 6267
-1.0928401 5.9410934 -1.4949392 472 72946710 1829 59 72 6223
-0.42367536 6.0758882 -1.563018 215 72946710 849 60 25 6288
-0.64546877 6.0092168 -1.6117414 238 72946710 930 61 35 6255
-0.86996716 5.9752259 -1.6740942 167 72946710 654 62 37 6266
-1.09636 5.9462295 -1.7441914 69 72946710 272 63 37 6293
-0.55822527 8.1396666 2.5466473 676 73043670 4940 0 81 8547
-0.8607648 8.0474005 2.4291854 753 73043670 5379 1 83 8450
-1.1623746 8.0096207 2.343576 645 73043670 4582 2 72 8426
-1.4505562 7.8916283 2.2413514 747 73043670 5182 3 55 8331
-0.54715806 7.9195671 2.1444843 757 73043670 5121 4 80 8223
-0.83466166 7.8356872 2.0448084 751 73043670 4974 5 51 8141
-1.1222079 7.7537889 1.9516367 729 73043670 4755 6 70 8074
-1.409536 7.7123628 1.8741413 736 73043670 4785 7 73 8061
-0.53645384 7.7430153 1.7886196 756 73043670 4797 8 97 7965
-0.81842035 7.6553068 1.6935649 740 73043670 4600 9 97 7883
-1.0950592 7.5951934 1.6109546 692 73043670 4258 10 64 7841
-1.3646183 7.5036125 1.5267315 802 73043670 4849 11 51 7778
-0.52378178 7.5429258 1.4506996 729 73043670 4322 12 100 7699
-0.79590809 7.4718742 1.3643323 796 73043670 4645 13 70 7637
-1.068452 7.4207358 1.2874566 745 73043670 4312 14 96 7607
-1.3357049 7.354835 1.2135202 784 73043670 4498 15 65 7573
-0.51116991 7.3631639 1.1373458 816 73043670 4549 16 56 7468
-0.77643365 7.3047867 1.0598742 704 73043670 3880 17 89 7422
-1.0370121 7.2301064 0.98339903 745 73043670 4048 18 84 7370
-1.2989899 7.1776061 0.91203189 776 73043670 4194 19 97 7351
-0.50085604 7.2164197 0.8452943 799 73043670 4240 20 71 7283
-0.7585004 7.146749 0.76983285 745 73043670 3894 21 81 7228
-1.0153327 7.1027708 0.69959319 766 73043670 3983 22 78 7209
-1.2665417 7.0199847 0.62897795 776 73043670 3979 23 124 7161
-0.48784351 7.0485244 0.56573713 780 73043670 3921 24 71 7088
-0.74321562 7.0202436 0.49773261 711 73043670 3562 25 80 7077
-0.99273318 6.9464064 0.42757916 739 73043670 3652 26 113 7030
-1.2348458 6.8676267 0.3592169 831 73043670 4056 27 122 6987
-0.47466865 6.9071717 0.30095315 872 73043670 4190 28 83 6930
-0.72413993 6.8629403 0.23387486 783 73043670 3735 29 61 6905
-0.9684661 6.8225093 0.16997451 830 73043670 3946 30 58 6893
-1.2103364 6.7455111 0.10239508 836 73043670 3929 31 77 6854
-0.46528956 6.7758784 0.047416721 809 73043670 3732 32 114 6792
-0.70624679 6.7169518 -0.017092515 822 73043670 3751 33 91 6754
-0.94791955 6.6836338 -0.08059188 790 73043670 3602 34 96 6751
-1.1829662 6.6175504 -0.1442194 904 73043670 4088 35 89 6724
-0.45043159 6.6067443 -0.19665445 883 73043670 3875 36 125 6625
-0.68667793 6.5771952 -0.25866732 873 73043670 3826 37 66 6618
-0.92547029 6.5450659 -0.32178801 913 73043670 4000 38 191 6618
-1.1695857 6.5420403 -0.38656753 406 73043670 1801 39 76 6657
-0.4384231 6.5058999 -0.43275854 929 73043670 3968 40 82 6535
-0.67153889 6.4605746 -0.4921526 896 73043670 3801 41 126 6514
-0.90384191 6.4050083 -0.5522688 486 73043670 2047 42 152 6492
-1.1317011 6.3499637 -0.61209184 930 73043670 3905 43 91 6479
-0.42788124 6.3826771 -0.66038895 949 73043670 3925 44 115 6431
-0.65620661 6.3378091 -0.71785271 908 73043670 3735 45 61 6412
-0.88327259 6.283021 -0.77533466 917 73043670 3748 46 97 6392
-1.1115612 6.2457938 -0.83767307 938 73043670 3840 47 133 6399
-0.41418126 6.2568531 -0.88004029 865 73043670 3469 48 91 6332
-0.64279115 6.2347946 -0.94042629 889 73043670 3573 49 70 6338
-0.86541939 6.1794939 -0.99733174 920 73043670 3675 50 64 6319
-1.0912509 6.1416125 -1.0586299 857 73043670 3433 51 63 6327
-0.40358424 6.1802306 -1.1038808 454 73043670 1798 52 93 6291
-0.62754434 6.1172571 -1.155599 613 73043670 2401 53 79 6257
-0.84886038 6.0751495 -1.2132628 733 73043670 2867 54 88 6253
-1.0719092 6.032146 -1.2754595 831 73043670 3256 55 72 6258
-0.40180838 6.2063413 -1.3492134 178 73043670 722 56 94 6364
-0.63162428 6.1889467 -1.4105436 133 73043670 542 57 81 6379
-0.84271765 6.0396471 -1.4449149 226 73043670 886 58 56 6267
-1.0543286 5.9362183 -1.4920565 385 73043670 1486 59 77 6211
-0.38859856 6.1131735 -1.5719665 173 73043670 690 60 44 6324
-0.60741723 6.0015287 -1.6086494 192 73043670 747 61 41 6243
-0.83647919 6.0033579 -1.6805063 177 73043670 699 62 41 6290
-1.065917 5.9868989 -1.7541693 69 73043670 274 63 54 6329
-0.50898433 8.1543722 2.5502229 687 73140640 5035 0 73 8559
-0.81367511 8.0754013 2.4360847 761 73140640 5467 1 89 8474
-1.1116211 8.0051851 2.3402383 564 73140640 3996 2 66 8414
-1.4021068 7.9003801 2.2413514 783 73140640 5431 3 56 8331
-0.49928176 7.9343371 2.1476138 730 73140640 4952 4 90 8235
-0.78772646 7.8522182 2.0478227 778 73140640 5168 5 44 8153
-1.0746105 7.760529 1.9516367 736 73140640 4799 6 101 8074
-1.3621873 7.7208662 1.8741413 726 73140640 4720 7 77 8061
-0.48746029 7.7228208 1.7832303 733 73140640 4623 8 97 7941
-0.77260721 7.6718454 1.696143 748 73140640 4663 9 105 7895
-1.0468308 7.5901356 1.6084892 792 73140640 4858 10 61 7829
-1.3205856 7.5234337 1.5290869 802 73140640 4864 11 42 7790
-0.47674513 7.534236 1.4484384 776 73140640 4586 12 110 7687
-0.74768949 7.4531212 1.3600447 779 73140640 4517 13 79 7613
-1.0212854 7.4154358 1.2854257 774 73140640 4465 14 95 7595
-1.2885064 7.3512249 1.2115972 710 73140640 4061 15 58 7561
-0.46672955 7.3779979 1.1391733 789 73140640 4417 16 74 7480
-0.73514628 7.3448668 1.065015 718 73140640 3996 17 80 7458
-0.99101329 7.2245507 0.98179781 762 73140640 4122 18 57 7358
-1.2549245 7.1854415 0.91203189 773 73140640 4179 19 75 7351
-0.4565675 7.2193575 0.8452943 780 73140640 4139 20 95 7283
-0.71463448 7.1512685 0.76983285 775 73140640 4049 21 105 7228
-0.97011435 7.097034 0.69842869 805 73140640 4172 22 68 7197
-1.223444 7.0276237 0.62897795 789 73140640 4046 23 124 7161
-0.44383273 7.0394473 0.56477934 753 73140640 3772 24 74 7076
-0.69893909 7.0127611 0.49688867 786 73140640 3925 25 77 7065
-0.94847035 6.9404993 0.42684928 791 73140640 3896 26 104 7018
-1.1947321 6.8868818 0.35983387 822 73140640 4027 27 99 6999
-0.43152958 6.8979888 0.30043203 865 73140640 4142 28 72 6918
-0.68083078 6.85532 0.2334684 769 73140640 3652 29 40 6893
-0.92497271 6.8164363 0.16967861 836 73140640 3957 30 45 6881
-1.1750637 6.7882791 0.1029329 782 73140640 3714 31 81 6890
-0.4237048 6.7786055 0.047416721 791 73140640 3649 32 103 6792
-0.66383749 6.7092171 -0.017062146 844 73140640 3838 33 95 6742
-0.91011566 6.7131047 -0.080878384 825 73140640 3788 34 92 6775
-1.1403008 6.6128616 -0.14396201 870 73140640 3919 35 105 6712
-0.41136974 6.633327 -0.19736686 805 73140640 3557 36 155 6649
-0.64396429 6.5574179 -0.25772926 814 73140640 3538 37 54 6594
-0.88208258 6.5268655 -0.32062104 910 73140640 3958 38 194 6594
-1.1253506 6.5254827 -0.38517386 652 73140640 2871 39 70 6633
-0.39776364 6.4965162 -0.43196386 968 73140640 4119 40 108 6523
-0.63072085 6.4526644 -0.49124596 907 73140640 3835 41 109 6502
-0.87890667 6.517077 -0.56145626 345 73140640 1502 42 132 6600
-1.0906934 6.345015 -0.61095822 918 73140640 3841 43 78 6467
-0.38943514 6.3970971 -0.66162121 944 73140640 3919 44 109 6443
-0.61846149 6.3535848 -0.71919614 815 73140640 3365 45 68 6424
-0.84470409 6.2883224 -0.77533466 910 73140640 3719 46 93 6392
-1.0732168 6.2524967 -0.83767307 918 73140640 3758 47 144 6399
-0.37578213 6.2592769 -0.88004029 811 73140640 3252 48 91 6332
-0.60452312 6.2386217 -0.94042629 880 73140640 3533 49 55 6338
-0.82591498 6.1729426 -0.99543774 917 73140640 3649 50 61 6307
-1.0495498 6.1248713 -1.0546143 919 73140640 3652 51 82 6303
-0.36774787 6.2179704 -1.1101975 382 73140640 1530 52 84 6327
-0.58999777 6.1209922 -1.155599 551 73140640 2158 53 90 6257
-0.81156802 6.0802436 -1.2132628 700 73140640 2738 54 91 6253
-1.0328921 6.02703 -1.2730137 785 73140640 3064 55 76 6246
-0.36303359 6.1969829 -1.3466692 238 73140640 961 56 95 6352
-0.58917081 6.1461077 -1.3999298 124 73140640 499 57 65 6331
-0.81181377 6.091002 -1.4559819 204 73140640 812 58 39 6315
-1.0178847 5.9425755 -1.4920565 326 73140640 1259 59 71 6211
-0.3464182 6.0342131 -1.5510865 123 73140640 478 60 31 6240
-0.57387131 6.0397711 -1.6179255 194 73140640 764 61 38 6279
-0.79962754 6.0083776 -1.6805063 188 73140640 742 62 55 6290
-1.017454 5.9251451 -1.7342136 91 73140640 355 63 32 6257
-0.46022734 8.1802149 2.557374 651 73238270 4798 0 72 8583
-0.76519215 8.0916843 2.4395344 685 73238270 4935 1 85 8486
-1.0594507 7.9890022 2.3335631 618 73238270 4353 2 61 8390
-1.3536046 7.9088345 2.2413514 776 73238270 5383 3 53 8331
-0.4505882 7.9372516 2.1476138 749 73238270 5080 4 100 8235
-0.73844284 7.8453398 2.0448084 729 73238270 4828 5 56 8141
-1.0284989 7.7785201 1.9545373 763 73238270 4991 6 87 8086
-1.3069582 7.6830554 1.8629816 792 73238270 5088 7 67 8013
-0.44139478 7.7490153 1.7886196 747 73238270 4740 8 105 7965
-0.72551906 7.6764417 1.696143 747 73238270 4657 9 100 7895
-0.99870574 7.5847721 1.6060237 779 73238270 4764 10 58 7817
-1.2743979 7.531395 1.5290869 815 73238270 4943 11 54 7790
-0.43050694 7.5370197 1.4484384 787 73238270 4650 12 126 7687
-0.70415682 7.4810786 1.3643323 769 73238270 4487 13 90 7637
-0.97422427 7.4098363 1.2833947 736 73238270 4232 14 109 7583
-1.2394291 7.3356338 1.2077514 823 73238270 4677 15 62 7537
-0.42145023 7.380723 1.1391733 788 73238270 4412 16 69 7480
-0.68673426 7.3137646 1.0598742 758 73238270 4177 17 96 7422
-0.94820952 7.2422876 0.98339903 751 73238270 4080 18 87 7370
-1.2108119 7.193006 0.91203189 779 73238270 4211 19 80 7351
-0.41226175 7.222023 0.8452943 787 73238270 4175 20 109 7283
-0.67074168 7.155519 0.76983285 770 73238270 4024 21 97 7228
-0.92654949 7.1028528 0.69842869 790 73238270 4094 22 89 7197
-1.1822782 7.0467873 0.63003194 788 73238270 4054 23 136 7173
-0.40198997 7.0659227 0.56669492 791 73238270 3989 24 79 7100
-0.65366828 6.9930811 0.49520072 795 73238270 3942 25 84 7041
-0.9043175 6.9343114 0.42611945 794 73238270 3897 26 119 7006
-1.1524525 6.894083 0.35983387 831 73238270 4070 27 121 6999
-0.39122149 6.9364161 0.30199543 781 73238270 3779 28 64 6954
-0.64097857 6.8832517 0.2342813 774 73238270 3705 29 59 6917
-0.88159031 6.8100863 0.16938271 841 73238270 3966 30 49 6869
-1.1294415 6.7716908 0.10257436 820 73238270 3868 31 68 6866
-0.38210407 6.7810779 0.047416721 840 73238270 3875 32 108 6792
-0.62487453 6.7370615 -0.017122883 863 73238270 3953 33 64 6766
-0.86582971 6.6947627 -0.08059188 778 73238270 3546 34 114 6751
-1.1016697 6.6315689 -0.1442194 894 73238270 4042 35 92 6724
-0.37132964 6.6477022 -0.19772306 829 73238270 3678 36 129 6661
-0.60701257 6.5970664 -0.25913632 886 73238270 3897 37 64 6630
-0.84355026 6.5440426 -0.32120451 901 73238270 3930 38 169 6606
-1.0872533 6.5440826 -0.3858707 496 73238270 2191 39 95 6645
-0.35855266 6.5107903 -0.43275854 963 73238270 4113 40 100 6535
-0.59002519 6.4444971 -0.49033934 899 73238270 3787 41 104 6490
-0.82212406 6.3919005 -0.55022717 687 73238270 2873 42 136 6468
-1.0517405 6.3515878 -0.61095822 938 73238270 3924 43 86 6467
-0.35017595 6.3993664 -0.66162121 935 73238270 3882 44 116 6443
-0.58054745 6.3691354 -0.72053963 787 73238270 3262 45 64 6436
-0.80610377 6.2933869 -0.77533466 937 73238270 3829 46 110 6392
-1.0328914 6.2472262 -0.83610219 912 73238270 3720 47 129 6387
-0.33800822 6.2733312 -0.88170809 789 73238270 3176 48 106 6344
-0.56408811 6.218576 -0.93686515 823 73238270 3283 49 65 6314
-0.78952235 6.1896486 -0.99733174 908 73238270 3627 50 62 6319
-1.0119485 6.131196 -1.0546143 917 73238270 3645 51 74 6303
-0.33146355 6.2555017 -1.1165146 370 73238270 1499 52 88 6363
-0.55454791 6.1479888 -1.1600316 533 73238270 2104 53 75 6281
-0.77424502 6.0851088 -1.2132628 643 73238270 2515 54 89 6253
-0.99589145 6.0332541 -1.2730137 796 73238270 3107 55 70 6246
-0.32316083 6.1639605 -1.3390371 233 73238270 930 56 99 6316
-0.54831219 6.1146383 -1.3919692 150 73238270 592 57 57 6295
-0.77883959 6.130619 -1.4642819 158 73238270 639 58 63 6351
-0.98898715 5.9946823 -1.5035874 274 73238270 1075 59 71 6259
-0.31117138 6.0710497 -1.5600352 109 73238270 428 60 29 6276
-0.53474933 6.0200796 -1.6117414 197 73238270 769 61 43 6255
-0.75983542 5.9902267 -1.6740942 191 73238270 749 62 36 6266
-0.9867236 5.9654021 -1.7441914 109 73238270 430 63 34 6293
-0.40945256 8.1714449 2.5537984 671 73335650 4931 0 82 8571
-0.71350449 8.0733299 2.4326351 755 73335650 5408 1 87 8462
-1.0118563 8.0067883 2.3369007 670 73335650 4733 2 67 8402
-1.3012917 7.8941836 2.2348945 789 73335650 5442 3 46 8307
-0.40187764 7.939867 2.1476138 734 73335650 4979 4 84 8235
-0.69029087 7.8497229 2.0448084 723 73335650 4794 5 66 8141
-0.98220688 7.7962375 1.957438 745 73335650 4886 6 105 8098
-1.2579046 7.6794124 1.8601916 803 73335650 5143 7 66 8001
-0.39383939 7.7515779 1.7886196 679 73335650 4308 8 100 7965
-0.67943484 7.6924229 1.6987211 704 73335650 4403 9 90 7907
-0.9521476 7.5907574 1.6060237 780 73335650 4769 10 66 7817
-1.2243782 7.5158458 1.524376 810 73335650 4883 11 40 7766
-0.38485241 7.5512891 1.4506996 804 73335650 4766 12 110 7699
-0.65720618 7.4734969 1.3621886 785 73335650 4567 13 78 7625
-0.93167949 7.4391451 1.2874566 774 73335650 4480 14 89 7607
-1.1962969 7.3547921 1.2096744 783 73335650 4459 15 49 7549
-0.37675849 7.3950148 1.1410009 794 73335650 4455 16 54 7492
-0.63976938 7.2941775 1.0564469 780 73335650 4270 17 89 7398
-0.90375382 7.2479696 0.98339903 759 73335650 4125 18 59 7370
-1.1647491 7.1885462 0.91054308 782 73335650 4213 19 98 7339
-0.36854672 7.23632 0.84668708 783 73335650 4168 20 97 7295
-0.6268236 7.1594996 0.76983285 786 73335650 4107 21 94 7228
-0.88442189 7.1202564 0.69959319 721 73335650 3749 22 81 7209
-1.1333011 7.018507 0.62686998 809 73335650 4121 23 131 7137
-0.35862672 7.0682564 0.56669492 778 73335650 3924 24 79 7100
-0.61178815 7.0088849 0.4960447 804 73335650 4001 25 78 7053
-0.86322832 6.9516158 0.42684928 801 73335650 3944 26 136 7018
-1.1082261 6.8891926 0.3592169 806 73335650 3935 27 102 6987
-0.34684813 6.9027648 0.30043203 882 73335650 4223 28 72 6918
-0.59769291 6.8751068 0.23387486 791 73335650 3769 29 49 6905
-0.83978784 6.8153672 0.16938271 830 73335650 3915 30 42 6869
-1.0859686 6.7666464 0.10239508 879 73335650 4131 31 78 6854
-0.34109053 6.7952795 0.047500499 831 73335650 3848 32 92 6804
-0.58249003 6.7288136 -0.017092515 856 73335650 3906 33 99 6754
-0.827667 6.7237678 -0.080878384 795 73335650 3650 34 96 6775
-1.0590649 6.6263571 -0.14396201 896 73335650 4037 35 99 6712
-0.33053312 6.6498556 -0.19772306 892 73335650 3957 36 122 6661
-0.56549692 6.5887203 -0.25866732 859 73335650 3764 37 75 6618
-0.80338085 6.5490952 -0.32120451 890 73335650 3885 38 186 6606
-1.0432973 6.5269713 -0.38447702 792 73335650 3474 39 60 6621
-0.31859645 6.5128679 -0.43275854 929 73335650 3967 40 113 6535
-0.55148923 6.4599185 -0.49124596 896 73335650 3788 41 96 6502
-0.76981622 6.2900128 -0.54103965 1100 73335650 4449 42 122 6360
-1.0127481 6.3579216 -0.61095822 942 73335650 3941 43 72 6467
-0.31148264 6.4133167 -0.66285348 934 73335650 3892 44 114 6455
-0.54044664 6.3606958 -0.71919614 861 73335650 3555 45 65 6424
-0.7674731 6.2982144 -0.77533466 915 73335650 3739 46 108 6392
-0.99453968 6.2534466 -0.83610219 933 73335650 3806 47 112 6387
-0.29894289 6.2634168 -0.88004029 759 73335650 3044 48 88 6332
-0.52592099 6.22192 -0.93686515 828 73335650 3299 49 57 6314
-0.75010133 6.1826129 -0.99543774 892 73335650 3546 50 53 6307
-0.9761641 6.1489744 -1.0566221 936 73335650 3734 51 74 6315
-0.29196885 6.2338157 -1.1123033 320 73335650 1287 52 87 6339
-0.51878887 6.1747804 -1.1644641 453 73335650 1802 53 77 6305
-0.73406464 6.0663714 -1.208606 614 73335650 2383 54 83 6229
-0.95701116 6.0276484 -1.2705679 775 73335650 3010 55 52 6234
-0.2858755 6.1775417 -1.341581 270 73335650 1082 56 101 6328
-0.51273054 6.1412125 -1.3972762 149 73335650 593 57 54 6319
-0.73980767 6.1236901 -1.4615152 139 73335650 560 58 61 6339
-0.95766252 6.0351515 -1.5122355 256 73335650 1013 59 55 6295
-0.27443799 6.084456 -1.563018 101 73335650 398 60 27 6288
-0.50066584 6.0579138 -1.6210177 155 73335650 612 61 49 6291
-0.72306579 5.9947762 -1.6740942 158 73335650 619 62 41 6266
-0.94285506 5.9257979 -1.7308877 142 73335650 553 63 33 6245
-0.35930583 8.1738033 2.5537984 680 73434190 4996 0 96 8571
-0.66395408 8.0775557 2.4326351 731 73434190 5236 1 97 8462
-0.96545857 8.0357342 2.343576 675 73434190 4796 2 58 8426
-1.2528294 7.90202 2.2348945 757 73434190 5221 3 50 8307
-0.35263738 7.9306097 2.1444843 734 73434190 4965 4 81 8223
-0.64211285 7.8538108 2.0448084 727 73434190 4815 5 50 8141
-0.93158245 7.7789941 1.9516367 721 73434190 4702 6 84 8074
-1.2125769 7.6985149 1.8629816 810 73434190 5203 7 70 8013
-0.34626919 7.7538486 1.7886196 728 73434190 4620 8 88 7965
-0.6303032 7.6730862 1.6935649 725 73434190 4506 9 100 7883
-0.90416354 7.5847955 1.6035583 809 73434190 4927 10 42 7805
-1.1764182 7.5115919 1.5220206 817 73434190 4910 11 45 7754
-0.33851135 7.5535083 1.4506996 731 73434190 4333 12 127 7699
-0.61229944 7.4891562 1.3643323 769 73434190 4488 13 79 7637
-0.88322085 7.4212337 1.2833947 753 73434190 4330 14 95 7583
-1.154806 7.3853998 1.2135202 690 73434190 3959 15 61 7573
-0.33084565 7.3853393 1.1391733 789 73434190 4417 16 67 7480
-0.5969314 7.321641 1.0598742 808 73434190 4452 17 93 7422
-0.85926414 7.2533784 0.98339903 797 73434190 4331 18 76 7370
-1.1224514 7.2073231 0.91203189 789 73434190 4265 19 88 7351
-0.32360536 7.2265382 0.8452943 781 73434190 4145 20 80 7283
-0.58191431 7.151319 0.76855481 764 73434190 3979 21 96 7216
-0.83931679 7.1136885 0.69842869 770 73434190 3990 22 86 7197
-1.0957142 7.0607653 0.63003194 714 73434190 3673 23 132 7173
-0.31524995 7.0703239 0.56669492 778 73434190 3924 24 73 7100
-0.56780326 7.000576 0.49520072 804 73434190 3988 25 67 7041
-0.81915474 6.9448867 0.42611945 813 73434190 3990 26 124 7006
-1.0641031 6.8840194 0.35859996 808 73434190 3931 27 96 6975
-0.30395886 6.892786 0.2999109 862 73434190 4114 28 65 6906
-0.55646223 6.8905993 0.2342813 795 73434190 3801 29 56 6917
-0.79795372 6.8203921 0.16938271 837 73434190 3952 30 58 6869
-1.0444288 6.7731824 0.10239508 895 73434190 4206 31 79 6854
-0.29886106 6.7852564 0.047416721 844 73434190 3895 32 73 6792
-0.54119182 6.7322612 -0.017092515 760 73434190 3469 33 68 6754
-0.78360945 6.7048841 -0.08059188 800 73434190 3647 34 93 6751
-1.0183864 6.6327305 -0.14396201 897 73434190 4042 35 91 6712
-0.28920218 6.6397748 -0.19736686 890 73434190 3934 36 140 6649
-0.52315456 6.5681601 -0.25772926 862 73434190 3750 37 66 6594
-0.76040858 6.5300903 -0.32003757 907 73434190 3931 38 189 6582
-0.99595582 6.4858861 -0.3816897 902 73434190 3899 39 77 6573
-0.27811661 6.502737 -0.43196386 937 73434190 3987 40 104 6523
-0.51089686 6.451252 -0.49033934 880 73434190 3707 41 109 6490
-0.73120695 6.2946177 -0.54103965 1116 73434190 4512 42 158 6360
-0.97371763 6.3640161 -0.61095822 956 73434190 3999 43 92 6467
-0.27111363 6.3912554 -0.66038895 909 73434190 3760 44 122 6431
-0.50140798 6.3638926 -0.71919614 805 73434190 3324 45 72 6424
-0.72881353 6.3028054 -0.77533466 922 73434190 3768 46 116 6392
-0.95615053 6.2594314 -0.83610219 935 73434190 3814 47 124 6387
-0.26099935 6.2770066 -0.88170809 698 73434190 2810 48 76 6344
-0.48866108 6.2368608 -0.93864572 831 73434190 3327 49 65 6326
-0.71079642 6.1753273 -0.99354374 922 73434190 3655 50 64 6295
-0.93484986 6.1314569 -1.0526065 962 73434190 3809 51 69 6291
-0.25563455 6.2827058 -1.1207258 279 73434190 1139 52 82 6387
-0.47906086 6.1543312 -1.1600316 402 73434190 1587 53 76 6281
-0.70219797 6.1175423 -1.2179195 497 73434190 1959 54 89 6277
-0.92000824 6.0334072 -1.2705679 685 73434190 2664 55 71 6234
-0.24843568 6.1908975 -1.3441252 288 73434190 1158 56 108 6340
-0.47503909 6.1442428 -1.3972762 177 73434190 705 57 50 6319
-0.70089012 6.1165133 -1.4587485 146 73434190 583 58 50 6327
-0.92061347 6.0409141 -1.5122355 214 73434190 850 59 69 6295
-0.23981418 6.1557126 -1.5809151 73 73434190 294 60 36 6360
-0.46260166 6.0493107 -1.6179255 130 73434190 511 61 46 6279
-0.68232614 5.9646339 -1.664476 174 73434190 674 62 46 6230
-0.90473551 5.920074 -1.7275616 108 73434190 418 63 52 6233
-0.31087685 8.2216415 2.5681005 405 73531460 3011 0 72 8619
-0.61524981 8.0929375 2.4360847 755 73531460 5424 1 79 8474
-0.91352457 8.0186024 2.3369007 678 73531460 4783 2 56 8402
-1.20432 7.9095583 2.2348945 776 73531460 5352 3 48 8307
-0.3048566 7.9557767 2.1507432 779 73531460 5298 4 116 8247
-0.59391069 7.8576026 2.0448084 767 73531460 5080 5 47 8141
-0.88514751 7.7961335 1.9545373 740 73531460 4840 6 91 8086
-1.1653168 7.7058105 1.8629816 806 73531460 5177 7 84 8013
-0.29823598 7.7441425 1.785925 727 73531460 4600 8 89 7953
-0.58321017 7.6768093 1.6935649 718 73531460 4463 9 105 7883
-0.85760713 7.5902004 1.6035583 785 73531460 4785 10 66 7805
-1.1373029 7.5652122 1.5314424 777 73531460 4727 11 40 7802
-0.29352361 7.5907717 1.4574829 698 73531460 4175 12 140 7735
-0.56989479 7.539866 1.3729074 694 73531460 4101 13 84 7685
-0.83766836 7.4265132 1.2833947 768 73531460 4417 14 84 7583
-1.1059521 7.3689189 1.2096744 757 73531460 4311 15 57 7549
-0.28552383 7.3872299 1.1391733 789 73531460 4417 16 72 7480
-0.55021048 7.3014789 1.0564469 792 73531460 4337 17 80 7398
-0.81474203 7.2585139 0.98339903 802 73531460 4358 18 71 7370
-1.078207 7.2140746 0.91203189 780 73531460 4217 19 71 7351
-0.27971822 7.2402978 0.84668708 788 73531460 4196 20 74 7295
-0.5398131 7.1785507 0.77111095 790 73531460 4142 21 89 7240
-0.79299891 7.0949655 0.69609964 749 73531460 3856 22 81 7173
-1.050609 7.055532 0.62897795 797 73531460 4087 23 126 7161
-0.2727803 7.0960312 0.56861055 707 73531460 3590 24 71 7124
-0.52662683 7.027802 0.49688867 797 73531460 3980 25 72 7065
-0.77652627 6.9497824 0.42611945 797 73531460 3911 26 134 7006
-1.0236017 6.9022737 0.3592169 792 73531460 3867 27 96 6987
-0.26256916 6.9184818 0.30095315 769 73531460 3695 28 74 6930
-0.51417178 6.8938837 0.2342813 784 73531460 3753 29 61 6917
-0.75608957 6.8251595 0.16938271 824 73531460 3886 30 45 6869
-1.001094 6.7675943 0.10221581 900 73531460 4215 31 67 6842
-0.25722188 6.786962 0.047416721 820 73531460 3784 32 83 6792
-0.49987325 6.735455 -0.017092515 834 73531460 3805 33 98 6754
-0.74377406 6.7214923 -0.080735132 773 73531460 3537 34 96 6763
-0.97592163 6.6269851 -0.14370464 865 73531460 3884 35 84 6700
-0.24845587 6.6414247 -0.19736686 872 73531460 3854 36 131 6649
-0.48372194 6.5832052 -0.25819829 869 73531460 3794 37 68 6606
-0.72163963 6.5465469 -0.32062104 906 73531460 3941 38 179 6594
-0.95614046 6.4918752 -0.3816897 905 73531460 3911 39 88 6573
-0.23908779 6.5282526 -0.43355322 960 73531460 4115 40 115 6547
-0.47217458 6.4661994 -0.49124596 872 73531460 3687 41 88 6502
-0.70694423 6.4297194 -0.5522688 602 73531460 2536 42 150 6492
-0.93465042 6.3698707 -0.61095822 916 73531460 3832 43 84 6467
-0.23232523 6.4047275 -0.66162121 917 73531460 3807 44 119 6443
-0.46235043 6.3668489 -0.71919614 865 73531460 3571 45 66 6424
-0.68883091 6.2953176 -0.77387905 924 73531460 3762 46 108 6380
-0.9160012 6.2534094 -0.83453137 893 73531460 3628 47 140 6375
-0.22332112 6.3022423 -0.88504368 687 73531460 2787 48 93 6368
-0.45038325 6.2397418 -0.93864572 763 73531460 3055 49 77 6326
-0.67417467 6.1913524 -0.99543774 861 73531460 3423 50 45 6307
-0.89721036 6.1370773 -1.0526065 922 73531460 3651 51 67 6291
-0.21789548 6.3077698 -1.1249371 205 73531460 844 52 77 6411
-0.44381887 6.1924453 -1.1666803 342 73531460 1365 53 95 6317
-0.66718942 6.1451421 -1.2225761 478 73531460 1899 54 79 6301
-0.87957132 6.0156898 -1.2656765 668 73531460 2578 55 68 6210
-0.21004604 6.1805844 -1.341581 291 73531460 1165 56 108 6328
-0.43899083 6.1703892 -1.4025832 227 73531460 915 57 78 6343
-0.6608305 6.0974817 -1.4532151 163 73531460 646 58 50 6303
-0.88689834 6.0695014 -1.5180011 166 73531460 664 59 69 6319
-0.20089531 6.1222172 -1.5719665 98 73531460 391 60 28 6324
-0.42710137 6.0751681 -1.6241097 127 73531460 503 61 46 6303
-0.64944619 6.0031981 -1.6740942 147 73531460 575 62 51 6266
-0.86337799 5.8912902 -1.7175838 117 73531460 448 63 38 6197
-0.26078653 8.2348433 2.571676 109 73628690 815 0 70 8631
-0.56478 8.0850954 2.4326351 802 73628690 5745 1 82 8462
-0.86307174 8.0125961 2.3335631 681 73628690 4797 2 58 8390
-1.1557652 7.9167991 2.2348945 784 73628690 5413 3 67 8307
-0.25603515 7.9574976 2.1507432 727 73628690 4946 4 80 8247
-0.54568619 7.8610992 2.0448084 762 73628690 5047 5 55 8141
-0.83605206 7.7898402 1.9516367 767 73628690 5001 6 100 8074
-1.118013 7.7128158 1.8629816 818 73628690 5255 7 62 8013
-0.25146976 7.7692013 1.7913144 739 73628690 4704 8 90 7977
-0.53772736 7.7036262 1.6987211 740 73628690 4628 9 102 7907
-0.81351221 7.6186752 1.6084892 762 73628690 4674 10 59 7829
-1.0858287 7.5371089 1.524376 812 73628690 4895 11 42 7766
-0.24579269 7.5570936 1.4506996 769 73628690 4558 12 132 7699
-0.52116746 7.5078845 1.3664761 770 73628690 4507 13 87 7649
-0.7920844 7.4315133 1.2833947 739 73628690 4250 14 84 7583
-1.0590304 7.3638415 1.2077514 805 73628690 4570 15 50 7537
-0.24019128 7.3888431 1.1391733 786 73628690 4400 16 76 7480
-0.50703865 7.3284154 1.0598742 753 73628690 4149 17 107 7422
-0.76893526 7.2515502 0.98179781 762 73628690 4126 18 89 7358
-1.0305463 7.1969805 0.90905422 779 73628690 4184 19 69 7327
-0.23528731 7.2418776 0.84668708 743 73628690 3955 20 97 7295
-0.49657786 7.1936316 0.77238899 791 73628690 4161 21 94 7252
-0.75195765 7.1234522 0.69842869 799 73628690 4140 22 84 7197
-1.0056094 7.0500116 0.62792391 783 73628690 4002 23 115 7149
-0.22846247 7.0736599 0.56669492 785 73628690 3960 24 63 7100
-0.48267388 7.0189586 0.4960447 809 73628690 4025 25 84 7053
-0.7338686 6.9544158 0.42611945 817 73628690 4010 26 105 7006
-0.9812308 6.9084244 0.3592169 829 73628690 4047 27 112 6987
-0.2208755 6.9439278 0.30199543 790 73628690 3822 28 83 6954
-0.47104344 6.8849435 0.23387486 780 73628690 3717 29 49 6905
-0.71419692 6.8296704 0.16938271 827 73628690 3901 30 39 6869
-0.9595499 6.7736096 0.10221581 910 73628690 4261 31 83 6842
-0.21519214 6.7764192 0.047332946 809 73628690 3720 32 88 6780
-0.45853588 6.7383952 -0.017092515 845 73628690 3856 33 83 6754
-0.70251775 6.7259293 -0.080735132 711 73628690 3253 34 105 6763
-0.93691587 6.6447282 -0.14396201 899 73628690 4051 35 67 6712
-0.20844989 6.6668019 -0.19807927 895 73628690 3984 36 143 6673
-0.44251373 6.5740852 -0.25772926 884 73628690 3846 37 65 6594
-0.68145716 6.5508518 -0.32062104 856 73628690 3720 38 160 6594
-0.9179619 6.5094824 -0.38238654 933 73628690 4047 39 85 6585
-0.19866189 6.5176287 -0.43275854 937 73628690 4001 40 117 6535
-0.43089342 6.445097 -0.48943269 880 73628690 3694 41 85 6478
-0.66377753 6.3982587 -0.54920632 710 73628690 2958 42 152 6456
-0.89887148 6.3991461 -0.61322558 697 73628690 2938 43 71 6491
-0.19302219 6.4060326 -0.66162121 867 73628690 3599 44 118 6443
-0.4232755 6.3695664 -0.71919614 885 73628690 3654 45 77 6424
-0.65141356 6.3112741 -0.77533466 914 73628690 3735 46 116 6392
-0.87761378 6.2589121 -0.83453137 917 73628690 3726 47 122 6375
-0.18395118 6.2797365 -0.88170809 659 73628690 2653 48 93 6344
-0.41287014 6.2542295 -0.94042629 742 73628690 2979 49 49 6338
-0.63496214 6.1835847 -0.99354374 866 73628690 3433 50 61 6295
-0.85953707 6.142467 -1.0526065 927 73628690 3671 51 63 6291
-0.17885222 6.2971792 -1.1228315 202 73628690 829 52 64 6399
-0.40889797 6.242125 -1.1755455 293 73628690 1189 53 73 6365
-0.62707341 6.1256986 -1.2179195 425 73628690 1676 54 84 6277
-0.84589976 6.0442429 -1.2705679 607 73628690 2361 55 66 6234
-0.17211874 6.181757 -1.341581 302 73628690 1209 56 110 6328
-0.39884517 6.1379313 -1.3946227 252 73628690 1000 57 55 6307
-0.62340462 6.1014218 -1.4532151 165 73628690 654 58 50 6303
-0.85125339 6.0863657 -1.5208838 174 73628690 699 59 73 6331
-0.16301639 6.1117153 -1.5689837 163 73628690 648 60 39 6312
-0.38684815 6.0313897 -1.6117414 89 73628690 347 61 31 6255
-0.61494547 6.0300784 -1.6805063 122 73628690 481 62 57 6290
-0.83842623 5.9764028 -1.7408655 138 73628690 543 63 37 6281
-0.20879196 8.1790323 2.5537984 161 73726830 1180 0 47 8571
-0.51442963 8.0769386 2.4291854 767 73726830 5478 1 98 8450
-0.81505519 8.0292082 2.3369007 662 73726830 4670 2 54 8402
-1.1071668 7.9237413 2.2348945 774 73726830 5339 3 45 8307
-0.20780703 7.9820809 2.1570022 697 73726830 4770 4 77 8271
-0.49964079 7.899075 2.0538507 753 73726830 5031 5 57 8177
-0.78706723 7.7832384 1.948736 737 73726830 4791 6 95 8062
-1.0690635 7.7079697 1.8601916 808 73726830 5174 7 85 8001
-0.20379411 7.7705979 1.7913144 747 73726830 4753 8 119 7977
-0.48970434 7.6950841 1.696143 724 73726830 4514 9 94 7895
-0.76557434 7.6118379 1.6060237 783 73726830 4782 10 53 7817
-1.037955 7.5319734 1.5220206 795 73726830 4777 11 42 7754
-0.1994186 7.5584593 1.4506996 798 73726830 4730 12 116 7699
-0.47285414 7.4755912 1.3600447 784 73726830 4546 13 82 7613
-0.74765182 7.4480014 1.2854257 758 73726830 4373 14 92 7595
-1.0122126 7.3584671 1.2058285 795 73726830 4504 15 60 7525
-0.19453707 7.3783216 1.1373458 781 73726830 4359 16 58 7468
-0.46131572 7.3195348 1.0581605 753 73726830 4136 17 91 7410
-0.726789 7.2797995 0.98500019 727 73726830 3963 18 86 7382
-0.98636711 7.2031679 0.90905422 775 73726830 4162 19 77 7327
-0.19147542 7.2670145 0.84947258 687 73726830 3682 20 81 7319
-0.45168057 7.1846347 0.77111095 795 73726830 4168 21 88 7240
-0.70587307 7.1041622 0.69609964 786 73726830 4046 22 76 7173
-0.96071708 7.0442057 0.62686998 794 73726830 4043 23 147 7137
-0.18505502 7.0749288 0.56669492 783 73726830 3949 24 73 7100
-0.43884933 7.009841 0.49520072 795 73726830 3942 25 87 7041
-0.69118327 6.9587879 0.42611945 786 73726830 3858 26 113 7006
-0.93559819 6.8905644 0.35798299 821 73726830 3979 27 128 6963
-0.17795658 6.9331675 0.3014743 858 73726830 4137 28 82 6942
-0.42878935 6.8877044 0.23387486 682 73726830 3249 29 52 6905
-0.67345184 6.8458629 0.16967861 805 73726830 3809 30 57 6881
-0.91474974 6.7555895 0.10185726 897 73726830 4171 31 85 6818
-0.1742233 6.8016038 0.047500499 832 73726830 3852 32 102 6804
-0.41718122 6.7410822 -0.017092515 820 73726830 3742 33 83 6754
-0.66006172 6.7181716 -0.08059188 809 73726830 3688 34 105 6751
-0.89452481 6.6384621 -0.14370464 905 73726830 4062 35 108 6700
-0.16753922 6.6679554 -0.19807927 889 73726830 3958 36 139 6673
-0.40436319 6.6125822 -0.25913632 889 73726830 3906 37 57 6630
-0.64124906 6.5549097 -0.32062104 888 73726830 3862 38 197 6594
-0.87960315 6.5268641 -0.38308334 917 73726830 3993 39 66 6597
-0.15837538 6.5067549 -0.43196386 927 73726830 3945 40 91 6523
-0.3927888 6.4715071 -0.49124596 908 73726830 3839 41 105 6502
-0.62218446 6.3784108 -0.54716462 512 73726830 2116 42 157 6432
-0.87707067 6.5347824 -0.625696 106 73726830 466 43 89 6623
-0.15428445 6.4309626 -0.66408575 849 73726830 3551 44 110 6467
-0.38346693 6.3601403 -0.71785271 880 73726830 3620 45 71 6412
-0.61267602 6.3151526 -0.77533466 942 73726830 3850 46 109 6392
-0.83919328 6.2641792 -0.83453137 947 73726830 3848 47 131 6375
-0.14569104 6.2926278 -0.88337588 606 73726830 2449 48 94 6356
-0.3737781 6.2447987 -0.93864572 691 73726830 2767 49 67 6326
-0.59700841 6.1873646 -0.99354374 844 73726830 3346 50 58 6295
-0.8202638 6.1358991 -1.0505986 915 73726830 3609 51 76 6279
-0.14047302 6.3099689 -1.1249371 148 73726830 610 52 82 6411
-0.36919197 6.2209706 -1.1711129 264 73726830 1063 53 86 6341
-0.58947504 6.1294312 -1.2179195 393 73726830 1550 54 74 6277
-0.81035393 6.0609636 -1.2730137 574 73726830 2241 55 63 6246
-0.13393049 6.1709728 -1.3390371 309 73726830 1232 56 120 6316
-0.36117601 6.1402631 -1.3946227 257 73726830 1024 57 65 6307
-0.58930194 6.1400018 -1.4615152 184 73726830 737 58 52 6339
-0.80926406 6.0568361 -1.5122355 152 73726830 604 59 65 6295
-0.12527391 6.1009793 -1.5660008 264 73726830 1047 60 35 6300
-0.35318869 6.091527 -1.6272018 90 73726830 358 61 27 6315
-0.57352364 5.9876933 -1.6676821 125 73726830 485 62 57 6242
-0.79714477 5.9471521 -1.7308877 140 73726830 545 63 30 6245
-0.1592686 8.2145176 2.5645251 149 73824110 1107 0 68 8607
-0.46618104 8.102891 2.4360847 722 73824110 5187 1 78 8474
-0.76467985 8.022584 2.3335631 669 73824110 4712 2 70 8390
-1.0585268 7.9303856 2.2348945 757 73824110 5221 3 51 8307
-0.15859556 7.9716229 2.1538727 746 73824110 5090 4 84 8259
-0.44983941 7.8787999 2.0478227 732 73824110 4862 5 48 8153
-0.74039578 7.7995133 1.9516367 728 73824110 4748 6 78 8074
-1.0232806 7.7259545 1.8629816 789 73824110 5067 7 89 8013
-0.15611078 7.7717023 1.7913144 743 73824110 4728 8 110 7977
-0.44382405 7.7213449 1.701299 663 73824110 4158 9 115 7919
-0.72216511 7.6514683 1.61342 682 73824110 4209 10 70 7853
-0.9917202 7.5382004 1.5220206 810 73824110 4867 11 46 7754
-0.15327555 7.5713234 1.4529607 776 73824110 4614 12 112 7711
-0.42764887 7.4901395 1.3621886 755 73824110 4393 13 66 7625
-0.69971961 7.4288998 1.2813638 751 73824110 4305 14 103 7571
-0.96858501 7.3762832 1.2077514 791 73824110 4495 15 74 7537
-0.1499804 7.4149489 1.1428283 770 73824110 4339 16 65 7504
-0.41639522 7.3222275 1.0581605 782 73824110 4295 17 87 7410
-0.67988968 7.2604403 0.98179781 745 73824110 4035 18 84 7358
-0.94215071 7.209085 0.90905422 769 73824110 4130 19 91 7327
