# .PCD v0.7 - Point Cloud Data file format
VERSION 0.7
FIELDS x y z intensity t reflectivity ring noise range
SIZE 4 4 4 4 4 2 1 2 4
TYPE F F F F U U U U U
COUNT 1 1 1 1 1 1 1 1 1
WIDTH 788
HEIGHT 1
VIEWPOINT 0 0 0 1 0 0 0
POINTS 788
DATA ascii
5.1988583 6.1588964 -1.2092891 852 85704830 5662 49 60 8150
4.7988143 6.1240196 -1.2435474 848 85704830 5267 50 68 7879
4.4431419 6.1200776 -1.2835072 859 85704830 5057 51 80 7671
5.6093178 6.1605763 -1.4850012 887 85704830 6356 52 65 8463
5.2020612 6.1563663 -1.5146344 839 85704830 5645 53 81 8201
4.8382874 6.1703992 -1.550873 745 85704830 4762 54 72 7993
4.4344029 6.1082644 -1.5713954 860 85704830 5114 55 72 7710
5.6196733 6.165029 -1.8096927 897 85704830 6537 56 98 8536
5.2043405 6.1525264 -1.8271394 856 85704830 5841 57 51 8263
4.8159285 6.1394567 -1.8488548 799 85704830 5141 58 58 8019
4.4321575 6.1040511 -1.8668122 851 85704830 5142 59 60 7771
5.6528373 6.1868639 -2.1506412 797 85704830 5964 60 46 8652
5.2113152 6.1503148 -2.1497617 794 85704830 5524 61 49 8343
4.8199043 6.1420965 -2.1646204 712 85704830 4671 62 55 8102
4.4374881 6.1167798 -2.1798928 722 85704830 4463 63 51 7865
5.7732472 6.3041482 2.6682146 440 85802470 3531 0 79 8955
5.3165479 6.2688365 2.4671323 503 85802470 3708 1 73 8582
4.9211197 6.2650948 2.3068619 433 85802470 2976 2 48 8294
4.5318904 6.2396727 2.1541831 512 85802470 3280 3 44 8007
5.7103214 6.2417755 2.2853112 713 85802470 5471 4 53 8763
5.2798409 6.2200503 2.1171467 697 85802470 4948 5 50 8429
4.8778324 6.2050796 1.9661399 709 85802470 4693 6 73 8134
4.4900956 6.1689849 1.8239224 750 85802470 4619 7 61 7845
5.7114367 6.2454019 1.9503028 573 85802470 4324 8 85 8685
5.2908149 6.2378321 1.7992649 670 85802470 4701 9 94 8375
4.8691783 6.1871772 1.6528668 699 85802470 4522 10 42 8045
4.5073752 6.1813807 1.5314424 763 85802470 4642 11 39 7802
5.7061133 6.2415495 1.6225449 746 85802470 5532 12 108 8611
5.2752705 6.2146664 1.4800961 674 85802470 4630 13 66 8285
4.8864479 6.2066693 1.3565091 673 85802470 4325 14 71 8015
4.5034313 6.1728029 1.240441 715 85802470 4287 15 62 7741
5.7165155 6.2527084 1.3054804 644 85802470 4730 16 38 8572
5.2701907 6.2058272 1.1746868 699 85802470 4732 17 77 8226
4.8820457 6.1941791 1.0618575 711 85802470 4505 18 70 7958
4.4922962 6.1496472 0.95223027 755 85802470 4449 19 77 7675
5.685358 6.2184105 0.98457116 728 85802470 5242 20 72 8483
5.2864418 6.2229819 0.87463582 661 85802470 4460 21 70 8212
4.887898 6.1955972 0.76946521 706 85802470 4441 22 70 7929
4.4860687 6.1341519 0.67008418 618 85802470 3598 23 109 7629
5.7049603 6.2374454 0.67684126 675 85802470 4857 24 71 8480
5.2696204 6.1998901 0.57369018 739 85802470 4920 25 62 8157
4.8212104 6.1106291 0.47429052 590 85802470 3588 26 107 7798
4.4976268 6.142303 0.39191502 737 85802470 4283 27 91 7623
5.7033339 6.2295518 0.36713681 776 85802470 5549 28 84 8454
5.2093158 6.1246066 0.27248707 753 85802470 4872 29 27 8045
4.8834267 6.1775036 0.19423898 734 85802470 4551 30 55 7877
4.5047426 6.1472931 0.11386859 789 85802470 4586 31 64 7622
5.6481309 6.1686068 0.058391262 520 85802470 3640 32 84 8364
5.2644453 6.1848273 -0.020554548 735 85802470 4852 33 65 8122
4.8940015 6.1893263 -0.094200931 727 85802470 4530 34 73 7891
4.5022631 6.1355948 -0.16326563 799 85802470 4631 35 80 7612
5.6818852 6.1993861 -0.24972889 789 85802470 5585 36 98 8413
5.2623749 6.1732211 -0.3172954 829 85802470 5467 37 63 8118
4.868217 6.1514187 -0.38188621 799 85802470 4927 38 151 7854
4.4914589 6.1210952 -0.44161725 831 85802470 4809 39 60 7605
5.6727228 6.1796384 -0.5567255 863 85802470 6100 40 97 8407
5.2644973 6.1700377 -0.61454856 856 85802470 5665 41 87 8134
4.8617387 6.139709 -0.66864341 850 85802470 5250 42 121 7860
4.4975543 6.1224542 -0.72092503 838 85802470 4883 43 61 7631
5.6922903 6.1966109 -0.86864102 812 85802470 5811 44 103 8459
5.2527361 6.1512504 -0.9113102 835 85802470 5536 45 64 8140
4.8663306 6.1389008 -0.95728111 848 85802470 5283 46 105 7892
4.4968123 6.1183105 -1.0026158 855 85802470 5015 47 118 7659
5.6701579 6.1621475 -1.1752402 869 85802470 6210 48 56 8456
5.2596812 6.1539445 -1.2146307 836 85802470 5605 49 64 8186
4.8657637 6.131588 -1.2511234 804 85802470 5055 50 64 7927
4.4946284 6.1117616 -1.2875228 881 85802470 5219 51 64 7695
5.7030625 6.1868463 -1.4997406 893 85802470 6526 52 74 8547
5.2627392 6.1512156 -1.5212833 827 85802470 5613 53 73 8237
4.8760571 6.1405959 -1.550873 845 85802470 5402 54 58 7993
4.499639 6.1187987 -1.5811784 834 85802470 5022 55 63 7758
5.6971617 6.1735229 -1.8224132 889 85802470 6569 56 116 8596
5.280057 6.1649194 -1.8404067 778 85802470 5392 57 63 8323
4.8680348 6.1280775 -1.8543882 854 85802470 5521 58 50 8043
4.4902329 6.1048918 -1.8754604 854 85802470 5202 59 53 7807
5.7222638 6.1861935 -2.1625726 789 85802470 5970 60 42 8700
5.2867036 6.1622238 -2.1652222 830 85802470 5858 61 42 8403
4.8862791 6.1486197 -2.1774447 752 85802470 4998 62 66 8150
4.4954195 6.11731 -2.1898708 712 85802470 4442 63 49 7901
5.8585482 6.319006 2.6896675 450 85899800 3670 0 66 9027
5.3923507 6.279695 2.484381 521 85899800 3893 1 85 8642
4.9881706 6.2708635 2.3202124 422 85899800 2934 2 46 8342
4.6043367 6.2582955 2.1703255 543 85899800 3531 3 44 8067
5.803616 6.2661152 2.3072176 692 85899800 5418 4 88 8847
5.3860445 6.2668171 2.1442735 670 85899800 4880 5 42 8537
4.9448233 6.211472 1.9777422 699 85899800 4682 6 73 8182
4.5694194 6.1976824 1.840662 676 85899800 4234 7 54 7917
5.8052597 6.2703037 1.9691658 658 85899800 5063 8 70 8769
5.3518968 6.2319241 1.8069991 659 85899800 4663 9 100 8411
4.9436474 6.203105 1.6651942 623 85899800 4091 10 42 8105
4.5661907 6.1820011 1.5385088 743 85899800 4562 11 36 7838
5.7923341 6.2583146 1.6361117 703 85899800 5302 12 97 8683
5.3517823 6.2269516 1.4908148 670 85899800 4669 13 76 8345
4.9391851 6.195065 1.360571 683 85899800 4416 14 63 8039
4.5623412 6.1736326 1.2462097 746 85899800 4509 15 51 7777
5.7628303 6.2262187 1.307308 674 85899800 4964 16 39 8584
5.3546305 6.2274065 1.1849684 702 85899800 4836 17 74 8298
4.9422174 6.1919923 1.066661 724 85899800 4623 18 56 7994
4.5653582 6.169826 0.95967442 710 85899800 4250 19 74 7735
5.7881765 6.2533846 0.99571329 717 85899800 5280 20 67 8579
5.347867 6.2175651 0.87847 705 85899800 4799 21 59 8248
4.9556408 6.2028131 0.77412331 713 85899800 4540 22 67 7977
4.5165076 6.0969052 0.66903019 651 85899800 3778 23 109 7617
5.7675061 6.2286539 0.67971468 701 85899800 5081 24 50 8516
5.3387952 6.2037315 0.577066 715 85899800 4815 25 85 8205
4.9333806 6.1745086 0.48158914 475 85899800 2980 26 78 7918
4.5709271 6.1627183 0.39499977 748 85899800 4416 27 85 7683
5.7658997 6.2208176 0.36870021 788 85899800 5684 28 64 8490
5.3720169 6.2379303 0.27899018 327 85899800 2216 29 48 8237
4.958725 6.1942487 0.19571851 689 85899800 4338 30 39 7937
4.5638318 6.1484408 0.11440641 789 85899800 4625 31 52 7658
5.7837663 6.2394385 0.059396565 351 85899800 2542 32 99 8508
5.3257971 6.1796784 -0.020645652 755 85899800 5027 33 79 8158
4.9543867 6.1872802 -0.094630696 750 85899800 4716 34 73 7927
4.561296 6.1367402 -0.16403776 797 85899800 4664 35 68 7648
5.7524514 6.1995769 -0.25115371 818 85899800 5856 36 104 8461
5.3314929 6.177125 -0.31917152 779 85899800 5198 37 63 8166
4.9283562 6.1494904 -0.38363665 816 85899800 5077 38 154 7890
4.5575175 6.1318803 -0.44440457 855 85899800 5011 39 64 7653
5.7431383 6.1797986 -0.55990416 866 85899800 6193 40 83 8455
5.3335462 6.1738377 -0.61817509 833 85899800 5578 41 87 8182
4.9217591 6.1377459 -0.67170584 838 85899800 5223 42 132 7896
4.5421672 6.1043262 -0.72205865 878 85899800 5132 43 62 7643
5.7627201 6.1965299 -0.87356997 822 85899800 5951 44 83 8507
5.3293762 6.1640072 -0.91802752 837 85899800 5631 45 65 8200
4.9486461 6.164659 -0.96601456 778 85899800 4936 46 93 7964
4.562686 6.1287742 -1.0088993 871 85899800 5173 47 113 7707
5.7645617 6.1881065 -1.1869147 895 85899800 6530 48 75 8540
5.3361692 6.1664238 -1.2235334 869 85899800 5906 49 41 8246
4.9404082 6.1478004 -1.2605932 849 85899800 5413 50 49 7987
4.5532475 6.1125317 -1.2935464 868 85899800 5185 51 57 7731
5.7489772 6.1603737 -1.5018462 891 85899800 6529 52 83 8559
5.3389916 6.1633782 -1.5323645 898 85899800 6184 53 78 8297
4.9357738 6.138083 -1.5578581 841 85899800 5418 54 57 8029
4.5581522 6.1193385 -1.5885156 835 85899800 5070 55 44 7794
5.7749643 6.1812954 -1.8351336 858 85899800 6429 56 103 8656
5.3331189 6.1500888 -1.8457136 851 85899800 5926 57 51 8347
4.9421396 6.1435838 -1.8682219 798 85899800 5237 58 37 8103
4.5484858 6.1052494 -1.8841087 816 85899800 5022 59 67 7843
5.8077836 6.20187 -2.1804698 745 85899800 5730 60 42 8772
5.3548288 6.1646829 -2.1775901 822 85899800 5868 61 42 8451
4.9384141 6.1365399 -2.1838567 750 85899800 5014 62 62 8174
4.5672922 6.1358557 -2.2065005 699 85899800 4427 63 56 7961
5.9207292 6.3079967 2.7003939 485 85997210 3981 0 43 9063
5.4534039 6.2725115 2.4947302 556 85997210 4189 1 97 8678
5.0337849 6.2491155 2.32355 479 85997210 3341 2 37 8354
4.6426501 6.2299261 2.1703255 584 85997210 3798 3 43 8067
5.8657274 6.2557392 2.3166063 689 85997210 5439 4 77 8883
5.4396453 6.2511754 2.1503017 741 85997210 5428 5 41 8561
5.0047669 6.2082105 1.9864441 702 85997210 4744 6 70 8218
4.6073613 6.169528 1.840662 767 85997210 4810 7 67 7917
5.8676147 6.2601604 1.97725 668 85997210 5182 8 69 8805
5.4361749 6.2520332 1.8224676 692 85997210 4982 9 88 8483
5.0111189 6.2092109 1.6750559 716 85997210 4757 10 42 8153
4.6181345 6.1727104 1.5432197 721 85997210 4454 11 36 7862
5.8547997 6.248455 1.6428952 710 85997210 5399 12 92 8719
5.4131413 6.2207174 1.4972461 700 85997210 4920 13 66 8381
5.0142512 6.2106519 1.3707258 696 85997210 4566 14 87 8099
4.6214304 6.1739697 1.2519784 748 85997210 4563 15 42 7813
5.8495812 6.2426672 1.3182732 715 85997210 5354 16 56 8656
5.4083376 6.2123499 1.1883956 660 85997210 4572 17 99 8322
5.0025449 6.1892986 1.0714647 749 85997210 4826 18 54 8030
4.6316948 6.1798105 0.96562976 658 85997210 3988 19 85 7783
5.8508873 6.2438426 0.99989164 677 85997210 5028 20 69 8615
5.4329329 6.2386227 0.88613856 688 85997210 4759 21 51 8320
5.0236559 6.2094297 0.77878147 694 85997210 4473 22 63 8025
4.6327486 6.174253 0.68062425 749 85997210 4499 23 100 7749
5.8301578 6.2193279 0.68258798 694 85997210 5073 24 49 8552
5.4082146 6.2069569 0.58044189 741 85997210 5050 25 69 8253
5.0163779 6.1999912 0.48596835 597 85997210 3811 26 106 7990
4.6230512 6.1537185 0.39623365 717 85997210 4259 27 98 7707
5.8285713 6.2115488 0.37026358 763 85997210 5550 28 65 8526
5.4338365 6.2319694 0.28020951 407 85997210 2782 29 57 8273
5.0041933 6.1730247 0.19601442 722 85997210 4560 30 46 7949
4.6231031 6.1490932 0.11494423 786 85997210 4656 31 68 7694
5.8629994 6.2475834 0.059815444 355 85997210 2608 32 79 8568
5.4030628 6.1920924 -0.020797497 775 85997210 5237 33 65 8218
5.0300446 6.2033648 -0.095346965 712 85997210 4544 34 89 7987
4.6565909 6.1853147 -0.16609682 680 85997210 4080 35 67 7744
5.8314447 6.2078767 -0.25293475 818 85997210 5940 36 108 8521
5.3850751 6.162354 -0.32010958 829 85997210 5558 37 56 8190
4.9962072 6.1563616 -0.38597053 819 85997210 5158 38 168 7938
4.6310816 6.1516542 -0.44788873 823 85997210 4899 39 65 7713
5.8301768 6.1967669 -0.56467211 849 85997210 6174 40 90 8527
5.3870831 6.159009 -0.61998838 843 85997210 5678 41 83 8206
4.9894748 6.144558 -0.67578918 831 85997210 5243 42 132 7944
4.6082983 6.1145024 -0.72659343 856 85997210 5065 43 74 7691
5.8415446 6.2045083 -0.8797313 847 85997210 6219 44 89 8567
5.3985143 6.1670804 -0.9234013 827 85997210 5629 45 62 8248
5.0089183 6.1619067 -0.97038126 807 85997210 5167 46 90 8000
4.6216936 6.1291595 -1.0136119 856 85997210 5131 47 124 7743
5.8431892 6.1958466 -1.1952537 857 85997210 6341 48 76 8600
5.3895459 6.1514177 -1.2270945 838 85997210 5729 49 40 8270
4.9855165 6.1265616 -1.2624872 870 85997210 5564 50 43 7999
4.6262956 6.1316996 -1.3035855 903 85997210 5479 51 43 7791
5.8353472 6.1765075 -1.5144801 872 85997210 6498 52 83 8631
5.4155912 6.1748362 -1.5434459 833 85997210 5820 53 77 8357
5.0030761 6.144196 -1.5671716 861 85997210 5620 54 60 8077
4.6239166 6.1287689 -1.5982987 857 85997210 5268 55 49 7842
5.8530755 6.1883445 -1.8478541 873 85997210 6633 56 96 8716
5.4093614 6.161222 -1.8589811 844 85997210 5962 57 57 8407
5.0018663 6.1403027 -1.8765218 839 85997210 5554 58 53 8139
4.6209435 6.1237168 -1.8985223 787 85997210 4912 59 56 7903
5.861722 6.1829877 -2.1864355 813 85997210 6288 60 38 8796
5.4078684 6.1491237 -2.1837745 839 85997210 6024 61 29 8475
5.0124993 6.1509438 -2.1998868 770 85997210 5224 62 59 8234
4.6187377 6.1261287 -2.2131526 725 85997210 4620 63 52 7985
6.0066657 6.321372 2.7218468 500 86093620 4175 0 77 9135
5.5145712 6.2648139 2.5050795 616 86093620 4682 1 58 8714
5.1157484 6.2717028 2.343576 514 86093620 3647 2 41 8426
4.7156034 6.2474461 2.1864679 584 86093620 3855 3 45 8127
5.9598308 6.2784443 2.3385124 671 86093620 5398 4 68 8967
5.4932556 6.2351112 2.1563296 721 86093620 5311 5 39 8585
5.0722198 6.2134662 1.9980468 722 86093620 4936 6 68 8266
4.6732931 6.1783748 1.8518217 752 86093620 4773 7 66 7965
5.9381118 6.2579699 1.9880289 648 86093620 5082 8 70 8853
5.4899216 6.2361526 1.8276235 669 86093620 4844 9 81 8507
5.0714178 6.2056265 1.6824521 720 86093620 4832 10 58 8189
4.6772418 6.1723924 1.5502861 735 86093620 4582 11 48 7898
5.9416924 6.2637138 1.6564618 727 86093620 5620 12 94 8791
5.4980392 6.2405405 1.5101087 669 86093620 4784 13 62 8453
5.0747218 6.2072372 1.3768187 688 86093620 4555 14 77 8135
4.6735382 6.1643748 1.2558243 722 86093620 4431 15 51 7837
5.9285874 6.24968 1.3274111 701 86093620 5323 16 42 8716
5.4777679 6.2146883 1.1952502 687 86093620 4816 17 67 8370
5.0705571 6.1952996 1.0778693 700 86093620 4564 18 56 8078
4.6911249 6.1797271 0.97009623 704 86093620 4307 19 65 7819
5.9219003 6.2424126 1.0054626 668 86093620 5016 20 74 8663
5.479001 6.214119 0.88741666 717 86093620 4980 21 77 8332
5.0767994 6.1969662 0.78111058 694 86093620 4494 22 48 8049
4.6850114 6.1647449 0.68273222 729 86093620 4406 23 101 7773
5.9258485 6.244173 0.68929261 703 86093620 5246 24 67 8636
5.4778738 6.2095628 0.58381784 770 86093620 5308 25 71 8301
5.0770984 6.1968904 0.48815793 708 86093620 4562 26 83 8026
4.6897502 6.1633849 0.39870146 746 86093620 4487 27 89 7755
5.8996029 6.2104368 0.3723481 802 86093620 5900 28 63 8574
5.4878464 6.2164922 0.2810224 707 86093620 4865 29 28 8297
5.0876446 6.1978378 0.19778986 745 86093620 4791 30 42 8021
4.6898232 6.1587949 0.11566133 798 86093620 4785 31 87 7742
5.9094887 6.2201905 0.059899218 730 86093620 5377 32 70 8580
5.48068 6.2037897 -0.020949341 713 86093620 4883 33 51 8278
5.0908566 6.2002053 -0.095776722 713 86093620 4592 34 81 8023
4.6944556 6.1566257 -0.16609682 780 86093620 4679 35 75 7744
5.9024887 6.2067456 -0.25435954 831 86093620 6101 36 122 8569
5.4784036 6.192059 -0.32339275 811 86093620 5550 37 45 8274
5.0719371 6.1718903 -0.38888794 809 86093620 5172 38 159 7998
4.6832681 6.1421757 -0.44928241 817 86093620 4894 39 65 7737
5.9011226 6.1955576 -0.56785077 859 86093620 6318 40 82 8575
5.4644375 6.170629 -0.62452155 870 86093620 5946 41 79 8266
5.065052 6.1600046 -0.68089336 872 86093620 5586 42 107 8004
4.681972 6.1335907 -0.73226184 863 86093620 5182 43 57 7751
5.904212 6.1944699 -0.8834281 836 86093620 6190 44 86 8603
5.4757996 6.1784606 -0.93011862 867 86093620 5988 45 60 8308
5.0617728 6.1494503 -0.97329241 889 86093620 5726 46 84 8024
4.6880975 6.138505 -1.0198954 847 86093620 5142 47 103 7791
5.905715 6.1856623 -1.2002571 860 86093620 6417 48 69 8636
5.4665637 6.1626205 -1.2359972 840 86093620 5825 49 52 8330
5.0606918 6.1415801 -1.2719569 903 86093620 5862 50 53 8059
4.6781988 6.1219988 -1.3076012 879 86093620 5371 51 66 7815
5.9057984 6.174736 -1.5229027 905 86093620 6819 52 85 8679
5.4690385 6.1591282 -1.5478785 841 86093620 5910 53 73 8381
5.0706372 6.1497121 -1.5764848 837 86093620 5528 54 71 8125
4.6828337 6.1282859 -1.6056359 847 86093620 5254 55 47 7878
5.939599 6.2031364 -1.8631185 809 86093620 6247 56 117 8788
5.4859385 6.171649 -1.8722483 709 86093620 5079 57 55 8467
5.069169 6.1455274 -1.8875887 828 86093620 5546 58 56 8187
4.6655045 6.1045032 -1.9014051 854 86093620 5352 59 75 7915
5.9478407 6.1972198 -2.2043326 769 86093620 6045 60 44 8868
5.4840493 6.1591239 -2.1992347 817 86093620 5949 61 37 8535
5.0722265 6.1468296 -2.2095051 775 86093620 5297 62 50 8270
4.6702347 6.1160011 -2.2198045 728 86093620 4667 63 48 8009
6.0850468 6.3256741 2.7397244 503 86192790 4249 0 56 9195
5.5987883 6.2823415 2.5257778 625 86192790 4828 1 65 8786
5.1981759 6.2935171 2.3636017 501 86192790 3614 2 56 8498
4.7608671 6.2275753 2.1896961 643 86192790 4257 3 40 8139
6.0383782 6.2835226 2.3541601 684 86192790 5577 4 64 9027
5.5700693 6.2446284 2.1714001 703 86192790 5250 5 55 8645
5.1621799 6.2450509 2.0183511 692 86192790 4827 6 82 8350
4.746604 6.1959085 1.8657715 772 86192790 4975 7 61 8025
6.025003 6.2720141 2.0041971 705 86192790 5618 8 80 8925
5.5592747 6.2373462 1.8379358 662 86192790 4847 9 81 8555
5.1543226 6.2286797 1.6972448 753 86192790 5137 10 36 8261
4.7508464 6.190249 1.5620633 717 86192790 4538 11 55 7958
6.0045033 6.2526393 1.6632452 737 86192790 5745 12 87 8827
5.5598049 6.2331214 1.5165401 655 86192790 4717 13 56 8489
5.1579642 6.2306447 1.3890045 716 86192790 4823 14 91 8207
4.7401295 6.173162 1.2635159 702 86192790 4362 15 47 7885
5.9996834 6.2474022 1.3347213 684 86192790 5251 16 44 8764
5.555337 6.2252679 1.2038182 677 86192790 4814 17 72 8430
5.1236525 6.1823845 1.0810717 701 86192790 4598 18 53 8102
4.7434702 6.1697063 0.9730739 747 86192790 4598 19 59 7843
6.0096273 6.2575383 1.0138193 689 86192790 5260 20 69 8735
5.5567555 6.2248893 0.89380699 713 86192790 5024 21 74 8392
5.152854 6.2116594 0.78693318 722 86192790 4751 22 59 8109
4.7446227 6.1643 0.68589425 724 86192790 4417 23 92 7809
5.9971991 6.242198 0.69312376 700 86192790 5282 24 67 8684
5.5557404 6.2204728 0.58803767 739 86192790 5169 25 71 8361
5.1379695 6.1932769 0.49034753 722 86192790 4693 26 101 8062
4.8152628 6.2484021 0.4061048 217 86192790 1356 27 67 7899
5.9957695 6.2346082 0.37599602 767 86192790 5753 28 65 8658
5.5578556 6.2184711 0.28264818 719 86192790 5005 29 34 8345
5.1485829 6.1941805 0.19867758 707 86192790 4588 30 29 8057
4.756835 6.1679077 0.11637842 786 86192790 4767 31 57 7790
6.0057712 6.2443542 0.060485642 731 86192790 5489 32 86 8664
5.5346417 6.187932 -0.021010077 780 86192790 5379 33 72 8302
5.1518173 6.1965318 -0.096206479 756 86192790 4913 34 67 8059
4.7614751 6.1656866 -0.16712634 769 86192790 4666 35 55 7792
5.9654188 6.1963353 -0.25542817 770 86192790 5702 36 113 8605
5.5322948 6.1761909 -0.32433081 812 86192790 5595 37 65 8298
5.1480441 6.1867199 -0.39180535 760 86192790 4934 38 131 8058
4.7355113 6.1322875 -0.45067605 860 86192790 5183 39 59 7761
5.9888935 6.210948 -0.57261866 854 86192790 6387 40 90 8647
5.5261598 6.1637111 -0.62724143 856 86192790 5901 41 91 8302
5.1333547 6.1655641 -0.68497664 824 86192790 5342 42 111 8052
4.7414389 6.133101 -0.73566282 881 86192790 5339 43 52 7787
5.9918394 6.2096639 -0.89082164 851 86192790 6406 44 103 8675
5.537498 6.1713719 -0.93414897 856 86192790 5963 45 59 8344
5.1299152 6.1548758 -0.97911477 889 86192790 5795 46 74 8072
4.7475104 6.1378546 -1.0246081 870 86192790 5330 47 108 7827
5.9931107 6.2005768 -1.2102638 841 86192790 6378 48 100 8708
5.5597796 6.1907673 -1.2484611 740 86192790 5235 49 56 8414
5.1286464 6.1468072 -1.2795329 882 86192790 5800 50 60 8107
4.7518792 6.1399593 -1.3176404 891 86192790 5523 51 53 7875
5.9846635 6.1808186 -1.5334308 845 86192790 6456 52 80 8739
5.5540347 6.1780772 -1.5611759 871 86192790 6226 53 73 8453
5.138454 6.1546297 -1.5857983 879 86192790 5873 54 81 8173
4.756299 6.1458917 -1.6178646 806 86192790 5082 55 63 7938
6.0020361 6.1918364 -1.8707508 848 86192790 6602 56 122 8824
5.5628471 6.1813669 -1.8855158 820 86192790 5965 57 61 8527
5.136723 6.150156 -1.8986557 822 86192790 5571 58 52 8235
4.7456536 6.1310306 -1.9187015 837 86192790 5342 59 75 7987
6.0343533 6.2106271 -2.2222297 785 86192790 6271 60 49 8940
5.5450273 6.1511946 -2.2085109 817 86192790 5999 61 51 8571
5.1469197 6.1599603 -2.2255352 746 86192790 5173 62 53 8330
4.735888 6.1237116 -2.2331083 723 86192790 4690 63 49 8057
6.1637044 6.3292499 2.7576017 453 86292200 3884 0 61 9255
5.6526294 6.2649369 2.5326772 652 86292200 5064 1 65 8810
5.2440891 6.2703452 2.3669393 522 86292200 3777 2 47 8510
4.8414431 6.253078 2.2090669 634 86292200 4278 3 62 8211
6.1172109 6.2878714 2.3698077 701 86292200 5792 4 67 9087
5.6549892 6.2620559 2.1894846 717 86292200 5445 5 47 8717
5.2078757 6.222188 2.0212517 727 86292200 5086 6 77 8362
4.8059955 6.1943312 1.8741413 783 86292200 5085 7 42 8061
6.112289 6.2852263 2.0203655 677 86292200 5482 8 84 8997
5.6445508 6.2553244 1.8534042 664 86292200 4944 9 90 8627
5.2150717 6.2239408 1.7046409 723 86292200 4975 10 49 8297
4.8176241 6.198143 1.5714853 747 86292200 4786 11 39 8006
6.0838299 6.2579284 1.6745508 687 86292200 5426 12 109 8887
5.6295991 6.2339406 1.5251153 682 86292200 4975 13 58 8537
5.2188902 6.2260695 1.3950973 657 86292200 4466 14 82 8243
4.8288183 6.2094131 1.2769763 729 86292200 4632 15 60 7969
6.0957747 6.2699962 1.347514 664 86292200 5195 16 57 8848
5.6332407 6.2351284 1.2123864 676 86292200 4876 17 72 8490
5.1997147 6.1963806 1.0890777 654 86292200 4359 18 67 8162
4.8031836 6.1686697 0.97754037 706 86292200 4385 19 81 7879
6.0894518 6.2632742 1.0207831 704 86292200 5449 20 72 8795
5.6268473 6.2260857 0.8989194 693 86292200 4938 21 84 8440
5.2215981 6.216507 0.79159135 646 86292200 4301 22 69 8157
4.8264508 6.1916375 0.6922183 753 86292200 4678 23 96 7881
6.0770879 6.2481565 0.69791275 738 86292200 5646 24 63 8744
5.6178894 6.212903 0.59056956 731 86292200 5156 25 77 8397
5.1989865 6.1891484 0.49253714 714 86292200 4682 26 108 8098
4.8166447 6.1715016 0.40302005 292 86292200 1797 27 63 7839
6.0590005 6.2234721 0.37755942 789 86292200 5967 28 74 8694
5.6361413 6.2287164 0.2846804 635 86292200 4483 29 48 8405
5.2405663 6.2267213 0.20074897 74 86292200 488 30 42 8141
4.8167481 6.1669726 0.11691624 792 86292200 4853 31 83 7826
6.0774574 6.241776 0.060820747 723 86292200 5490 32 81 8712
5.6208348 6.2072258 -0.02119229 537 86292200 3769 33 59 8374
5.2129245 6.1923428 -0.096636236 747 86292200 4898 34 65 8095
4.8213902 6.1647058 -0.16789849 819 86292200 5016 35 49 7828
6.0703011 6.228334 -0.2582778 763 86292200 5775 36 130 8701
5.6184182 6.1954231 -0.32714498 846 86292200 5930 37 65 8370
5.1936312 6.1641817 -0.39238882 853 86292200 5553 38 141 8070
4.8025694 6.140862 -0.45346341 846 86292200 5157 39 36 7809
6.0687103 6.2169251 -0.57659203 846 86292200 6416 40 77 8707
5.6121292 6.182848 -0.63268131 754 86292200 5290 41 74 8374
5.2019157 6.1705165 -0.68905997 882 86292200 5786 42 120 8100
4.8010755 6.1321115 -0.73906386 872 86292200 5334 43 52 7823
6.0631928 6.2069368 -0.8957507 829 86292200 6309 44 101 8723
5.6153512 6.1814098 -0.94086617 833 86292200 5886 45 68 8404
5.1906309 6.1505928 -0.98348153 884 86292200 5813 46 96 8108
4.8070908 6.1367049 -1.0293207 873 86292200 5398 47 97 7863
6.0642881 6.1976628 -1.216935 876 86292200 6719 48 75 8756
5.6295943 6.1916585 -1.2555834 816 86292200 5846 49 63 8462
5.2045016 6.1604815 -1.2890028 853 86292200 5692 50 72 8167
4.80406 6.1293097 -1.321656 895 86292200 5587 51 70 7899
6.088634 6.2114739 -1.5502759 826 86292200 6450 52 78 8835
5.6235914 6.1787701 -1.5700412 886 86292200 6405 53 87 8501
5.206521 6.1589456 -1.5951117 840 86292200 5679 54 80 8221
4.815661 6.1443315 -1.6252019 838 86292200 5331 55 64 7974
6.0727711 6.1883731 -1.8809272 852 86292200 6707 56 105 8872
5.6243162 6.1730704 -1.8934762 818 86292200 6001 57 72 8563
5.1969833 6.1452699 -1.9069558 802 86292200 5483 58 46 8271
4.8047428 6.1292992 -1.9273498 849 86292200 5468 59 65 8023
6.113101 6.2149162 -2.237144 783 86292200 6339 60 49 9000
5.6373792 6.1770058 -2.2301555 784 86292200 5870 61 46 8655
5.2144952 6.1635766 -2.2383595 779 86292200 5465 62 50 8378
4.8018107 6.1308465 -2.2464123 725 86292200 4760 63 47 8105
6.2104664 6.2994685 2.7611773 555 86388560 4770 0 58 9267
5.7529769 6.2980227 2.5602751 622 86388560 4935 1 92 8906
5.3048115 6.2644391 2.3769522 508 86388560 3707 2 42 8546
4.8868513 6.2323484 2.2122955 647 86388560 4373 3 42 8223
6.2044506 6.2997413 2.3885844 581 86388560 4875 4 91 9159
5.7324939 6.270103 2.204555 704 86388560 5420 5 46 8777
5.283597 6.2345319 2.0357547 706 86388560 5009 6 89 8422
4.8799667 6.2106104 1.888091 777 86388560 5127 7 74 8121
6.1917577 6.289268 2.033839 651 86388560 5344 8 66 9057
5.7065401 6.2465301 1.8611382 580 86388560 4355 9 84 8663
5.2683582 6.2097349 1.7095718 684 86388560 4733 10 57 8321
4.884676 6.2054496 1.5809072 741 86388560 4804 11 42 8054
6.1799798 6.2792773 1.6903788 728 86388560 5861 12 90 8971
5.7075777 6.2428503 1.535834 718 86388560 5310 13 67 8597
5.2876067 6.2299981 1.4032211 675 86388560 4642 14 78 8291
4.874156 6.1889729 1.2788993 725 86388560 4619 15 81 7981
6.1674094 6.2662864 1.3548243 640 86388560 5069 16 64 8896
5.7194891 6.2530293 1.2226681 708 86388560 5193 17 69 8562
5.2915406 6.2277999 1.100286 675 86388560 4593 18 60 8246
4.885181 6.1951823 0.98647332 728 86388560 4604 19 85 7951
6.1612115 6.2597704 1.0263542 658 86388560 5148 20 80 8843
5.6971622 6.226655 0.90403175 705 86388560 5081 21 80 8488
5.2828565 6.2116446 0.79508495 693 86388560 4655 22 59 8193
4.8865709 6.1900535 0.69538033 731 86388560 4583 23 100 7917
6.1656661 6.2618909 0.70365947 714 86388560 5546 24 55 8816
5.6882362 6.2136326 0.5939455 741 86388560 5287 25 73 8445
5.2911859 6.2209988 0.49764618 723 86388560 4841 26 93 8182
4.8841467 6.1794391 0.40548787 260 86388560 1619 27 85 7887
6.1391511 6.2288704 0.3801651 776 86388560 5951 28 59 8754
5.6985574 6.2205458 0.28589973 722 86388560 5141 29 48 8441
5.2631121 6.176187 0.20015714 390 86388560 2573 30 59 8117
4.891715 6.1843543 0.1178126 734 86388560 4567 31 72 7886
6.1661839 6.2556434 0.061323393 686 86388560 5296 32 67 8784
5.6912518 6.2080016 -0.021313764 195 86388560 1387 33 59 8422
5.289741 6.2059002 -0.097352512 748 86388560 4977 34 84 8155
4.874023 6.1538153 -0.16841325 821 86388560 5064 35 69 7852
6.1421013 6.2251234 -0.25970262 805 86388560 6163 36 101 8749
5.6887641 6.1961632 -0.32902104 798 86388560 5659 37 60 8418
5.2624717 6.1686716 -0.3947227 808 86388560 5322 38 153 8118
4.8773479 6.1582341 -0.45694754 836 86388560 5179 39 82 7869
6.1488237 6.2221541 -0.58056527 833 86388560 6405 40 81 8767
5.6904426 6.1923485 -0.63721442 805 86388560 5727 41 99 8434
5.2629671 6.1657643 -0.69212246 853 86388560 5645 42 128 8136
4.8682995 6.1399808 -0.74359858 903 86388560 5591 43 55 7871
6.1599159 6.2290282 -0.90437651 814 86388560 6317 44 72 8807
5.7016068 6.1995006 -0.94892699 808 86388560 5802 45 54 8476
5.2592239 6.15485 -0.98930371 878 86388560 5843 46 86 8156
4.874229 6.1443748 -1.0356042 881 86388560 5514 47 97 7911
6.1440167 6.2025495 -1.225274 827 86388560 6430 48 78 8816
5.6915903 6.1831927 -1.2609249 871 86388560 6287 49 39 8498
5.2807159 6.1734543 -1.2984725 859 86388560 5817 50 65 8227
4.878355 6.14605 -1.3316952 868 86388560 5496 51 51 7959
6.1515965 6.1991549 -1.5565928 856 86388560 6738 52 87 8871
5.6933641 6.1788406 -1.5789063 867 86388560 6338 53 85 8549
5.2748322 6.1626558 -1.604425 868 86388560 5938 54 70 8269
4.8751822 6.1422729 -1.6325392 850 86388560 5456 55 63 8010
6.1519527 6.1925926 -1.8936476 860 86388560 6862 56 104 8932
5.6938257 6.1728525 -1.90409 847 86388560 6284 57 65 8611
5.2649703 6.1487432 -1.9180225 835 86388560 5776 58 44 8319
4.8712311 6.1361952 -1.9388806 848 86388560 5527 59 59 8071
6.1921277 6.2184725 -2.2520583 776 86388560 6367 60 40 9060
5.6987796 6.1678472 -2.2394316 791 86388560 5972 61 42 8691
5.2672615 6.1490297 -2.2447717 796 86388560 5616 62 53 8402
4.8679986 6.1374011 -2.259716 719 86388560 4782 63 63 8153
6.3056459 6.3179979 2.786206 583 86488390 5093 0 57 9351
5.8149228 6.2879195 2.5706244 539 86488390 4313 1 81 8942
5.388165 6.2842741 2.3969779 563 86488390 4179 2 34 8618
4.9465618 6.2293997 2.2219808 659 86488390 4493 3 40 8259
6.2675271 6.2861648 2.3979731 659 86488390 5574 4 86 9195
5.7945285 6.2603841 2.2135975 709 86488390 5503 5 47 8813
5.3596654 6.2461796 2.0502579 714 86488390 5139 6 80 8482
4.9397836 6.2079492 1.8964608 753 86488390 5012 7 75 8157
6.2715049 6.2925701 2.0473127 632 86488390 5256 8 77 9117
5.7925072 6.2630219 1.8766066 653 86488390 4985 9 85 8735
5.3369713 6.2129264 1.7194335 721 86488390 5048 10 38 8369
4.9519978 6.2121639 1.5903289 708 86488390 4645 11 42 8102
6.2599821 6.2829819 1.7016842 597 86488390 4871 12 84 9031
5.7778568 6.2423716 1.5444092 687 86488390 5139 13 59 8645
5.3565664 6.2333164 1.411345 655 86488390 4556 14 82 8339
4.9415817 6.1959906 1.2865909 734 86488390 4729 15 47 8029
6.2392263 6.2619314 1.3621345 682 86488390 5453 16 42 8944
5.7819586 6.2439613 1.227809 703 86488390 5201 17 59 8598
5.368434 6.2402925 1.1082921 607 86488390 4189 18 83 8306
4.9676833 6.2209187 0.99540639 650 86488390 4187 19 60 8023
6.2499809 6.2725062 1.0347108 632 86488390 5026 20 72 8915
5.7758017 6.2353473 0.91042215 713 86488390 5212 21 84 8548
5.3598371 6.2243638 0.80090761 639 86488390 4349 22 56 8253
4.9543166 6.1973009 0.69959635 729 86488390 4625 23 125 7965
6.237751 6.2578287 0.70749068 701 86488390 5511 24 72 8864
5.7913494 6.2488499 0.60069722 605 86488390 4416 25 72 8541
5.329258 6.1884155 0.49764618 743 86488390 4975 26 89 8182
4.9219708 6.1493545 0.40548787 633 86488390 3939 27 71 7887
6.2280617 6.2420044 0.38329187 696 86488390 5418 28 56 8826
5.7692399 6.2206368 0.2875255 693 86488390 4991 29 44 8489
5.3792768 6.2346053 0.20311622 374 86488390 2541 30 58 8237
4.9520736 6.1823177 0.11835043 779 86488390 4892 31 63 7922
6.2298803 6.2431731 0.06157472 711 86488390 5534 32 76 8820
5.7210736 6.1641688 -0.021283397 420 86488390 2973 33 79 8410
5.3512387 6.2005777 -0.097782262 760 86488390 5101 34 84 8191
4.9567289 6.1799459 -0.16995753 806 86488390 5063 35 64 7924
6.2479949 6.2552099 -0.26255223 684 86488390 5352 36 107 8845
5.7593298 6.1962724 -0.33089715 820 86488390 5875 37 46 8466
5.3472319 6.1906896 -0.39822361 815 86488390 5470 38 173 8190
4.9375277 6.1562271 -0.45903802 848 86488390 5302 39 72 7905
6.2292285 6.2266335 -0.58453858 882 86488390 6874 40 81 8827
5.7527819 6.1835985 -0.63993436 840 86488390 6028 41 91 8470
5.3241544 6.1604939 -0.69518489 884 86488390 5902 42 138 8172
4.9357996 6.1472549 -0.7481333 877 86488390 5502 43 71 7919
6.2486916 6.2417293 -0.91177011 700 86488390 5520 44 105 8879
5.763916 6.1905808 -0.95295727 844 86488390 6119 45 58 8512
5.3358574 6.1675048 -0.99658161 870 86488390 5874 46 98 8216
4.9416413 6.1514506 -1.0418879 871 86488390 5517 47 120 7959
6.2408624 6.2234721 -1.2369486 779 86488390 6171 48 111 8900
5.761785 6.1828809 -1.2680472 871 86488390 6358 49 54 8546
5.3262539 6.1498938 -1.3003665 877 86488390 5956 50 64 8239
4.9307981 6.1344438 -1.3357109 876 86488390 5585 51 75 7983
6.2397547 6.2113004 -1.5692267 734 86488390 5873 52 84 8943
5.7633481 6.1782856 -1.5877712 862 86488390 6373 53 76 8597
5.3356752 6.1568623 -1.61141 842 86488390 5811 54 62 8305
4.9348588 6.1397147 -1.6398765 839 86488390 5428 55 54 8046
6.256362 6.2208791 -1.9140004 866 86488390 7058 56 114 9028
5.7795191 6.1891208 -1.920011 823 86488390 6208 57 72 8683
5.3331947 6.1516132 -1.9290894 835 86488390 5842 58 57 8367
4.930686 6.1334267 -1.9475288 828 86488390 5445 59 58 8107
6.2631745 6.2131047 -2.2639899 782 86488390 6483 60 57 9108
5.7919626 6.1920385 -2.2610762 796 86488390 6127 61 37 8775
5.3579283 6.1777458 -2.2672141 787 86488390 5664 62 57 8486
4.9344463 6.1433725 -2.2730198 617 86488390 4153 63 63 8201
6.3931427 6.3275361 2.8076589 535 86584330 4753 0 76 9423
5.8769612 6.2772923 2.5809736 671 86584330 5413 1 60 8978
5.4492922 6.2772074 2.406991 583 86584330 4369 2 64 8654
5.0209041 6.2439642 2.2381229 632 86584330 4372 3 43 8319
6.3553581 6.2965097 2.41675 689 86584330 5921 4 64 9267
5.8725429 6.2670898 2.2286677 628 86584330 4941 5 46 8873
5.4208007 6.2395463 2.0589597 674 86584330 4893 6 80 8518
5.0070734 6.2138734 1.9076204 780 86584330 5254 7 71 8205
6.3681345 6.3115911 2.0661757 650 86584330 5505 8 82 9201
5.886899 6.2872472 1.8946528 562 86584330 4374 9 69 8819
5.4366484 6.2509532 1.739157 733 86584330 5256 10 63 8465
5.0121942 6.2091298 1.5973953 727 86584330 4812 11 47 8138
6.3402615 6.2859402 1.7129899 646 86584330 5341 12 91 9091
5.8564167 6.2498803 1.5551281 722 86584330 5468 13 57 8705
5.4257646 6.236021 1.4194686 598 86584330 4207 14 101 8387
5.0092759 6.2024131 1.2942827 741 86584330 4836 15 65 8077
6.3364887 6.2819805 1.3749274 691 86584330 5629 16 44 9028
5.8689003 6.260355 1.2380906 619 86584330 4656 17 71 8670
5.4222445 6.2251701 1.1114943 688 86584330 4777 18 62 8330
5.0132475 6.1995792 0.99689525 700 86584330 4522 19 66 8035
6.3391376 6.2843871 1.0430675 657 86584330 5309 20 83 8987
5.8466001 6.2346044 0.9155345 727 86584330 5375 21 68 8596
5.4371719 6.2363715 0.80673027 698 86584330 4821 22 53 8313
5.0072923 6.1853666 0.70170432 751 86584330 4795 23 92 7989
6.3270097 6.2699561 0.71323746 660 86584330 5274 24 69 8936
5.845964 6.2306561 0.60238522 685 86584330 5028 25 66 8565
5.4143586 6.2097678 0.50202537 740 86584330 5042 26 93 8254
4.952064 6.1097279 0.40487093 700 86584330 4342 27 84 7875
6.3258829 6.2627149 0.38693979 674 86584330 5347 28 57 8910
5.8647647 6.2463231 0.29037061 719 86584330 5282 29 33 8573
5.3779683 6.1563082 0.20163667 810 86584330 5414 30 31 8177
5.0125899 6.1797714 0.11888824 799 86584330 5062 31 80 7958
6.31071 6.2470393 0.061993591 694 86584330 5474 32 88 8880
5.8327417 6.2076559 -0.021556715 759 86584330 5511 33 58 8518
5.4365563 6.2218409 -0.09864179 708 86584330 4837 34 68 8263
5.0096822 6.1680412 -0.17047231 830 86584330 5245 35 79 7948
6.3118448 6.2420583 -0.26362085 755 86584330 5955 36 112 8881
5.8383269 6.2044797 -0.33324227 803 86584330 5834 37 56 8526
5.4087873 6.1848307 -0.39997405 865 86584330 5851 38 144 8226
4.9978666 6.1537127 -0.46112853 816 86584330 5148 39 73 7941
6.3099179 6.2303581 -0.58851188 842 86584330 6650 40 106 8887
5.8398395 6.2004471 -0.64537424 804 86584330 5869 41 78 8542
5.4012218 6.1726999 -0.70028907 869 86584330 5888 42 125 8232
5.0035715 6.1539302 -0.75266802 890 86584330 5652 43 68 7967
6.3123622 6.2284212 -0.91546685 815 86584330 6478 44 109 8915
5.8263297 6.1811299 -0.95698768 851 86584330 6216 45 37 8548
5.3971457 6.1615286 -1.0009483 885 86584330 6029 46 79 8252
5.0168295 6.1671572 -1.0497422 841 86584330 5408 47 108 8019
6.3212609 6.2267585 -1.2452875 884 86584330 7100 48 70 8960
5.8484755 6.1992025 -1.2787304 833 86584330 6183 49 54 8618
5.4029512 6.1616445 -1.3098364 901 86584330 6202 50 55 8299
4.998219 6.1407757 -1.3437421 937 86584330 6041 51 46 8031
6.3198671 6.2143116 -1.5797548 877 86584330 7111 52 83 9003
5.8497338 6.1942525 -1.6010689 846 86584330 6360 53 76 8669
5.4121733 6.168251 -1.6230519 834 86584330 5839 54 67 8365
5.0243502 6.1731005 -1.6569966 734 86584330 4848 55 53 8130
6.3111472 6.1988082 -1.9190884 850 86584330 6964 56 116 9052
5.857584 6.1960626 -1.9332783 831 86584330 6349 57 52 8743
5.4093542 6.1626511 -1.9429229 809 86584330 5748 58 65 8427
5.0049973 6.1482263 -1.9619426 854 86584330 5699 59 71 8167
6.359293 6.2315035 -2.2848697 638 86584330 5387 60 51 9192
5.8457918 6.1732211 -2.2672603 804 86584330 6222 61 38 8799
5.4109936 6.1621323 -2.2736261 795 86584330 5754 62 53 8510
5.0084252 6.1577039 -2.2896497 692 86584330 4719 63 53 8261
6.4809928 6.336237 2.8291118 567 86682670 5116 0 60 9495
5.9548993 6.2828226 2.598222 670 86682670 5477 1 70 9038
5.5333629 6.2955995 2.427017 553 86682670 4208 2 47 8726
5.0883131 6.248888 2.2510369 596 86682670 4171 3 36 8367
6.4269915 6.2898073 2.4292679 682 86682670 5921 4 64 9315
5.9508567 6.2730732 2.2437384 689 86682670 5494 5 48 8933
5.4897456 6.2411394 2.0705621 667 86682670 4897 6 80 8566
5.0746212 6.2192054 1.9187802 698 86682670 4751 7 52 8253
6.4485207 6.3133011 2.0796494 623 86682670 5347 8 71 9261
5.9414911 6.2680192 1.899809 618 86682670 4835 9 87 8843
5.4904237 6.2351046 1.7440879 734 86682670 5287 10 40 8489
5.0799856 6.2146997 1.6068172 685 86682670 4588 11 40 8186
6.4208107 6.2881474 1.7242955 688 86682670 5764 12 86 9151
5.9352841 6.2566571 1.5658468 702 86682670 5397 13 68 8765
5.5186505 6.2647343 1.4336855 576 86682670 4135 14 82 8471
5.0847321 6.2174048 1.3038971 753 86682670 4988 15 61 8137
6.4088087 6.2761745 1.3822374 667 86682670 5492 16 39 9076
5.9399071 6.2586861 1.244945 692 86682670 5262 17 77 8718
5.4918036 6.2274618 1.1178992 678 86682670 4755 18 51 8378
5.0738239 6.1963396 1.0013616 720 86682670 4692 19 78 8071
6.4116416 6.2787299 1.0486386 643 86682670 5252 20 73 9035
5.9422503 6.2591853 0.92448103 607 86682670 4575 21 93 8680
5.4911427 6.2208004 0.80905938 700 86682670 4869 22 65 8337
5.0754633 6.1915045 0.7059204 713 86682670 4607 23 105 8037
6.4166498 6.2812209 0.71898419 670 86682670 5440 24 66 9008
5.9088163 6.220706 0.60491717 752 86682670 5566 25 70 8601
5.4840665 6.2123466 0.5049448 749 86682670 5164 26 78 8302
5.095901 6.2089176 0.41350815 452 86682670 2926 27 77 8043
6.4156184 6.274075 0.39006656 749 86682670 6039 28 57 8982
5.9277692 6.2362981 0.29158995 680 86682670 5037 29 38 8609
5.511013 6.2310252 0.20518756 331 86682670 2289 30 46 8321
5.0808764 6.185987 0.11960535 791 86682670 5072 31 76 8006
6.4089799 6.2669263 0.062580019 710 86682670 5708 32 67 8964
5.9038033 6.2065282 -0.021678187 723 86682670 5307 33 93 8566
5.4984822 6.2153273 -0.099071547 774 86682670 5335 34 60 8299
5.0855379 6.183516 -0.1717592 794 86682670 5094 35 71 8008
6.4015069 6.2535024 -0.26575807 776 86682670 6219 36 131 8953
5.9093695 6.2032676 -0.33511838 826 86682670 6076 37 61 8574
5.486362 6.1963949 -0.4028914 873 86682670 5992 38 148 8286
5.0659685 6.1599407 -0.46391585 831 86682670 5301 39 57 7989
6.3908863 6.2333255 -0.59248519 843 86682670 6751 40 75 8947
5.9108033 6.1991372 -0.6490007 861 86682670 6355 41 84 8590
5.462781 6.1662917 -0.70335162 857 86682670 5857 42 123 8268
5.0640168 6.1507812 -0.75606906 899 86682670 5755 43 51 8003
6.3932004 6.2312293 -0.92162818 820 86682670 6607 44 92 8975
5.9053087 6.1883988 -0.963705 835 86682670 6190 45 65 8608
5.4664636 6.1639428 -1.0067706 886 86682670 6106 46 91 8300
5.0697041 6.1546235 -1.052884 873 86682670 5648 47 98 8043
6.3934164 6.2210045 -1.2519587 851 86682670 6908 48 74 9008
5.919189 6.1975279 -1.2858527 807 86682670 6064 49 62 8666
5.4642572 6.1549602 -1.3155183 853 86682670 5922 50 56 8335
5.0659027 6.1465101 -1.3517735 900 86682670 5877 51 67 8079
6.4002504 6.2165728 -1.5902832 841 86682670 6910 52 81 9063
5.9202304 6.1923399 -1.6099339 848 86682670 6446 53 75 8717
5.4890094 6.1789303 -1.6346935 844 86682670 5992 54 87 8425
5.0696049 6.1512213 -1.6594424 843 86682670 5585 55 55 8142
6.3995647 6.2089643 -1.934353 846 86682670 7043 56 112 9124
5.9278593 6.1938238 -1.9438922 868 86682670 6705 57 45 8791
5.4780922 6.1642566 -1.9539899 834 86682670 5987 58 45 8475
5.0648551 6.1443653 -1.9705906 832 86682670 5601 59 69 8203
6.3472991 6.1438622 -2.2669728 691 86682670 5744 60 56 9120
5.9236794 6.1790853 -2.2827206 809 86682670 6346 61 45 8859
5.479435 6.1633844 -2.2864504 781 86682670 5716 62 57 8558
5.0607738 6.1446567 -2.2963018 681 86682670 4672 63 42 8285
6.5609479 6.3361382 2.8469892 573 86780050 5235 0 63 9555
6.0251679 6.2793388 2.612021 646 86780050 5337 1 70 9086
5.571888 6.261529 2.427017 609 86780050 4634 2 46 8726
5.1486173 6.2443013 2.2607222 670 86780050 4728 3 46 8403
6.5237675 6.3066163 2.4511743 654 86780050 5779 4 88 9399
6.0294628 6.2783289 2.2588086 696 86780050 5625 5 43 8993
5.5666575 6.2508168 2.0850654 680 86780050 5061 6 96 8626
5.1424222 6.2239404 1.9299401 781 86780050 5378 7 55 8301
6.5291653 6.31426 2.093123 636 86780050 5529 8 68 9321
6.0204129 6.2737255 1.9126993 627 86780050 4972 9 88 8903
5.5754695 6.2538958 1.7588806 712 86780050 5216 10 38 8561
5.1405301 6.2106051 1.6138835 714 86780050 4824 11 43 8222
6.5185652 6.3059902 1.7401235 636 86780050 5425 12 100 9235
6.0308104 6.2797318 1.5808532 695 86780050 5446 13 71 8849
5.5727305 6.2484078 1.4377475 635 86780050 4583 14 94 8495
5.1454501 6.2134576 1.3096659 738 86780050 4932 15 69 8173
6.4983439 6.2862091 1.3932029 636 86780050 5319 16 53 9148
6.0111132 6.2563796 1.2517996 703 86780050 5399 17 52 8766
5.5774355 6.2468758 1.1275064 683 86780050 4878 18 89 8450
5.1573501 6.220089 1.0102947 725 86780050 4811 19 60 8143
6.484313 6.2724171 1.0542096 657 86780050 5424 20 74 9083
6.0301523 6.2742233 0.93214965 699 86780050 5357 21 75 8752
5.5690017 6.2315168 0.81488198 750 86780050 5292 22 62 8397
5.1591663 6.2154322 0.71224439 684 86780050 4499 23 105 8109
6.4894667 6.274991 0.72281539 638 86780050 5230 24 42 9056
5.9966559 6.2361026 0.60998094 751 86780050 5651 25 79 8673
5.554009 6.2143035 0.5078643 724 86780050 5048 26 100 8350
5.1798606 6.2328339 0.41720986 686 86780050 4519 27 73 8115
6.47124 6.2512503 0.39110884 712 86780050 5772 28 49 9006
6.0158181 6.2516603 0.29402864 683 86780050 5143 29 57 8681
5.5491419 6.197093 0.20518756 461 86780050 3189 30 43 8321
5.1417546 6.1823702 0.12014317 813 86780050 5255 31 56 8042
6.4818358 6.2608299 0.062915117 710 86780050 5770 32 68 9012
6.0000415 6.2306929 -0.021890771 772 86780050 5780 33 72 8650
5.5605316 6.2082858 -0.099501304 788 86780050 5478 34 70 8335
5.1617708 6.1982913 -0.17304613 843 86780050 5489 35 69 8068
6.4829144 6.2557511 -0.26753911 764 86780050 6207 36 101 9013
5.9889398 6.2100472 -0.33746353 740 86780050 5520 37 69 8634
5.5562811 6.1983142 -0.40522534 852 86780050 5915 38 156 8334
5.1420002 6.1747699 -0.46740004 834 86780050 5406 39 76 8049
6.472127 6.2355323 -0.59645844 818 86780050 6638 40 82 9007
5.9819703 6.1971898 -0.65262729 851 86780050 6351 41 100 8638
5.5324469 6.1682596 -0.70743489 879 86780050 6078 42 120 8316
5.1322603 6.1562972 -0.76060379 849 86780050 5505 43 76 8051
6.4829082 6.2415576 -0.92902178 801 86780050 6558 44 96 9047
5.9845939 6.1949291 -0.97042221 832 86780050 6248 45 52 8668
5.5519295 6.1834641 -1.0155041 906 86780050 6353 46 82 8372
5.1530933 6.1782169 -1.0623094 772 86780050 5084 47 108 8115
6.4743061 6.2228327 -1.2602978 846 86780050 6959 48 85 9068
5.9983497 6.2037487 -1.2947555 830 86780050 6317 49 48 8726
5.5494475 6.1741939 -1.3268821 882 86780050 6230 50 53 8407
5.1186824 6.1334772 -1.3557892 917 86780050 6023 51 79 8103
6.4808974 6.2180791 -1.6008112 830 86780050 6909 52 98 9123
5.999125 6.1982698 -1.6210153 834 86780050 6428 53 72 8777
5.5661798 6.1888981 -1.6463352 868 86780050 6253 54 61 8485
5.1223073 6.1380391 -1.6643339 844 86780050 5631 55 58 8166
6.4968085 6.2263803 -1.9521616 800 86780050 6782 56 123 9208
5.9983263 6.1909547 -1.9545063 858 86780050 6707 57 63 8839
5.5548625 6.1739302 -1.9678235 844 86780050 6145 58 39 8535
5.1397824 6.157887 -1.9850044 847 86780050 5786 59 65 8263
6.4352841 6.1529961 -2.2848697 469 86780050 3967 60 178 9192
6.0180087 6.2008657 -2.3043652 835 86780050 6676 61 33 8943
5.5403585 6.1554322 -2.2960687 771 86780050 5698 62 60 8594
5.1279192 6.1489072 -2.3096054 745 86780050 5171 63 39 8333
6.6411448 6.3352957 2.864867 527 86875740 4867 0 56 9615
6.1276498 6.3082047 2.6396189 639 86875740 5391 1 76 9182
5.6642089 6.287168 2.4503803 583 86875740 4521 2 53 8810
5.2164631 6.2480798 2.2736359 684 86875740 4882 3 49 8451
6.5958548 6.298471 2.4636924 672 86875740 6001 4 69 9447
6.1083565 6.2828555 2.2738793 698 86875740 5717 5 42 9053
5.636096 6.2511353 2.096668 689 86875740 5187 6 76 8674
5.2029819 6.2191253 1.9383099 761 86875740 5293 7 59 8337
6.5931525 6.2983112 2.101207 635 86875740 5562 8 87 9357
6.1077924 6.2871037 1.9281676 648 86875740 5222 9 80 8975
5.6373439 6.2457209 1.7662767 647 86875740 4779 10 50 8597
5.2163315 6.2240376 1.6256609 757 86875740 5189 11 51 8282
6.5997367 6.3065839 1.751429 657 86875740 5679 12 88 9295
6.0939198 6.2680058 1.5872846 691 86875740 5458 13 74 8885
5.6505947 6.2579861 1.4479021 637 86875740 4664 14 72 8555
5.2291422 6.2362275 1.3212035 712 86875740 4843 15 60 8245
6.5882411 6.2953787 1.4041681 642 86875740 5455 16 46 9220
6.0990748 6.2704616 1.2620813 642 86875740 5019 17 60 8838
5.6395845 6.2390027 1.1323099 703 86875740 5059 18 47 8486
5.2030749 6.1974463 1.0117835 713 86875740 4744 19 72 8155
6.5830002 6.2901511 1.063959 630 86875740 5297 20 81 9167
6.0934982 6.2627597 0.93598378 699 86875740 5395 21 57 8788
5.6391854 6.2326541 0.81954014 716 86875740 5110 22 71 8445
5.2125883 6.2019606 0.71435243 754 86875740 4988 23 109 8133
6.5710964 6.2763638 0.72760433 655 86875740 5446 24 77 9116
6.0765567 6.2420769 0.61420083 715 86875740 5449 25 55 8733
5.6161442 6.2067528 0.51005393 718 86875740 5048 26 124 8386
5.2180071 6.2009335 0.41720986 788 86875740 5192 27 62 8115
6.5615158 6.2610841 0.39423561 728 86875740 6004 28 59 9078
6.0875387 6.2489924 0.29565439 714 86875740 5438 29 40 8729
5.6434636 6.2251425 0.20725894 747 86875740 5275 30 39 8405
5.218236 6.1965938 0.12103953 829 86875740 5444 31 71 8102
6.5548573 6.2540746 0.063250221 672 86875740 5517 32 100 9060
6.0800424 6.236722 -0.022042612 724 86875740 5489 33 54 8710
5.6468821 6.2273836 -0.10036083 749 86875740 5297 34 72 8407
5.2151728 6.1848454 -0.17356087 832 86875740 5444 35 57 8092
6.5645885 6.2572336 -0.2693201 763 86875740 6281 36 112 9073
6.0688138 6.2160816 -0.33980861 809 86875740 6119 37 65 8694
5.6183739 6.190732 -0.40697578 828 86875740 5798 38 162 8370
5.2106805 6.1797366 -0.47018734 858 86875740 5623 39 54 8097
6.570981 6.2534847 -0.6020211 816 86875740 6745 40 91 9091
6.0700598 6.2117162 -0.65806711 833 86875740 6321 41 86 8710
5.6184173 6.1873069 -0.71355987 869 86875740 6112 42 137 8388
5.1930556 6.1520772 -0.76400483 901 86875740 5889 43 56 8087
6.5643315 6.2427912 -0.93518305 828 86875740 6869 44 95 9107
6.0725183 6.2092438 -0.97848296 837 86875740 6390 45 55 8740
5.6218138 6.1845374 -1.0213263 852 86875740 6043 46 88 8420
5.2062569 6.1646595 -1.065451 858 86875740 5684 47 110 8139
6.5726929 6.2402649 -1.2719723 859 86875740 7196 48 92 9152
6.0695062 6.2007489 -1.3018775 838 86875740 6448 49 53 8774
5.6191282 6.1750841 -1.334458 875 86875740 6258 50 59 8455
5.1944003 6.1471367 -1.3658283 883 86875740 5887 51 72 8163
6.5789518 6.2350821 -1.6155508 859 86875740 7284 52 84 9207
6.0700598 6.1950388 -1.6298804 878 86875740 6840 53 79 8825
5.6357512 6.1894445 -1.6556486 854 86875740 6220 54 79 8533
5.1977859 6.1513615 -1.6765628 854 86875740 5781 55 79 8226
6.3901129 6.0493422 -1.9089122 522 86875740 4233 56 92 9004
6.0689793 6.1874518 -1.96512 850 86875740 6715 57 82 8887
5.6162291 6.1656265 -1.9761235 814 86875740 5976 58 48 8571
5.2075462 6.1618214 -1.9965354 817 86875740 5646 59 62 8311
6.6165724 6.2490702 -2.3355784 790 86875740 6971 60 53 9396
6.0884471 6.1969061 -2.3167334 815 86875740 6586 61 33 8991
5.6481214 6.1982474 -2.324923 744 86875740 5636 62 76 8702
5.1953068 6.1525645 -2.3229094 744 86875740 5229 63 59 8381
6.7465873 6.3572731 2.8934708 540 86973120 5096 0 68 9711
6.1904173 6.2950726 2.6499681 709 86973120 6027 1 84 9218
5.7182145 6.2693272 2.4570556 618 86973120 4819 2 57 8834
5.2770867 6.2424335 2.2833214 702 86973120 5054 3 47 8487
6.7186503 6.3373713 2.4949872 647 86973120 5925 4 69 9567
