# .PCD v0.7 - Point Cloud Data file format
VERSION 0.7
FIELDS x y z intensity t reflectivity ring noise range
SIZE 4 4 4 4 4 2 1 2 4
TYPE F F F F U U U U U
COUNT 1 1 1 1 1 1 1 1 1
WIDTH 785
HEIGHT 1
VIEWPOINT 0 0 0 1 0 0 0
POINTS 785
DATA ascii
2.4184892 -0.64558417 0.72482306 180 4491060 122 2 57 2606
2.2908075 -0.5199489 0.65618247 279 4491060 166 3 54 2439
2.419805 -0.84507519 0.69240004 248 4491060 175 4 97 2655
2.2913203 -0.70590371 0.62215829 261 4491060 160 5 57 2477
2.247941 -0.60098332 0.5796414 237 4491060 136 6 119 2398
2.1364188 -0.48718163 0.52381098 255 4491060 130 7 84 2253
2.2274024 -0.77740216 0.54365951 260 4491060 152 8 102 2421
2.1385815 -0.65794927 0.49219298 258 4491060 136 9 86 2291
2.0693159 -0.55442798 0.44973594 236 4491060 113 10 58 2189
2.0320611 -0.46525013 0.41730922 263 4491060 119 11 45 2126
2.0539382 -0.7164982 0.41736585 263 4491060 129 12 148 2215
2.0470369 -0.63064551 0.38891599 262 4491060 124 13 59 2177
1.9524438 -0.52351642 0.34712416 218 4491060 92 14 107 2051
1.9406103 -0.44481111 0.32321012 189 4491060 77 15 65 2017
1.9746073 -0.68886298 0.32225811 259 4491060 116 16 45 2116
1.912438 -0.58965379 0.28874502 243 4491060 99 17 82 2022
1.8854973 -0.50665945 0.26286244 236 4491060 92 18 91 1970
1.8519123 -0.42567134 0.23759231 200 4491060 73 19 94 1915
1.8784263 -0.65534598 0.23247623 233 4491060 94 20 73 2003
1.7938402 -0.55339557 0.20108528 276 4491060 99 21 71 1888
1.7962228 -0.48357785 0.18137603 209 4491060 73 22 81 1869
1.8025873 -0.41536069 0.1631074 272 4491060 94 23 154 1857
1.8144642 -0.63342166 0.1538856 210 4491060 78 24 54 1928
1.7928171 -0.55359405 0.13229264 312 4491060 111 25 59 1881
1.7445174 -0.46972305 0.11008795 126 4491060 41 26 137 1810
1.7427197 -0.40265492 0.092079215 169 4491060 54 27 113 1791
1.6918721 -0.59155303 0.077909082 187 4491060 60 28 26 1794
1.7693075 -0.5470112 0.062761784 164 4491060 56 29 23 1853
1.9156649 -0.51774251 0.048948124 229 4491060 90 30 50 1985
1.8839868 -0.4360221 0.028892923 274 4491060 103 31 93 1934
1.8689673 -0.65358311 0.013822896 237 4491060 93 32 87 1980
1.9239155 -0.59558356 -0.0050968803 296 4491060 120 33 44 2014
1.964311 -0.53114748 -0.024293359 255 4491060 106 34 98 2035
1.9555488 -0.45391479 -0.043068495 281 4491060 113 35 77 2008
1.9027745 -0.66644931 -0.059872009 286 4491060 116 36 113 2017
1.9296494 -0.59890896 -0.079030715 278 4491060 114 37 67 2022
1.9956479 -0.54051816 -0.10064992 315 4491060 135 38 153 2070
2.0275855 -0.4705984 -0.12107455 368 4491060 160 39 86 2085
1.9610475 -0.68858916 -0.13793972 343 4491060 149 40 90 2083
2.0091269 -0.62457627 -0.15941694 297 4491060 132 41 109 2110
5.3313932 -1.4455978 -0.47162327 764 4491060 2349 42 187 5544
5.4444623 -1.2667532 -0.53046703 518 4491060 1633 43 109 5615
5.325542 -1.8720639 -0.58275652 678 4491060 2183 44 158 5675
5.3891869 -1.6777064 -0.63590199 483 4491060 1559 45 76 5680
5.4791141 -1.4887322 -0.69382262 494 4491060 1616 46 132 5720
5.5876265 -1.3015022 -0.75755811 484 4491060 1619 47 169 5787
5.4320126 -1.9146054 -0.80832505 518 4491060 1752 48 131 5816
5.5418997 -1.7279003 -0.87098491 485 4491060 1672 49 85 5870
5.6204581 -1.5302975 -0.93104285 499 4491060 1738 50 73 5899
5.7406578 -1.3388374 -1.0004027 537 4491060 1921 51 78 5979
5.6054368 -1.9813429 -1.0596623 454 4491060 1656 52 111 6039
5.7008448 -1.7806239 -1.122355 461 4491060 1702 53 116 6077
5.7932658 -1.5793034 -1.1876509 503 4491060 1885 54 98 6121
5.9207878 -1.3807384 -1.2656765 357 4491060 1375 55 403 6210
5.7742062 -2.0446262 -1.3288606 448 4491060 1759 56 150 6268
7.7912393 -2.438024 -1.8510206 132 4491060 927 57 89 8371
9.1612635 -2.4993436 -2.2500279 110 4491060 1048 58 105 9759
10.624586 -2.4786503 -2.699923 247 4491060 3120 59 114 11239
6.5932221 -2.343317 -1.795681 164 4491060 853 60 57 7224
7.5254483 -2.3617768 -2.1033804 110 4491060 730 61 57 8163
8.1342106 -2.2208245 -2.3377471 80 4491060 615 62 77 8750
10.043817 -2.3387246 -2.9747984 23 4491060 269 63 78 10733
0 -0 0 7 4588390 0 0 77 0
2.5127079 -0.78981656 0.79056329 201 4588390 152 1 212 2750
2.4256003 -0.66345257 0.72816062 141 4588390 96 2 52 2618
2.2875741 -0.53399527 0.65618247 237 4588390 141 3 61 2439
2.4145741 -0.85990691 0.69240004 244 4588390 172 4 97 2655
2.2980251 -0.72343749 0.62517232 225 4588390 140 5 69 2489
2.2554417 -0.61784148 0.582542 205 4588390 119 6 114 2410
2.1674781 -0.50827509 0.53218079 286 4588390 150 7 66 2289
2.2446237 -0.79889655 0.54904902 240 4588390 143 8 114 2445
2.1792252 -0.68511873 0.50250518 258 4588390 141 9 82 2339
2.1111751 -0.57955021 0.45959765 253 4588390 127 10 66 2237
2.0291681 -0.47770986 0.41730922 209 4588390 94 11 47 2126
2.0383997 -0.72513747 0.41510469 250 4588390 121 12 122 2203
2.0093424 -0.63255781 0.38248464 259 4588390 119 13 67 2141
1.9834079 -0.54488564 0.35321704 227 4588390 99 14 111 2087
1.9147862 -0.45127574 0.31936428 253 4588390 100 15 57 1993
1.9926913 -0.70891643 0.32591322 254 4588390 116 16 52 2140
1.9427682 -0.61208421 0.29388586 228 4588390 97 17 63 2058
1.8708868 -0.51506245 0.26126122 218 4588390 84 18 88 1958
1.8608536 -0.43976498 0.23908114 207 4588390 77 19 75 1927
1.8743699 -0.66685945 0.23247623 231 4588390 93 20 72 2003
1.82455 -0.57515371 0.20491955 210 4588390 78 21 70 1924
1.8162488 -0.50094122 0.18370509 215 4588390 77 22 85 1893
1.788373 -0.42365783 0.16205338 283 4588390 96 23 139 1845
1.7880056 -0.63651973 0.15197001 220 4588390 80 24 44 1904
1.7779711 -0.56098235 0.13144867 288 4588390 101 25 76 1869
1.7069628 -0.4708631 0.10789835 132 4588390 41 26 125 1774
1.7402163 -0.41334048 0.092079215 176 4588390 56 27 89 1791
1.6882106 -0.60192299 0.077909082 154 4588390 49 28 45 1794
1.6858654 -0.53256845 0.059916671 220 4588390 69 29 15 1769
1.9240135 -0.53268802 0.049244031 218 4588390 87 30 57 1997
1.9046216 -0.45312798 0.029251469 295 4588390 113 31 93 1958
1.8649218 -0.66503853 0.013822896 207 4588390 81 32 62 1980
1.9202249 -0.60737723 -0.0050968803 259 4588390 105 33 66 2014
1.9494511 -0.53998721 -0.024150105 253 4588390 104 34 104 2023
1.9877359 -0.47425815 -0.043840639 261 4588390 109 35 84 2044
1.909945 -0.68214631 -0.060228206 286 4588390 118 36 121 2029
1.9602278 -0.62161148 -0.080437794 291 4588390 123 37 44 2058
1.9807441 -0.54954863 -0.10006644 293 4588390 124 38 160 2058
2.0246599 -0.48303059 -0.12107455 307 4588390 134 39 84 2085
1.9342395 -0.69253659 -0.13635039 344 4588390 146 40 107 2059
1.9824483 -0.62964803 -0.15760368 317 4588390 138 41 118 2086
5.2993827 -1.471884 -0.46958163 720 4588390 2194 42 198 5520
5.4482059 -1.3029145 -0.53160071 546 4588390 1729 43 105 5627
5.3476648 -1.9167883 -0.58645332 378 4588390 1233 44 221 5711
5.4015183 -1.7179708 -0.63858891 475 4588390 1547 45 78 5704
5.4813514 -1.5255171 -0.69527823 511 4588390 1679 46 137 5732
5.5679655 -1.3329929 -0.75598717 543 4588390 1810 47 159 5775
5.453712 -1.9599566 -0.81332844 483 4588390 1654 48 111 5852
5.5198855 -1.7582704 -0.86920434 467 4588390 1604 49 80 5858
5.6223769 -1.5679382 -0.93293685 495 4588390 1728 50 57 5911
5.72083 -1.3712785 -0.99839497 552 4588390 1966 51 89 5967
5.593174 -2.0156999 -1.0596623 429 4588390 1564 52 132 6039
5.7122827 -1.8227404 -1.1267875 456 4588390 1697 53 124 6101
5.817481 -1.6243178 -1.1946359 460 4588390 1744 54 97 6157
5.8779306 -1.4088269 -1.2583392 677 4588390 2581 55 114 6174
5.7615519 -2.0800176 -1.3288606 418 4588390 1641 56 163 6268
7.6423659 -2.4430232 -1.8191788 144 4588390 973 57 136 8227
8.9320822 -2.4958043 -2.1974604 92 4588390 839 58 73 9531
10.405283 -2.4949064 -2.6480339 34 4588390 416 59 84 11023
6.4257259 -2.3282924 -1.7539209 150 4588390 749 60 63 7056
7.3231139 -2.3477321 -2.0508153 129 4588390 815 61 43 7959
8.4656658 -2.3672304 -2.437135 81 4588390 677 62 79 9122
10.04049 -2.402992 -2.9781246 65 4588390 755 63 69 10745
8.4426804 -3.0700479 2.8040833 11 4684900 101 0 72 9411
8.7673187 -2.8150468 2.7638092 622 4684900 5748 1 133 9614
2.4436824 -0.6845417 0.73483592 203 4684900 141 2 52 2642
2.2954931 -0.55071783 0.65941095 270 4684900 163 3 58 2451
2.3765845 -0.86284584 0.68301159 207 4684900 142 4 109 2619
2.2935429 -0.73752427 0.62517232 262 4684900 162 5 54 2489
2.2516081 -0.63166898 0.582542 220 4684900 128 6 102 2410
2.1870115 -0.52703357 0.53776067 263 4684900 141 7 77 2313
2.2176948 -0.80467725 0.54365951 234 4684900 137 8 77 2421
2.1303463 -0.68414342 0.49219298 258 4684900 135 9 57 2291
2.0962737 -0.58931494 0.45713225 257 4684900 127 10 54 2225
2.0719452 -0.50121802 0.42673105 242 4684900 114 11 43 2174
2.1114647 -0.76575702 0.43093258 251 4684900 131 12 110 2287
2.0503838 -0.65933275 0.39105976 228 4684900 109 13 73 2189
1.9686422 -0.55384237 0.35118607 220 4684900 95 14 98 2075
1.9695421 -0.47695544 0.32897887 209 4684900 88 15 76 2053
1.9548558 -0.70899886 0.32043055 273 4684900 121 16 34 2104
1.9502821 -0.62763172 0.29559949 225 4684900 96 17 102 2070
1.8676913 -0.52653229 0.26126122 279 4684900 107 18 103 1958
1.8928335 -0.45960349 0.24354763 217 4684900 84 19 102 1963
1.8590381 -0.67428386 0.23108347 238 4684900 95 20 59 1991
1.8664166 -0.60096604 0.21003188 207 4684900 81 21 64 1972
1.7901534 -0.50558382 0.18137603 221 4684900 77 22 86 1869
1.808969 -0.44027674 0.1641614 267 4684900 93 23 147 1869
1.8065546 -0.65564024 0.1538856 225 4684900 84 24 47 1928
1.7403158 -0.56086588 0.12891676 291 4684900 98 25 41 1833
1.7270951 -0.48783973 0.10935809 142 4684900 46 26 130 1798
1.7260046 -0.42116949 0.091462262 229 4684900 72 27 107 1779
1.673218 -0.60817492 0.077387959 192 4684900 61 28 28 1782
1.6597385 -0.53553718 0.059103783 252 4684900 77 29 14 1745
1.8399178 -0.52158087 0.047172673 222 4684900 81 30 33 1913
1.9251167 -0.47050333 0.029610017 309 4684900 121 31 91 1982
1.7480299 -0.63547087 0.012985145 137 4684900 47 32 89 1860
1.8936242 -0.61176997 -0.0050361427 264 4684900 105 33 78 1990
1.9461011 -0.55193865 -0.024150105 254 4684900 104 34 104 2023
1.9964406 -0.48930153 -0.044098016 271 4684900 115 35 88 2056
1.9057236 -0.69385266 -0.060228206 287 4684900 118 36 137 2029
1.933562 -0.62623829 -0.079499744 302 4684900 125 37 53 2034
2.0003941 -0.56824225 -0.10123339 329 4684900 143 38 134 2082
2.0216579 -0.49544457 -0.12107455 306 4684900 133 39 95 2085
1.9524498 -0.71260238 -0.13793972 361 4684900 157 40 96 2083
2.0013113 -0.64918435 -0.15941694 305 4684900 136 41 116 2110
5.3822556 -1.5305356 -0.47774825 336 4684900 1060 42 324 5616
5.4285073 -1.3334697 -0.53046703 517 4684900 1630 43 109 5615
2.0507946 -0.74930745 -0.225401 228 4684900 110 44 143 2195
5.3681927 -1.7437137 -0.63590199 482 4684900 1556 45 77 5680
5.4833436 -1.5623853 -0.69673377 506 4684900 1669 46 128 5744
5.5596814 -1.3671322 -0.75598717 499 4684900 1663 47 137 5775
5.4415832 -1.993383 -0.81332844 471 4684900 1613 48 111 5852
5.5202785 -1.7957778 -0.87098491 445 4684900 1534 49 78 5870
5.6240449 -1.6056601 -0.93483078 487 4684900 1710 50 80 5923
5.7352839 -1.4120115 -1.0024105 504 4684900 1810 51 95 5991
5.5807009 -2.0499811 -1.0596623 460 4684900 1678 52 104 6039
5.712204 -1.86141 -1.1290039 506 4684900 1891 53 120 6113
5.7960868 -1.6567475 -1.1923077 471 4684900 1779 54 102 6145
5.8691754 -1.4448667 -1.2583392 731 4684900 2787 55 97 6174
5.7596869 -2.1193805 -1.3314047 411 4684900 1620 56 131 6280
5.8694553 -1.9160528 -1.3999298 394 4684900 1581 57 178 6331
8.6134872 -2.4638591 -2.1227593 102 4684900 860 58 57 9207
10.333224 -2.5447774 -2.63362 108 4684900 1300 59 93 10963
6.3131866 -2.3314364 -1.7270752 185 4684900 891 60 47 6948
7.0992036 -2.3240807 -1.992066 135 4684900 804 61 52 7731
8.2619867 -2.3650298 -2.382632 101 4684900 806 62 70 8918
10.025557 -2.4645538 -2.9781246 63 4684900 732 63 68 10745
8.6277647 -3.1974251 2.8720179 148 4783700 1377 0 94 9639
8.6734314 -2.8437238 2.7396612 371 4783700 3374 1 177 9530
2.4172761 -0.69316846 0.72816062 169 4783700 116 2 58 2618
2.3257365 -0.57308793 0.66909629 260 4783700 161 3 55 2487
2.4147046 -0.89349288 0.69552952 242 4783700 172 4 93 2667
2.333117 -0.76607752 0.63722873 237 4783700 153 5 70 2537
2.24769 -0.64547271 0.582542 242 4783700 141 6 121 2410
2.1610775 -0.53483516 0.53218079 227 4783700 119 7 84 2289
2.2456183 -0.83043718 0.55174369 226 4783700 136 8 105 2457
2.148381 -0.7045058 0.49734905 245 4783700 132 9 75 2315
2.1039042 -0.60541391 0.45959765 231 4783700 116 10 69 2237
2.0459919 -0.50824839 0.42202014 280 4783700 129 11 48 2150
2.1177802 -0.7827841 0.43319368 259 4783700 137 12 133 2299
2.0575175 -0.67558461 0.39320356 230 4783700 112 13 75 2201
2.0106671 -0.57900226 0.35930991 221 4783700 100 14 116 2123
1.9780732 -0.49188974 0.33090177 229 4783700 97 15 57 2065
1.9949661 -0.73742855 0.32774079 256 4783700 118 16 56 2152
1.9351107 -0.63587886 0.29388586 247 4783700 105 17 82 2058
1.8529989 -0.53468519 0.25966004 264 4783700 100 18 86 1946
1.8784242 -0.46832851 0.2420588 192 4783700 73 19 93 1951
1.8995838 -0.70220864 0.23665455 242 4783700 101 20 62 2039
1.8400242 -0.60495365 0.20747571 231 4783700 88 21 81 1948
1.832912 -0.52982485 0.18603414 214 4783700 79 22 69 1917
1.8178304 -0.4542661 0.1652154 335 4783700 118 23 157 1881
1.8361542 -0.67916173 0.15675899 203 4783700 78 24 55 1964
1.7368417 -0.57153368 0.12891676 313 4783700 105 25 39 1833
1.7010561 -0.49177471 0.10789835 194 4783700 61 26 152 1774
1.6885133 -0.42301515 0.089611426 321 4783700 97 27 107 1743
1.7706339 -0.65591073 0.082078137 281 4783700 100 28 39 1890
1.7019848 -0.56072199 0.060729563 195 4783700 63 29 24 1793
1.802119 -0.52283287 0.046284951 154 4783700 54 30 51 1877
1.8989177 -0.47646651 0.029251469 310 4783700 119 31 92 1958
1.6878365 -0.62533993 0.012566269 148 4783700 48 32 77 1800
1.9240227 -0.63465464 -0.0051272484 265 4783700 109 33 73 2026
1.9426779 -0.5638693 -0.024150105 260 4783700 107 34 82 2023
1.9701316 -0.49568769 -0.043583255 299 4783700 124 35 87 2032
1.9014302 -0.70553291 -0.060228206 271 4783700 112 36 126 2029
1.9524522 -0.64561969 -0.080437794 298 4783700 126 37 67 2058
1.9623418 -0.57046813 -0.099482961 293 4783700 123 38 150 2046
2.0069623 -0.50491709 -0.12037773 283 4783700 122 39 83 2073
1.936818 -0.72039479 -0.13714506 356 4783700 153 40 119 2071
1.9859312 -0.65769005 -0.15851031 329 4783700 145 41 100 2098
2.0549669 -0.59801745 -0.18272848 233 4783700 108 42 200 2148
5.4202232 -1.3667533 -0.53046703 536 4783700 1691 43 86 5615
2.034972 -0.75771159 -0.22416872 276 4783700 132 44 128 2183
5.368711 -1.780373 -0.63724542 495 4783700 1605 45 81 5692
5.4622183 -1.5926669 -0.69527823 517 4783700 1698 46 145 5732
5.5627232 -1.4041317 -0.75755811 500 4783700 1674 47 145 5787
5.4181166 -2.0225785 -0.81166065 469 4783700 1599 48 125 5840
5.5316801 -1.8370962 -0.87454593 467 4783700 1624 49 68 5894
5.6140866 -1.6401384 -0.93483078 520 4783700 1826 50 70 5923
5.7379823 -1.4500747 -1.0044184 511 4783700 1842 51 102 6003
5.568017 -2.0841851 -1.0596623 470 4783700 1714 52 134 6039
5.6782937 -1.8889788 -1.1245712 503 4783700 1865 53 126 6089
5.7971101 -1.6955849 -1.1946359 460 4783700 1744 54 103 6157
5.8601995 -1.4808521 -1.2583392 589 4783700 2246 55 85 6174
5.7465739 -2.1546812 -1.3314047 416 4783700 1639 56 162 6280
5.8020744 -1.9335314 -1.3866624 579 4783700 2276 57 131 6271
8.4749346 -2.4805827 -2.0923254 93 4783700 769 58 73 9075
10.181895 -2.573875 -2.5990272 89 4783700 1042 59 111 10819
6.1790967 -2.3251011 -1.6942638 173 4783700 802 60 55 6816
6.9858365 -2.334522 -1.9642373 130 4783700 753 61 54 7623
8.1363449 -2.3831747 -2.3505714 63 4783700 490 62 87 8798
9.6860418 -2.4442124 -2.8816714 46 4783700 502 63 67 10397
6.389679 -2.4126904 2.1318898 16 4883060 83 0 82 7155
8.7103148 -2.9151278 2.7569096 570 4883060 5240 1 152 9590
2.4240377 -0.71123272 0.7314983 136 4883060 94 2 58 2630
2.3109715 -0.5845136 0.66586781 255 4883060 157 3 61 2475
2.4200168 -0.91237926 0.698659 232 4883060 167 4 92 2679
2.2843196 -0.76561403 0.62517232 226 4883060 140 5 51 2489
2.2101715 -0.64940441 0.57384014 248 4883060 140 6 105 2374
2.1577551 -0.54808521 0.53218079 214 4883060 112 7 81 2289
2.2514234 -0.84832352 0.55443841 236 4883060 144 8 103 2469
2.1995862 -0.73627543 0.5102393 259 4883060 146 9 75 2375
2.1001499 -0.61831182 0.45959765 239 4883060 120 10 80 2237
2.0428348 -0.52079278 0.42202014 231 4883060 107 11 38 2150
2.0688221 -0.77914941 0.42414922 285 4883060 144 12 126 2251
2.0645282 -0.69194865 0.3953473 231 4883060 113 13 81 2213
1.9843872 -0.58464378 0.355248 216 4883060 95 14 105 2099
1.9405864 -0.49523097 0.32513303 260 4883060 107 15 76 2029
1.9682058 -0.74129498 0.32408565 257 4883060 117 16 68 2128
1.8861306 -0.63263285 0.28703138 246 4883060 100 17 70 2010
1.8953074 -0.55951363 0.26606479 203 4883060 81 18 69 1994
1.8870509 -0.48279685 0.24354763 231 4883060 89 19 100 1963
1.8840857 -0.70964992 0.2352618 223 4883060 91 20 50 2027
1.8589013 -0.6238246 0.21003188 248 4883060 97 21 78 1972
1.8410796 -0.54444838 0.1871987 203 4883060 76 22 92 1929
1.8034298 -0.46244243 0.1641614 311 4883060 109 23 151 1869
1.7983729 -0.67776006 0.1538856 224 4883060 83 24 75 1928
1.767344 -0.59361398 0.13144867 327 4883060 114 25 41 1869
1.8128661 -0.53617382 0.115197 181 4883060 65 26 123 1894
1.74392 -0.44828573 0.09269616 212 4883060 69 27 103 1803
1.7217107 -0.64982915 0.079993613 318 4883060 108 28 21 1842
1.7439827 -0.58644485 0.06235534 119 4883060 40 29 21 1841
1.7068727 -0.50657505 0.043917686 157 4883060 50 30 52 1781
1.9075782 -0.49110055 0.029430743 292 4883060 113 31 96 1970
1.7064208 -0.64416033 0.01273382 53 4883060 18 32 73 1824
1.8859743 -0.63496155 -0.0050361427 269 4883060 107 33 79 1990
1.9506843 -0.57919413 -0.024293359 253 4883060 105 34 122 2035
1.9554365 -0.50476825 -0.043325871 290 4883060 118 35 76 2020
1.9082851 -0.72142822 -0.060584415 281 4883060 117 36 111 2041
1.9143702 -0.64608455 -0.079030715 289 4883060 118 37 76 2022
2.0047591 -0.59616381 -0.10181687 277 4883060 121 38 123 2094
2.0154259 -0.52021611 -0.12107455 296 4883060 129 39 81 2085
1.9211645 -0.72802228 -0.13635039 338 4883060 143 40 62 2059
1.9818583 -0.66986316 -0.15851031 309 4883060 136 41 115 2098
2.0283399 -0.60379273 -0.18068683 251 4883060 113 42 147 2124
5.377038 -1.3910097 -0.52706605 502 4883060 1563 43 102 5579
2.0526054 -0.77865112 -0.22663324 253 4883060 123 44 102 2207
5.357686 -1.8132812 -0.63724542 475 4883060 1540 45 95 5692
5.4409285 -1.622748 -0.69382262 495 4883060 1619 46 128 5720
5.5424862 -1.4352551 -0.75598717 517 4883060 1723 47 151 5775
5.4278193 -2.0642338 -0.81499624 486 4883060 1671 48 113 5864
5.4865866 -1.8595755 -0.86920434 478 4883060 1641 49 74 5858
5.5925636 -1.6711622 -0.93293685 510 4883060 1783 50 87 5911
5.7060719 -1.4793169 -1.0004027 528 4883060 1888 51 91 5979
5.5661621 -2.1225197 -1.0617679 503 4883060 1841 52 137 6051
5.6777639 -1.9275761 -1.1267875 456 4883060 1697 53 134 6101
5.7527633 -1.7210016 -1.1876509 454 4883060 1701 54 106 6121
5.8737473 -1.5226779 -1.2632307 466 4883060 1792 55 65 6198
5.7442002 -2.1940856 -1.3339489 415 4883060 1642 56 129 6292
5.8122606 -1.9766318 -1.3919692 658 4883060 2608 57 91 6295
8.213459 -2.4588635 -2.0314579 94 4883060 732 58 75 8811
9.8840199 -2.5631993 -2.5269587 75 4883060 829 59 121 10519
6.0344734 -2.3130496 -1.6584694 180 4883060 800 60 45 6672
6.806767 -2.3212068 -1.9178563 135 4883060 745 61 57 7443
7.8224788 -2.3434525 -2.2640078 98 4883060 706 62 71 8474
9.1909008 -2.3793459 -2.7386549 45 4883060 443 63 73 9881
6.2143836 -2.3901696 2.0782576 21 4981210 103 0 86 6975
8.6813869 -2.9648039 2.7534599 656 4981210 6018 1 121 9578
2.4527485 -0.73603189 0.74151123 199 4981210 142 2 66 2666
2.3520899 -0.61029321 0.67878157 260 4981210 166 3 61 2523
2.4576318 -0.94382399 0.71117699 204 4981210 152 4 99 2727
2.3345306 -0.7984094 0.64024276 223 4981210 145 5 61 2549
2.2507515 -0.67635781 0.58544266 273 4981210 160 6 114 2422
2.1430576 -0.55837196 0.52939087 281 4981210 146 7 76 2277
2.2898438 -0.87888265 0.56521732 240 4981210 152 8 124 2517
2.1395738 -0.73081672 0.49734905 249 4981210 134 9 79 2315
2.1188073 -0.63795829 0.46452856 249 4981210 128 10 67 2261
2.0737524 -0.54224753 0.42908654 243 4981210 116 11 56 2186
2.1190181 -0.81293482 0.43545482 294 4981210 157 12 118 2311
2.0602436 -0.70460331 0.3953473 259 4981210 127 13 81 2213
2.0034106 -0.60363269 0.35930991 200 4981210 90 14 104 2123
1.9833471 -0.519126 0.33282471 245 4981210 106 15 65 2077
1.9968394 -0.76610249 0.3295683 240 4981210 112 16 50 2164
1.9271618 -0.65957779 0.29388586 235 4981210 100 17 88 2058
1.9032239 -0.57456958 0.26766598 215 4981210 87 18 64 2006
1.8725356 -0.49134439 0.2420588 235 4981210 90 19 97 1951
1.9130796 -0.73400575 0.2394401 247 4981210 105 20 87 2063
1.832462 -0.62748802 0.20747571 213 4981210 81 21 84 1948
1.8034081 -0.54536337 0.18370509 209 4981210 75 22 75 1893
1.7889979 -0.47045922 0.1631074 294 4981210 101 23 138 1857
1.8165146 -0.69735599 0.15580121 240 4981210 92 24 74 1952
1.7636684 -0.60444701 0.13144867 297 4981210 104 25 51 1869
1.8095421 -0.54728723 0.115197 269 4981210 96 26 129 1894
1.7411364 -0.45897779 0.09269616 137 4981210 45 27 109 1803
1.7288811 -0.66468328 0.080514744 369 4981210 127 28 12 1854
1.7063196 -0.58545798 0.061136004 93 4981210 30 29 25 1805
1.7496498 -0.53097349 0.045101319 100 4981210 33 30 45 1829
1.8929276 -0.49973327 0.029251469 296 4981210 114 31 91 1958
1.7360369 -0.6675387 0.012985145 51 4981210 18 32 78 1860
1.8820428 -0.64652175 -0.0050361427 257 4981210 102 33 64 1990
1.9585755 -0.59463835 -0.024436614 253 4981210 106 34 94 2047
1.9407048 -0.51368725 -0.043068495 299 4981210 121 35 90 2008
1.8702422 -0.72019249 -0.0595158 250 4981210 100 36 142 2005
1.9103699 -0.65781873 -0.079030715 291 4981210 119 37 55 2022
1.9551935 -0.59450614 -0.099482961 281 4981210 117 38 160 2046
1.977453 -0.52337724 -0.11898405 296 4981210 124 39 80 2049
1.905491 -0.73548514 -0.13555574 317 4981210 133 40 91 2047
1.9890227 -0.68591195 -0.15941694 293 4981210 131 41 80 2110
2.0131586 -0.61274546 -0.179666 255 4981210 114 42 139 2112
5.4030428 -1.4331648 -0.53046703 575 4981210 1813 43 105 5615
2.0366549 -0.78692895 -0.225401 288 4981210 139 44 119 2195
5.3464589 -1.8461212 -0.63724542 495 4981210 1604 45 98 5692
5.4422626 -1.6595767 -0.69527823 504 4981210 1656 46 137 5732
5.556572 -1.4753422 -0.75912899 516 4981210 1736 47 193 5799
5.3818069 -2.0846224 -0.80999285 486 4981210 1651 48 111 5828
5.4862885 -1.8970838 -0.87098491 473 4981210 1631 49 72 5870
5.5935369 -1.7089083 -0.93483078 497 4981210 1745 50 79 5923
5.6968875 -1.5143008 -1.0004027 501 4981210 1791 51 107 5979
5.5420218 -2.1523561 -1.0596623 504 4981210 1838 52 128 6039
5.6546855 -1.958518 -1.1245712 441 4981210 1635 53 126 6089
5.7871237 -1.7700398 -1.1969643 435 4981210 1656 54 112 6169
5.8529401 -1.555672 -1.260785 414 4981210 1586 55 72 6186
5.7306294 -2.22929 -1.3339489 453 4981210 1793 56 129 6292
5.8000231 -2.0122578 -1.3919692 493 4981210 1954 57 98 6295
7.9972386 -2.447701 -1.9816569 108 4981210 801 58 58 8595
9.3840351 -2.4950902 -2.4030011 59 4981210 591 59 105 10003
5.9335461 -2.3162193 -1.6346066 193 4981210 833 60 42 6576
6.6609836 -2.3172131 -1.8807515 174 4981210 925 61 47 7299
7.5978732 -2.3270633 -2.2030931 116 4981210 792 62 61 8246
8.1174507 -2.1546822 -2.4226882 28 4981210 210 63 53 8741
5.9542832 -2.3321695 1.996021 16 5079910 73 0 91 6699
8.6738853 -3.0217974 2.7569096 665 5079910 6116 1 118 9590
2.4592056 -0.75444847 0.74484885 198 5079910 142 2 42 2678
2.3706393 -0.63065648 0.68523854 210 5079910 136 3 44 2547
2.5165279 -0.98420304 0.72995389 221 5079910 173 4 120 2799
2.3295877 -0.81271881 0.64024276 239 5079910 156 5 65 2549
2.3022127 -0.70725262 0.59994578 239 5079910 147 6 101 2482
2.1734188 -0.5805468 0.53776067 274 5079910 147 7 87 2313
2.2735169 -0.88865924 0.56252259 228 5079910 143 8 100 2505
2.1571839 -0.75164366 0.50250518 248 5079910 136 9 76 2339
2.1373014 -0.6578567 0.46945941 263 5079910 138 10 62 2285
2.0703862 -0.55496162 0.42908654 232 5079910 111 11 43 2186
2.1359441 -0.83449882 0.43997705 252 5079910 137 12 128 2335
2.0558815 -0.71723145 0.3953473 268 5079910 132 13 66 2213
1.988366 -0.6124326 0.35727894 232 5079910 103 14 107 2111
1.9801244 -0.53128582 0.33282471 275 5079910 119 15 75 2077
2.0031481 -0.78265661 0.33139586 245 5079910 116 16 64 2176
1.9342918 -0.67530501 0.29559949 225 5079910 97 17 64 2070
1.8996625 -0.58623672 0.26766598 232 5079910 93 18 71 2006
1.8809841 -0.50591755 0.24354763 241 5079910 93 19 108 1963
1.9196413 -0.75006807 0.24083285 216 5079910 93 20 76 2075
1.8623704 -0.65052384 0.21130995 242 5079910 95 21 76 1984
1.8114384 -0.55994582 0.18486962 201 5079910 73 22 86 1905
1.7629941 -0.47520545 0.16099939 317 5079910 106 23 155 1833
1.7787797 -0.69542241 0.15292782 220 5079910 81 24 56 1916
1.771226 -0.61920756 0.13229264 259 5079910 92 25 72 1881
1.7832632 -0.55130452 0.11373728 300 5079910 105 26 140 1870
1.7267182 -0.46652675 0.092079215 100 5079910 32 27 95 1791
1.7247702 -0.67527896 0.080514744 324 5079910 111 28 1 1854
1.7706144 -0.61968738 0.063574672 96 5079910 34 29 25 1877
1.8036478 -0.55946946 0.046580859 73 5079910 26 30 45 1889
1.9129902 -0.51760632 0.029610017 275 5079910 108 31 72 1982
1.709561 -0.66942757 0.012817594 61 5079910 21 32 99 1836
1.8667153 -0.65408933 -0.0050057736 284 5079910 111 33 68 1978
1.9319698 -0.59953213 -0.024150105 246 5079910 101 34 96 2023
1.9606738 -0.53186738 -0.043583255 304 5079910 126 35 80 2032
1.8881216 -0.74041247 -0.060228206 263 5079910 108 36 122 2029
1.8949841 -0.66555464 -0.078561686 292 5079910 118 37 62 2010
1.9744006 -0.61360615 -0.10064992 279 5079910 119 38 147 2070
1.9973284 -0.5417732 -0.12037773 291 5079910 125 39 103 2073
1.9232298 -0.75592321 -0.13714506 332 5079910 142 40 124 2071
1.9734888 -0.69413316 -0.15851031 316 5079910 139 41 105 2098
2.0321946 -0.63218975 -0.18170767 233 5079910 106 42 157 2136
5.3365073 -1.4506221 -0.52479863 729 5079910 2250 43 92 5555
2.0095725 -0.79067004 -0.22293645 316 5079910 149 44 114 2171
5.3125358 -1.8709694 -0.6345585 680 5079910 2185 45 88 5668
5.4319773 -1.6929386 -0.69527823 531 5079910 1745 46 106 5732
5.524456 -1.5031619 -0.75598717 526 5079910 1753 47 149 5775
5.4020791 -2.130686 -0.81499624 479 5079910 1647 48 113 5864
5.4857368 -1.9346583 -0.87276548 478 5079910 1655 49 83 5882
5.5603237 -1.7361339 -0.93104285 477 5079910 1661 50 74 5899
5.6646595 -1.5430092 -0.99638712 513 5079910 1820 51 104 5955
5.5287108 -2.186321 -1.0596623 469 5079910 1710 52 117 6039
5.6536822 -1.9971058 -1.1267875 427 5079910 1590 53 110 6101
5.7536826 -1.7984915 -1.1923077 427 5079910 1613 54 99 6145
5.8546195 -1.5946431 -1.2632307 475 5079910 1826 55 72 6198
5.7386494 -2.2730479 -1.3390371 406 5079910 1619 56 134 6316
5.8316979 -2.0634232 -1.4025832 390 5079910 1570 57 92 6343
7.803762 -2.4409521 -1.9373896 136 5079910 963 58 71 8403
8.9864273 -2.4485068 -2.3049881 95 5079910 876 59 100 9595
5.800406 -2.3053598 -1.6017951 241 5079910 999 60 40 6444
6.5264378 -2.3153961 -1.8467387 165 5079910 850 61 60 7167
7.4399858 -2.3287342 -2.1614141 82 5079910 539 62 74 8090
7.9371939 -2.159054 -2.3727989 37 5079910 274 63 65 8561
5.8334599 -2.3262303 1.9602661 16 5176370 70 0 84 6579
8.644351 -3.0711145 2.7534599 376 5176370 3448 1 137 9578
2.4655287 -0.77297181 0.74818647 198 5176370 143 2 78 2690
2.3332729 -0.63607126 0.6755532 233 5176370 147 3 67 2511
2.4889159 -0.99105436 0.72369492 245 5176370 189 4 105 2775
2.3792741 -0.84646404 0.65531325 245 5176370 166 5 55 2609
2.2756107 -0.7143901 0.59414452 237 5176370 143 6 82 2458
2.1473012 -0.58770955 0.53218079 272 5176370 143 7 82 2289
2.2571564 -0.8982687 0.55982786 213 5176370 133 8 88 2493
2.1856611 -0.77663785 0.5102393 261 5176370 147 9 81 2375
2.0996161 -0.66038764 0.4620631 265 5176370 134 10 77 2249
2.0442493 -0.56142259 0.42437562 261 5176370 122 11 47 2162
2.1307836 -0.84758902 0.43997705 228 5176370 124 12 112 2335
2.0403183 -0.72587514 0.39320356 270 5176370 131 13 76 2201
1.9732896 -0.6210708 0.355248 246 5176370 108 14 102 2099
1.9539849 -0.53714633 0.32897887 263 5176370 111 15 72 2053
1.9983079 -0.79493296 0.33139586 222 5176370 105 16 54 2176
1.9301118 -0.68716091 0.29559949 223 5176370 96 17 93 2070
1.8620033 -0.58715212 0.26286244 200 5176370 78 18 68 1970
1.9008033 -0.52377594 0.24652529 216 5176370 85 19 97 1987
1.9039283 -0.75742692 0.2394401 241 5176370 103 20 78 2063
1.8808237 -0.66994619 0.21386613 230 5176370 93 21 80 2008
1.8079686 -0.57105005 0.18486962 216 5176370 78 22 92 1905
1.78309 -0.49237758 0.1631074 283 5176370 98 23 138 1857
1.8300474 -0.72844237 0.15771678 213 5176370 83 24 38 1976
1.7448429 -0.62202489 0.13060471 227 5176370 78 25 53 1857
1.8026898 -0.56945193 0.115197 281 5176370 101 26 138 1894
1.735373 -0.48030964 0.09269616 105 5176370 34 27 114 1803
1.7428674 -0.6947276 0.081557006 336 5176370 118 28 19 1878
1.744188 -0.62247771 0.062761784 94 5176370 32 29 9 1853
1.7315663 -0.54878008 0.044805408 68 5176370 22 30 38 1817
1.8866527 -0.52292478 0.029251469 257 5176370 99 31 81 1958
1.7611541 -0.70212376 0.013236471 69 5176370 25 32 96 1896
1.8400663 -0.6574558 -0.0049450365 258 5176370 99 33 79 1954
1.8939408 -0.60049558 -0.023720348 249 5176370 98 34 120 1987
1.9111363 -0.53104013 -0.04255373 284 5176370 112 35 77 1984
1.8946828 -0.75643128 -0.060584415 270 5176370 112 36 116 2041
1.9360198 -0.69334078 -0.080437794 303 5176370 129 37 65 2058
1.982022 -0.62933654 -0.10123339 273 5176370 118 38 133 2082
2.0055089 -0.55722535 -0.12107455 286 5176370 124 39 95 2085
1.9074385 -0.76326132 -0.13635039 325 5176370 138 40 95 2059
1.9579294 -0.7021898 -0.15760368 306 5176370 133 41 126 2086
2.0738566 -0.65913361 -0.18579097 274 5176370 131 42 175 2184
5.3275061 -1.483339 -0.52479863 724 5176370 2235 43 98 5555
1.9936025 -0.79854727 -0.22170421 327 5176370 152 44 120 2159
5.2672873 -1.8914412 -0.63052815 682 5176370 2164 45 85 5632
5.4214873 -1.7262367 -0.69527823 536 5176370 1761 46 134 5732
5.5265889 -1.5402248 -0.75755811 500 5176370 1673 47 151 5787
5.3778758 -2.1593645 -0.81332844 516 5176370 1767 48 117 5852
5.4737625 -1.9682817 -0.87276548 499 5176370 1727 49 89 5882
5.5608559 -1.7738199 -0.93293685 456 5176370 1594 50 74 5911
5.7006674 -1.5904551 -1.0044184 491 5176370 1770 51 95 6003
5.5261507 -2.2246149 -1.0617679 495 5176370 1812 52 130 6051
5.6191301 -2.023766 -1.122355 425 5176370 1570 53 98 6077
5.7201104 -1.8265996 -1.1876509 422 5176370 1581 54 104 6121
5.8334088 -1.6273795 -1.260785 490 5176370 1876 55 88 6186
5.6919646 -2.2950602 -1.3314047 497 5176370 1958 56 161 6280
5.8189273 -2.0991669 -1.4025832 363 5176370 1461 57 105 6343
7.5328164 -2.4070437 -1.8737553 137 5176370 908 58 61 8127
8.8365955 -2.466027 -2.2703953 86 5176370 772 59 67 9451
5.6784019 -2.2973149 -1.5719665 301 5176370 1206 60 66 6324
6.3812661 -2.308073 -1.8096339 156 5176370 767 61 52 7023
7.2493262 -2.317991 -2.1101174 126 5176370 789 62 62 7898
8.3680696 -2.3314977 -2.5058374 59 5176370 486 63 61 9041
5.4475899 -2.2111924 1.8351238 35 5275030 134 0 83 6159
8.085022 -2.9283931 2.5809736 37 5275030 299 1 106 8978
2.4497623 -0.78456992 0.74484885 217 5275030 155 2 55 2678
2.3515897 -0.65659225 0.68201005 254 5275030 163 3 50 2535
2.4505789 -0.99325264 0.71430647 220 5275030 165 4 113 2739
2.3521967 -0.85312629 0.64928502 235 5275030 157 5 60 2585
2.2933602 -0.73545104 0.59994578 247 5275030 152 6 107 2482
2.2110829 -0.61977446 0.54892039 271 5275030 151 7 83 2361
2.2949545 -0.929663 0.57060671 216 5275030 140 8 97 2541
2.1918738 -0.79402596 0.51281738 229 5275030 131 9 75 2387
2.1402488 -0.68762749 0.47192484 266 5275030 141 10 79 2297
2.0747471 -0.58351237 0.43144202 257 5275030 124 11 61 2198
2.1473899 -0.86949342 0.44449934 236 5275030 131 12 114 2359
2.0802236 -0.7544834 0.40177861 260 5275030 132 13 70 2249
2.0032194 -0.6440264 0.36134085 239 5275030 109 14 111 2135
1.9620538 -0.55233526 0.33090177 247 5275030 105 15 71 2065
2.0263717 -0.82053345 0.33687851 236 5275030 115 16 57 2212
1.9481878 -0.70709515 0.29902673 239 5275030 105 17 89 2094
1.8923254 -0.60950434 0.26766598 220 5275030 89 18 96 2006
1.8975538 -0.53542918 0.24652529 204 5275030 81 19 81 1987
1.9213398 -0.7780422 0.24222563 192 5275030 84 20 80 2087
1.8542472 -0.673329 0.21130995 237 5275030 93 21 72 1984
1.7930642 -0.57846582 0.18370509 227 5275030 81 22 84 1893
1.7800353 -0.50330913 0.1631074 296 5275030 102 23 124 1857
1.8144571 -0.73516577 0.15675899 216 5275030 84 24 60 1964
1.7747445 -0.64498532 0.13313663 226 5275030 81 25 56 1893
1.7763636 -0.5731464 0.11373728 296 5275030 103 26 113 1870
1.7554533 -0.49748376 0.093930058 135 5275030 45 27 85 1827
1.7718989 -0.71893072 0.083120398 309 5275030 113 28 28 1914
1.6839838 -0.61266619 0.060729563 124 5275030 40 29 35 1793
1.7852331 -0.57786649 0.046284951 70 5275030 25 30 44 1877
1.8949515 -0.53776699 0.029430743 303 5275030 118 31 87 1970
1.7679318 -0.71742892 0.013320246 68 5275030 25 32 90 1908
1.8247223 -0.66462702 -0.0049146679 262 5275030 99 33 53 1942
1.9016361 -0.61580193 -0.023863601 254 5275030 102 34 94 1999
1.9539994 -0.55588782 -0.043583255 276 5275030 114 35 95 2032
1.8788934 -0.76352686 -0.060228206 257 5275030 106 36 140 2029
1.8979379 -0.69287097 -0.079030715 274 5275030 112 37 53 2022
1.9781232 -0.64148611 -0.10123339 285 5275030 123 38 144 2082
2.0135748 -0.57279831 -0.12177138 287 5275030 126 39 93 2097
1.9248979 -0.78398377 -0.13793972 340 5275030 148 40 86 2083
1.9423456 -0.7100817 -0.15669703 287 5275030 123 41 114 2074
2.0015388 -0.64969736 -0.179666 306 5275030 136 42 172 2112
5.3068151 -1.5127251 -0.52366495 765 5275030 2351 43 98 5543
2.0328782 -0.82879007 -0.22663324 301 5275030 147 44 130 2207
5.2555823 -1.923725 -0.63052815 726 5275030 2304 45 90 5632
5.3881378 -1.7521029 -0.69236708 491 5275030 1600 46 119 5708
5.5055938 -1.5708423 -0.75598717 468 5275030 1559 47 168 5775
5.3755255 -2.1968174 -0.81499624 517 5275030 1778 48 120 5864
5.4281554 -1.989579 -0.86742377 468 5275030 1600 49 88 5846
5.5836678 -1.8189181 -0.93861878 480 5275030 1699 50 68 5947
5.6566734 -1.6156564 -0.99839497 479 5275030 1707 51 82 5967
5.5233283 -2.2629597 -1.0638735 467 5275030 1716 52 130 6063
5.6398201 -2.070399 -1.1290039 450 5275030 1682 53 103 6113
5.7423706 -1.8726122 -1.1946359 429 5275030 1627 54 102 6157
5.8459067 -1.6695945 -1.2656765 511 5275030 1972 55 79 6210
5.6994739 -2.3388467 -1.3364929 521 5275030 2069 56 147 6304
5.8059373 -2.1348317 -1.4025832 411 5275030 1654 57 94 6343
7.4290996 -2.4242401 -1.8516215 156 5275030 1009 58 66 8031
8.5412865 -2.440203 -2.1983268 106 5275030 891 59 72 9151
5.5352225 -2.2790105 -1.5361723 192 5275030 731 60 57 6180
6.2799516 -2.3151 -1.7848974 161 5275030 770 61 52 6927
7.1690111 -2.3408918 -2.0908811 110 5275030 676 62 70 7826
8.2094669 -2.3416846 -2.4625998 78 5275030 619 63 66 8885
5.3492212 -2.2095904 1.8065197 92 5370860 339 0 94 6063
7.9590797 -2.9381435 2.5464764 12 5370860 96 1 92 8858
2.4558575 -0.80316943 0.74818647 196 5370860 142 2 41 2690
2.3808541 -0.68053812 0.69169539 243 5370860 160 3 51 2571
8.5809698 -3.5394378 2.5075052 66 5370860 608 4 144 9615
2.3796022 -0.8796249 0.65832734 218 5370860 150 5 63 2621
2.2888045 -0.74950898 0.59994578 241 5370860 148 6 121 2482
2.2072384 -0.63332975 0.54892039 286 5370860 160 7 72 2361
2.3216398 -0.95709747 0.57869089 189 5370860 126 8 102 2577
2.2089491 -0.8155787 0.51797348 262 5370860 153 9 77 2411
2.1248305 -0.69708598 0.46945941 262 5370860 137 10 70 2285
2.0711279 -0.59623182 0.43144202 244 5370860 118 11 49 2198
2.1311181 -0.87816322 0.44223818 261 5370860 144 12 116 2347
2.053406 -0.75904578 0.39749107 253 5370860 126 13 65 2225
2.021704 -0.66368353 0.36540279 218 5370860 102 14 113 2159
1.9586278 -0.56436384 0.33090177 218 5370860 93 15 67 2065
2.0103333 -0.82843286 0.33505094 243 5370860 118 16 58 2200
1.9883699 -0.73551792 0.30588123 237 5370860 109 17 87 2142
1.9224422 -0.63225043 0.27246958 238 5370860 99 18 78 2042
1.8713531 -0.54045457 0.24354763 198 5370860 76 19 92 1963
1.9165297 -0.78981668 0.24222563 196 5370860 85 20 100 2087
1.8836507 -0.69711763 0.2151442 230 5370860 94 21 94 2020
1.8575437 -0.61187685 0.19069229 229 5370860 89 22 68 1965
1.742466 -0.50425297 0.15994538 214 5370860 71 23 124 1821
1.7988535 -0.74172544 0.15580121 196 5370860 75 24 63 1952
1.7707535 -0.65586281 0.13313663 231 5370860 83 25 74 1893
1.8069423 -0.59527862 0.11592687 280 5370860 102 26 127 1906
1.7063285 -0.49489269 0.091462262 197 5370860 62 27 109 1779
1.7231294 -0.71148741 0.081035875 340 5370860 118 28 10 1866
1.6689478 -0.61881793 0.060323119 79 5370860 25 29 43 1781
1.7360921 -0.57375211 0.045101319 101 5370860 34 30 35 1829
1.9031386 -0.55273056 0.029610017 281 5370860 111 31 75 1982
1.6858582 -0.69620132 0.01273382 124 5370860 41 32 77 1824
1.8431096 -0.68416268 -0.0049754051 275 5370860 107 33 62 1966
1.9092145 -0.63122517 -0.024006855 246 5370860 100 34 109 2011
1.9390327 -0.56451333 -0.043325871 289 5370860 118 35 116 2020
1.8852575 -0.779625 -0.060584415 242 5370860 101 36 136 2041
1.8936508 -0.70450342 -0.079030715 288 5370860 118 37 69 2022
1.9855283 -0.65737885 -0.10181687 306 5370860 134 38 146 2094
1.9755154 -0.5750972 -0.11968089 320 5370860 136 39 103 2061
1.9089899 -0.79119551 -0.13714506 284 5370860 122 40 99 2071
1.9828035 -0.7386958 -0.16032359 298 5370860 134 41 142 2122
2.0315633 -0.67324984 -0.18272848 328 5370860 151 42 153 2148
5.3203707 -1.5519493 -0.52593231 740 5370860 2294 43 94 5567
1.9946783 -0.82752573 -0.22293645 311 5370860 147 44 109 2171
5.2771974 -1.9684389 -0.6345585 661 5370860 2124 45 101 5668
5.3998952 -1.7926366 -0.69527823 499 5370860 1639 46 128 5732
5.5072718 -1.6079286 -0.75755811 510 5370860 1707 47 142 5787
5.3619447 -2.2297597 -0.81499624 518 5370860 1781 48 119 5864
5.4603133 -2.0394571 -0.87454593 494 5370860 1717 49 73 5894
5.5611577 -1.8494053 -0.93672478 512 5370860 1805 50 69 5935
5.6580091 -1.6536534 -1.0004027 470 5370860 1681 51 89 5979
5.5202436 -2.3013537 -1.0659792 442 5370860 1630 52 145 6075
5.6270103 -2.1049654 -1.1290039 496 5370860 1854 53 101 6113
5.7196031 -1.9040933 -1.1923077 428 5370860 1616 54 110 6145
5.8242755 -1.7021374 -1.2632307 456 5370860 1753 55 76 6198
5.663372 -2.3647366 -1.3314047 251 5370860 989 56 139 6280
5.7927289 -2.1704161 -1.4025832 401 5370860 1614 57 90 6343
7.2257557 -2.4070423 -1.8045874 163 5370860 1001 58 75 7827
8.2466383 -2.410851 -2.1262586 106 5370860 834 59 69 8851
5.4889727 -2.2994576 -1.5272236 209 5370860 787 60 53 6144
6.1353769 -2.3046625 -1.7477926 206 5370860 950 61 65 6783
6.9351053 -2.3117003 -2.0267601 127 5370860 734 62 59 7586
8.0067883 -2.3370924 -2.4060585 70 5370860 524 63 48 8681
5.0926771 -2.1402938 1.7242833 577 5468450 1933 0 82 5787
8.6509027 -3.2539871 2.7741585 218 5468450 2032 1 96 9650
2.4946165 -0.83282346 0.76153702 212 5468450 159 2 49 2738
2.3877265 -0.69837844 0.69492388 187 5468450 125 3 58 2583
8.6018181 -3.6099548 2.5200231 12 5468450 114 4 86 9663
2.3959 -0.90239745 0.66435552 239 5468450 167 5 67 2645
2.3062494 -0.77092183 0.60574698 219 5468450 138 6 87 2506
2.225708 -0.65343666 0.55450034 292 5468450 166 7 83 2385
2.33729 -0.98037088 0.58408034 209 5468450 141 8 106 2601
2.192934 -0.82499057 0.51539546 258 5468450 149 9 81 2399
2.1650579 -0.72502756 0.47932115 248 5468450 135 10 76 2333
2.056143 -0.60560429 0.42908654 277 5468450 132 11 40 2186
2.1474266 -0.90033644 0.44676042 256 5468450 144 12 121 2371
2.0708082 -0.77995414 0.40177861 240 5468450 122 13 84 2249
2.0288074 -0.67983365 0.3674337 243 5468450 115 14 101 2171
1.9892126 -0.58641922 0.33667052 262 5468450 116 15 97 2101
2.0380249 -0.85451019 0.34053361 226 5468450 113 16 45 2236
1.9838195 -0.74770445 0.30588123 233 5468450 107 17 93 2142
1.8734291 -0.62889552 0.26606479 246 5468450 98 18 92 1994
1.9022596 -0.56204873 0.24801412 217 5468450 87 19 106 1999
1.9556142 -0.81999689 0.24779668 206 5468450 94 20 76 2135
1.8681736 -0.70445251 0.21386613 220 5468450 89 21 60 2008
1.8537544 -0.623263 0.19069229 214 5468450 83 22 97 1965
1.8081105 -0.53529495 0.16626942 210 5468450 75 23 138 1893
1.8052988 -0.75737661 0.15675899 212 5468450 82 24 40 1964
1.7778952 -0.67094195 0.1339806 227 5468450 83 25 67 1905
1.7691964 -0.59490198 0.11373728 300 5468450 105 26 127 1870
1.7032598 -0.50535321 0.091462262 184 5468450 58 27 107 1779
1.7518902 -0.73597711 0.082599267 332 5468450 120 28 16 1902
1.7660924 -0.66719216 0.063981116 74 5468450 26 29 32 1889
1.7666403 -0.59589636 0.045989044 153 5468450 53 30 46 1865
1.8882096 -0.56098044 0.029430743 280 5468450 109 31 102 1970
1.6815547 -0.70653248 0.01273382 109 5468450 36 32 67 1824
1.838877 -0.69545895 -0.0049754051 259 5468450 100 33 93 1966
1.9053055 -0.642928 -0.024006855 264 5468450 107 34 126 2011
1.9240342 -0.57297623 -0.043068495 293 5468450 118 35 94 2008
1.8693823 -0.78652632 -0.060228206 239 5468450 98 36 125 2029
1.9005049 -0.72035933 -0.079499744 293 5468450 121 37 71 2034
1.9701022 -0.66571248 -0.10123339 306 5468450 133 38 115 2082
1.9834311 -0.5906269 -0.12037773 325 5468450 140 39 82 2073
1.926165 -0.81219834 -0.13873437 238 5468450 105 40 92 2095
1.9558595 -0.74235594 -0.15851031 283 5468450 125 41 105 2098
1.9934152 -0.67421037 -0.179666 329 5468450 147 42 142 2112
5.3336425 -1.5913965 -0.52819967 703 5468450 2198 43 110 5591
1.9895631 -0.83974928 -0.22293645 120 5468450 57 44 127 2171
5.2873135 -2.009254 -0.63724542 666 5468450 2158 45 101 5692
5.4000759 -1.8295583 -0.69673377 500 5468450 1650 46 122 5744
5.4973021 -1.6416904 -0.75755811 501 5468450 1676 47 158 5787
5.3700514 -2.2718785 -0.81833184 460 5468450 1595 48 122 5888
5.4587879 -2.077143 -0.8763265 452 5468450 1578 49 78 5906
5.5384846 -1.8796848 -0.93483078 439 5468450 1541 50 71 5923
5.6477561 -1.6883392 -1.0004027 518 5468450 1852 51 95 5979
5.5168948 -2.3397946 -1.0680848 434 5468450 1608 52 129 6087
5.6360292 -2.1478519 -1.1334363 449 5468450 1691 53 130 6137
5.7078123 -1.9391522 -1.1923077 429 5468450 1621 54 88 6145
5.7799535 -1.7277484 -1.2558935 449 5468450 1705 55 108 6162
5.5300241 -2.3490078 -1.3034197 251 5468450 947 56 151 6148
5.8011694 -2.2142651 -1.4078901 419 5468450 1700 57 81 6367
7.067131 -2.4024761 -1.7686203 149 5468450 880 58 60 7671
8.0642843 -2.4113491 -2.0830176 108 5468450 814 59 78 8671
5.3892169 -2.2966394 -1.5033609 213 5468450 778 60 50 6048
6.0344877 -2.3091147 -1.723056 196 5468450 875 61 46 6687
6.7675223 -2.3020732 -1.9818753 151 5468450 834 62 60 7418
7.8155289 -2.3334012 -2.352843 85 5468450 616 63 64 8489
5.0583835 -2.1624959 1.7171323 427 5565760 1419 0 101 5763
0 -0 0 8 5565760 0 1 133 0
2.467638 -0.84068036 0.75486177 268 5565760 198 2 70 2714
2.394469 -0.71632856 0.6981523 261 5565760 176 3 48 2595
8.3024912 -3.5444064 2.4386566 65 5565760 567 4 129 9351
2.4120069 -0.92540276 0.67038369 231 5565760 165 5 69 2669
2.2684138 -0.77378041 0.59704512 225 5565760 137 6 105 2470
2.2104785 -0.66372466 0.55171037 316 5565760 178 7 78 2373
2.3312306 -0.99469376 0.58408034 225 5565760 152 8 106 2601
2.1987743 -0.84262449 0.51797348 228 5565760 133 9 71 2411
2.1383421 -0.73070341 0.47439024 262 5565760 140 10 68 2309
2.0861881 -0.62839013 0.43615291 263 5565760 130 11 71 2222
2.1093409 -0.89962578 0.43997705 269 5565760 147 12 127 2335
2.0770071 -0.79687506 0.40392241 285 5565760 146 13 63 2261
1.9910256 -0.68079001 0.36134085 248 5565760 113 14 100 2135
1.9628955 -0.59177577 0.33282471 223 5565760 96 15 62 2077
2.0545616 -0.87630504 0.34418869 224 5565760 114 16 51 2260
1.9348425 -0.7428351 0.29902673 231 5565760 101 17 88 2094
1.8920369 -0.64808649 0.2692672 250 5565760 102 18 89 2018
1.86458 -0.56337827 0.24354763 212 5565760 82 19 89 1963
1.9395828 -0.82730472 0.24640393 212 5565760 96 20 101 2123
1.8860925 -0.72445875 0.21642229 231 5565760 95 21 85 2032
1.838598 -0.63075012 0.18952775 241 5565760 92 22 84 1953
1.7933509 -0.54291564 0.1652154 198 5565760 70 23 156 1881
1.822621 -0.77782971 0.15867457 192 5565760 76 24 57 1988
1.8072646 -0.69472343 0.13651252 214 5565760 81 25 59 1941
1.7768424 -0.60963351 0.11446714 263 5565760 93 26 129 1882
1.700127 -0.51579469 0.091462262 161 5565760 51 27 97 1779
1.7252929 -0.73729044 0.081557006 302 5565760 106 28 26 1878
1.7171934 -0.66078758 0.06235534 82 5565760 28 29 39 1841
1.6948904 -0.58330184 0.044213593 140 5565760 45 30 59 1793
1.8617706 -0.56558043 0.029072195 301 5565760 114 31 70 1946
1.6661537 -0.71212089 0.012650044 178 5565760 59 32 72 1812
1.8457729 -0.71104264 -0.0050057736 241 5565760 95 33 61 1978
1.8786335 -0.64679432 -0.023720348 239 5565760 94 34 107 1987
1.9434363 -0.5917604 -0.043583255 283 5565760 117 35 78 2032
1.8865757 -0.80742079 -0.06094062 262 5565760 110 36 114 2053
1.9184213 -0.74064428 -0.080437794 270 5565760 115 37 70 2058
1.9546492 -0.67388171 -0.10064992 310 5565760 133 38 131 2070
1.9912299 -0.6062752 -0.12107455 305 5565760 133 39 80 2085
1.7120661 -0.73432523 -0.12363584 21 5565760 7 40 94 1867
1.9512677 -0.75434285 -0.15851031 289 5565760 127 41 107 2098
1.9779385 -0.68252897 -0.17864518 334 5565760 147 42 140 2100
5.3352041 -1.627579 -0.52933335 724 5565760 2273 43 105 5603
0 -0 -0 0 5565760 0 44 108 0
5.2748857 -2.0416586 -0.63724542 639 5565760 2071 45 83 5692
5.4000058 -1.8665493 -0.69818932 467 5565760 1547 46 149 5756
5.4985037 -1.6788644 -0.75912899 521 5565760 1751 47 148 5799
5.3450942 -2.3000884 -0.81666404 494 5565760 1705 48 119 5876
5.4570055 -2.1148868 -0.87810707 453 5565760 1587 49 86 5918
5.5268464 -1.9136329 -0.93483078 494 5565760 1734 50 87 5923
5.6259766 -1.7195035 -0.99839497 484 5565760 1723 51 111 5967
5.4481964 -2.3502047 -1.0575567 724 5565760 2630 52 114 6027
5.6227441 -2.1823936 -1.1334363 442 5565760 1665 53 99 6137
5.7069287 -1.9779932 -1.1946359 425 5565760 1612 54 76 6157
5.7917137 -1.7700484 -1.260785 461 5565760 1765 55 85 6186
5.4401484 -2.3503377 -1.2856112 251 5565760 922 56 152 6064
5.7765665 -2.2455785 -1.4052367 395 5565760 1596 57 87 6355
6.8757434 -2.3845773 -1.7243528 170 5565760 953 58 79 7479
7.9268007 -2.4233243 -2.0513074 128 5565760 933 59 122 8539
5.2790408 -2.2880626 -1.4765151 196 5565760 693 60 65 5940
5.8797607 -2.2913663 -1.6828589 184 5565760 783 61 47 6531
6.6221733 -2.2980609 -1.9434026 163 5565760 865 62 65 7274
7.5584588 -2.307256 -2.2796719 88 5565760 599 63 60 8225
5.1185541 -2.2254646 1.7421608 534 5662420 1825 0 133 5847
8.6103201 -3.3599021 2.7741585 188 5662420 1749 1 134 9650
8.7772951 -3.0505025 2.69069 279 5662420 2615 2 180 9674
2.3789766 -0.72762692 0.69492388 264 5662420 176 3 63 2583
7.4517303 -3.2354083 2.194556 161 5662420 1142 4 88 8415
2.4062834 -0.94018513 0.67038369 234 5662420 167 5 62 2669
2.3076129 -0.80299181 0.60864764 238 5662420 151 6 106 2518
2.2175217 -0.68070036 0.55450034 302 5662420 172 7 85 2385
2.3143566 -1.0043242 0.58138561 211 5662420 141 8 113 2589
2.2481518 -0.87740493 0.53086376 231 5662420 141 9 71 2471
2.1559978 -0.75154155 0.47932115 270 5662420 147 10 65 2333
2.0935388 -0.64464164 0.43850839 258 5662420 129 11 55 2234
2.1470282 -0.93131065 0.44902158 245 5662420 139 12 123 2383
2.1160676 -0.82679176 0.41249746 226 5662420 121 13 64 2309
2.0314794 -0.70857412 0.36946467 252 5662420 120 14 2148 2183
1.9592274 -0.6038087 0.33282471 257 5662420 111 15 83 2077
2.0709071 -0.8983348 0.34784383 246 5662420 128 16 57 2284
1.9523712 -0.76334286 0.30245396 213 5662420 96 17 100 2118
1.8880247 -0.65968359 0.2692672 243 5662420 99 18 85 2018
