# .PCD v0.7 - Point Cloud Data file format
VERSION 0.7
FIELDS x y z intensity t reflectivity ring noise range
SIZE 4 4 4 4 4 2 1 2 4
TYPE F F F F U U U U U
COUNT 1 1 1 1 1 1 1 1 1
WIDTH 775
HEIGHT 1
VIEWPOINT 0 0 0 1 0 0 0
POINTS 775
DATA ascii
-1.9342656 3.6071916 0.55107707 681 67409910 1162 18 92 4130
-1.9918447 3.4090006 0.49367091 696 67409910 1102 19 124 3979
-1.7212123 3.8642156 0.4943167 682 67409910 1237 20 109 4259
-1.7968184 3.6681981 0.43753091 685 67409910 1156 21 140 4108
-1.8764188 3.5032768 0.38749838 705 67409910 1125 22 81 3993
-1.92645 3.3011785 0.33701834 716 67409910 1054 23 153 3837
-1.6670549 3.7445633 0.32820415 703 67409910 1189 24 98 4112
-1.7249084 3.5237291 0.27661189 682 67409910 1055 25 95 3933
-1.7973504 3.3559375 0.23197538 700 67409910 1017 26 169 3814
-1.8539764 3.1813221 0.18955672 709 67409910 964 27 118 3687
-1.5902377 3.576719 0.17014928 809 67409910 1243 28 77 3918
-1.6672487 3.4089518 0.12860577 648 67409910 935 29 62 3797
-1.7493818 3.2737823 0.091558881 712 67409910 981 30 54 3713
-1.800215 3.0916748 0.053453397 762 67409910 976 31 103 3578
-1.5354569 3.4539945 0.026389165 692 67409910 989 32 129 3780
-1.6217315 3.3189664 -0.0093484977 728 67409910 994 33 116 3694
-1.699447 3.1812694 -0.043059532 680 67409910 885 34 109 3607
-1.8050405 3.1045706 -0.07704284 172 67409910 222 35 91 3592
-1.4945992 3.3665166 -0.1093844 744 67409910 1010 36 151 3685
-1.5532382 3.1847072 -0.13859689 723 67409910 909 37 98 3546
-1.6223958 3.0400975 -0.16774985 275 67409910 328 38 177 3450
-1.690562 2.9075572 -0.19563557 700 67409910 795 39 113 3369
-1.4238619 3.2139881 -0.23329891 772 67409910 958 40 128 3523
-1.4874026 3.053236 -0.2573337 322 67409910 374 41 109 3406
-1.5697579 2.9434414 -0.28481144 714 67409910 800 42 165 3348
-1.673278 2.8814175 -0.31620181 680 67409910 762 43 69 3347
-1.3233203 2.9898601 -0.33753669 952 67409910 1029 44 180 3287
-1.5149845 3.1130276 -0.39004973 209 67409910 253 45 54 3484
-1.5380353 2.887599 -0.39979711 778 67409910 845 46 133 3296
-1.5481853 2.6675062 -0.40725127 29 67409910 28 47 128 3111
-1.3473512 3.0510585 -0.46809471 733 67409910 832 48 102 3368
-1.4328398 2.9475024 -0.4917281 743 67409910 816 49 83 3314
-1.4557409 2.736547 -0.49543035 150 67409910 148 50 58 3139
-0 0 -0 8 67409910 0 51 71 0
-1.3109478 2.9757884 -0.57957685 756 67409910 825 52 110 3303
-1.3413457 2.762845 -0.57715315 676 67409910 660 53 119 3125
-1.4591615 2.7450566 -0.61487758 138 67409910 139 54 91 3169
-0 0 -0 4 67409910 0 55 66 0
-1.2292536 2.7945764 -0.66231024 704 67409910 687 56 134 3124
-1.3508778 2.7861907 -0.70206553 349 67409910 352 57 75 3175
-1.4477453 2.7248418 -0.73110348 199 67409910 200 58 70 3171
-0 0 -0 0 67409910 0 59 72 0
-1.1902341 2.7144773 -0.760629 752 67409910 704 60 88 3060
-1.2586498 2.6015201 -0.77069843 497 67409910 445 61 68 2991
-1.3188771 2.4834459 -0.77960533 496 67409910 422 62 129 2918
-0 0 -0 4 67409910 0 63 41 0
-2.1391301 4.8937726 1.6670754 543 67508110 1701 0 79 5595
-2.2112741 4.5757179 1.5253559 652 67508110 1836 1 119 5306
-2.2911565 4.3190808 1.4157134 583 67508110 1511 2 82 5090
-2.3433237 4.0419984 1.3051009 685 67508110 1613 3 63 4851
-2.0311596 4.6403627 1.3683702 621 67508110 1710 4 100 5247
-2.0976274 4.3453913 1.2521029 642 67508110 1596 5 70 4985
-2.174732 4.1034131 1.1568656 618 67508110 1416 6 110 4786
-2.2249045 3.8467062 1.0622691 730 67508110 1524 7 91 4569
-1.9362022 4.421113 1.1122452 622 67508110 1526 8 110 4953
-2.0187526 4.1778975 1.0206935 651 67508110 1470 9 113 4751
-2.0679862 3.9071069 0.92802984 692 67508110 1413 10 87 4517
-2.1362712 3.7009134 0.85542506 719 67508110 1366 11 68 4358
-1.8566804 4.2377219 0.8876797 677 67508110 1502 12 132 4711
-1.9166623 3.9705086 0.80052024 683 67508110 1372 13 97 4481
-1.9961004 3.7730424 0.73300576 662 67508110 1241 14 117 4331
-2.0543928 3.5610752 0.66741198 725 67508110 1258 15 94 4165
-1.772042 4.044734 0.68045807 739 67508110 1476 16 75 4468
-1.8449862 3.8242421 0.61261928 710 67508110 1307 17 94 4290
-1.9232074 3.6400228 0.55427945 679 67508110 1172 18 85 4154
-1.9708899 3.4211583 0.49367091 684 67508110 1083 19 106 3979
-1.7070348 3.8965383 0.4971022 715 67508110 1312 20 124 4283
-1.7794598 3.6899014 0.43880901 673 67508110 1143 21 96 4120
-1.8548878 3.5147243 0.38749838 715 67508110 1141 22 90 3993
-1.918081 3.3336589 0.33912638 701 67508110 1045 23 158 3861
-1.6440473 3.7547216 0.32820415 700 67508110 1184 24 105 4112
-1.7136484 3.5558136 0.27829987 693 67508110 1085 25 97 3957
-1.7879052 3.3880894 0.23343511 671 67508110 988 26 152 3838
-1.8403916 3.2030289 0.19017366 707 67508110 967 27 103 3699
-1.5730648 3.5973938 0.17067042 777 67508110 1201 28 88 3930
-1.6619092 3.451535 0.1298251 677 67508110 995 29 66 3833
-1.7348502 3.2950697 0.091854788 719 67508110 998 30 60 3725
-1.7812109 3.1026626 0.053453397 731 67508110 936 31 107 3578
-1.5286559 3.496335 0.026640492 707 67508110 1029 32 118 3816
-1.5961342 3.3180406 -0.0093181292 699 67508110 948 33 117 3682
-1.6743064 3.1810193 -0.042916279 650 67508110 840 34 115 3595
-1.732259 3.0219119 -0.07472641 738 67508110 896 35 93 3484
-1.4739145 3.3756239 -0.1093844 744 67508110 1011 36 179 3685
-1.5388579 3.204987 -0.13906592 721 67508110 913 37 81 3558
-1.6316023 3.1030385 -0.17066726 500 67508110 616 38 209 3510
-1.6846056 2.9386618 -0.19702923 758 67508110 873 39 115 3393
-1.4232451 3.2665722 -0.23647754 787 67508110 1003 40 127 3571
-1.4841633 3.0946722 -0.2600536 296 67508110 351 41 126 3442
-1.5627909 2.9741864 -0.2868531 714 67508110 812 42 187 3372
-1.625888 2.8397937 -0.31053343 477 67508110 516 43 82 3287
-1.3859385 3.1839826 -0.35848513 153 67508110 186 44 122 3491
-1.4597894 3.0469861 -0.38064554 728 67508110 842 45 78 3400
-1.5202883 2.8969817 -0.39979711 622 67508110 676 46 119 3296
-1.6204169 2.8318422 -0.43081453 72 67508110 78 47 150 3291
-1.3380724 3.0810683 -0.4714303 748 67508110 861 48 117 3392
-1.4198501 2.9669433 -0.49350864 741 67508110 820 49 77 3326
-1.4994314 2.8608773 -0.51626396 89 67508110 95 50 51 3271
-1.5577974 2.7241728 -0.53257769 203 67508110 206 51 64 3183
-1.2926639 2.9837763 -0.57957685 754 67508110 823 52 123 3303
-1.3192824 2.7603824 -0.57493681 652 67508110 632 53 114 3113
-1.4532136 2.7748148 -0.61953425 154 67508110 157 54 94 3193
-0 0 -0 0 67508110 0 55 57 0
-1.2167393 2.8128297 -0.66485435 702 67508110 690 56 159 3136
-1.3186337 2.7627423 -0.69410509 518 67508110 511 57 81 3139
-1.4147528 2.7026389 -0.72280335 346 67508110 340 58 76 3135
-0 0 -0 0 67508110 0 59 85 0
-1.1873624 2.7537498 -0.76957756 756 67508110 724 60 50 3096
-1.2526348 2.6301303 -0.77688253 338 67508110 307 61 45 3015
-1.3089751 2.5017376 -0.78281134 422 67508110 362 62 128 2930
-0 0 -0 0 67508110 0 63 48 0
-2.1135857 4.9173298 1.6706508 496 67605380 1560 0 99 5607
-2.2029061 4.6307154 1.5391548 596 67605380 1709 1 120 5354
-2.264612 4.3330579 1.4157134 613 67605380 1589 2 89 5090
-2.3356841 4.0864029 1.3147862 685 67605380 1637 3 72 4887
-2.0118089 4.6740203 1.3746293 640 67605380 1779 4 93 5271
-2.0759103 4.3686714 1.2551171 688 67605380 1719 5 61 4997
-2.1656814 4.147645 1.1655674 655 67605380 1523 6 109 4822
-2.2128224 3.8805628 1.067849 730 67605380 1540 7 94 4593
-1.9136634 4.4436502 1.1149399 588 67605380 1450 8 101 4965
-1.9981134 4.200789 1.0232716 621 67605380 1409 9 108 4763
-2.0602641 3.9509623 0.93542618 692 67605380 1435 10 95 4553
-2.1251621 3.7344048 0.86013597 744 67605380 1429 11 62 4382
-1.8353062 4.2598577 0.88994074 668 67605380 1490 12 124 4723
-1.9074659 4.0141864 0.80695152 695 67605380 1419 13 64 4517
-1.9838445 3.8061945 0.73706764 673 67605380 1276 14 108 4355
-2.0500717 3.6045022 0.67318082 735 67605380 1297 15 85 4201
-1.751883 4.0664225 0.68228555 721 67605380 1448 16 68 4480
-1.8367715 3.8676765 0.61776012 696 67605380 1303 17 109 4326
-1.9008365 3.6517549 0.55427945 698 67605380 1205 18 82 4154
-1.9675025 3.4642489 0.49813744 696 67605380 1122 19 97 4015
-1.6925254 3.9288321 0.49988776 694 67605380 1288 20 114 4307
-1.767019 3.7223079 0.44136515 693 67605380 1190 21 106 4144
-1.8498155 3.5578296 0.39099199 694 67605380 1127 22 89 4029
-1.9034877 3.3557625 0.34018037 703 67605380 1054 23 151 3873
-1.6257082 3.7757254 0.32916194 701 67605380 1192 24 113 4124
-1.7020591 3.5878913 0.27998778 743 67605380 1178 25 104 3981
-1.7670827 3.3989959 0.23343511 665 67605380 979 26 157 3838
-1.8325168 3.2351162 0.19140755 705 67605380 977 27 116 3723
-1.5604335 3.6290054 0.17171267 777 67605380 1215 28 81 3954
-1.6561095 3.4941797 0.13104443 657 67605380 984 29 69 3869
-1.7145993 3.3056524 0.091854788 690 67605380 958 30 73 3725
-1.7680498 3.1239758 0.053632673 732 67605380 944 31 110 3590
-1.5166531 3.5276968 0.02680804 677 67605380 998 32 117 3840
-1.5911515 3.3603086 -0.0094092349 712 67605380 984 33 139 3718
-1.6713271 3.2231894 -0.04334604 666 67605380 879 34 93 3631
-1.7195867 3.0429287 -0.074983791 760 67605380 929 35 87 3496
-1.4673709 3.4176695 -0.11045302 717 67605380 992 36 154 3721
-1.5345346 3.246892 -0.14047299 702 67605380 907 37 76 3594
-1.5959929 3.0810633 -0.16891682 717 67605380 865 38 221 3474
-1.6606485 2.9385135 -0.1963324 731 67605380 836 39 98 3381
-1.4031749 3.2752435 -0.23647754 765 67605380 976 40 103 3571
-1.4804708 3.1361825 -0.26277351 652 67605380 789 41 126 3478
-1.5555052 3.004956 -0.28889477 761 67605380 877 42 153 3396
-1.6319207 2.8913307 -0.31506816 46 67605380 52 43 79 3335
-1.3851631 3.2363214 -0.36341417 570 67605380 714 44 141 3539
-1.4461521 3.0666714 -0.381989 715 67605380 833 45 74 3412
-1.5298352 2.9591606 -0.40707496 70 67605380 79 46 130 3356
-1.5445598 2.7381134 -0.41510573 544 67605380 547 47 159 3171
-1.3238088 3.1001492 -0.47309807 778 67605380 901 48 111 3404
-1.4016185 2.9755995 -0.49350864 593 67605380 656 49 76 3326
-1.4492313 2.80685 -0.50490016 502 67605380 513 50 47 3199
-1.5236235 2.7027619 -0.52655417 441 67605380 437 51 76 3147
-1.2789612 3.0025206 -0.58168244 755 67605380 830 52 128 3315
-1.3073404 2.7790973 -0.57715315 657 67605380 642 53 117 3125
-1.4253656 2.7627559 -0.61487758 407 67605380 409 54 85 3169
-0 0 -0 0 67605380 0 55 40 0
-1.2086366 2.841826 -0.6699425 681 67605380 680 56 149 3160
-1.2917049 2.7495968 -0.68879819 600 67605380 582 57 102 3115
-1.376736 2.6697564 -0.71173644 444 67605380 423 58 91 3087
-1.4503987 2.5732882 -0.73101401 355 67605380 329 59 73 3043
-1.1659068 2.7502818 -0.76659471 684 67605380 651 60 62 3084
-1.2512368 2.6692626 -0.78615874 219 67605380 203 61 57 3051
-1.3200902 2.561116 -0.79884166 266 67605380 238 62 90 2990
-0 0 -0 0 67605380 0 63 50 0
-2.1056678 4.9829636 1.6885283 536 67702440 1722 0 83 5667
-2.1744511 4.644145 1.5391548 587 67702440 1683 1 119 5354
-2.2643631 4.3981118 1.4324015 564 67702440 1497 2 71 5150
-2.3105662 4.1006575 1.3147862 670 67702440 1601 3 60 4887
-2.0056653 4.7396202 1.3902767 611 67702440 1737 4 106 5331
-2.0687485 4.4234123 1.2671733 652 67702440 1658 5 56 5045
-2.1455173 4.1712103 1.1684681 652 67702440 1523 6 135 4834
-2.2004082 3.9144149 1.0734289 749 67702440 1597 7 116 4617
-1.9000393 4.4876132 1.1230241 619 67702440 1548 8 111 5001
-1.9723002 4.2129698 1.0232716 602 67702440 1366 9 125 4763
-2.0467148 3.984422 0.94035697 671 67702440 1407 10 71 4577
-2.1022081 3.7473743 0.86013597 739 67702440 1418 11 53 4382
-1.8137302 4.2818904 0.8922019 692 67702440 1552 12 119 4735
-1.8928033 4.0472054 0.81123912 675 67702440 1393 13 89 4541
-1.9604528 3.8182955 0.73706764 650 67702440 1232 14 119 4355
-2.0221236 3.6066813 0.67125785 734 67702440 1288 15 83 4189
-1.7361503 4.098937 0.68594068 701 67702440 1423 16 74 4504
-1.8130053 3.8788738 0.61776012 704 67702440 1318 17 97 4326
-1.8838202 3.6739321 0.55588067 686 67702440 1191 18 89 4166
-1.9578427 3.4970355 0.50111502 691 67702440 1127 19 116 4039
-1.6683866 3.9391432 0.49988776 707 67702440 1312 20 111 4307
-1.7592981 3.7655106 0.44519943 703 67702440 1229 21 98 4180
-1.8333946 3.5797431 0.39215651 679 67702440 1109 22 87 4041
-1.8770275 3.3569458 0.33912638 712 67702440 1061 23 141 3861
-1.6164993 3.8186758 0.33203533 720 67702440 1247 24 82 4160
-1.6749481 3.5874209 0.27914381 692 67702440 1090 25 92 3969
-1.7625725 3.4417577 0.2356247 675 67702440 1013 26 133 3874
-1.8184744 3.2567627 0.19202448 681 67702440 950 27 136 3735
-1.542805 3.649554 0.17223381 757 67702440 1191 28 89 3966
-1.6346383 3.5042756 0.13104443 666 67702440 998 29 61 3869
-1.7106582 3.3481591 0.09274251 701 67702440 991 30 54 3761
-1.7663853 3.1662004 0.054170493 739 67702440 972 31 96 3626
-1.4996508 3.5479896 0.026891816 692 67702440 1026 32 135 3852
-1.5806408 3.391762 -0.009469972 714 67702440 1000 33 128 3742
-1.6624346 3.2547555 -0.043632548 665 67702440 889 34 109 3655
-1.7008834 3.0534227 -0.074983791 729 67702440 891 35 92 3496
-1.4417083 3.4155581 -0.1100968 746 67702440 1026 36 164 3709
-1.5145831 3.2562466 -0.14047299 700 67702440 905 37 94 3594
-1.5879529 3.1121507 -0.17008378 713 67702440 873 38 196 3498
-1.6484168 2.9591134 -0.19702923 738 67702440 850 39 119 3393
-1.3876996 3.2948265 -0.2372722 783 67702440 1005 40 146 3583
-1.4712826 3.1669111 -0.26458681 704 67702440 863 41 129 3502
-1.542469 3.0250957 -0.28991562 760 67702440 882 42 140 3408
-1.5618768 2.8073349 -0.30486503 107 67702440 112 43 72 3227
-1.3560206 3.222755 -0.36094964 801 67702440 990 44 131 3515
-1.432328 3.0863037 -0.38333246 744 67702440 873 45 84 3424
-1.4738131 2.894191 -0.39688593 80 67702440 86 46 118 3272
-1.5103859 2.7163465 -0.41039306 702 67702440 690 47 152 3135
-1.3093613 3.1191709 -0.47476587 764 67702440 891 48 113 3416
-1.438235 3.1025763 -0.51309466 150 67702440 180 49 80 3458
-1.3997518 2.7523165 -0.49353635 704 67702440 689 50 76 3127
-1.5012646 2.7017183 -0.52454638 188 67702440 185 51 89 3135
-1.2833288 3.0647969 -0.59221071 442 67702440 503 52 139 3375
-1.2952181 2.7977688 -0.57936937 669 67702440 658 53 131 3137
-1.3763881 2.7084823 -0.6009075 587 67702440 563 54 91 3097
-1.4979484 2.6956398 -0.64200979 68 67702440 67 55 54 3150
-1.1866534 2.8383689 -0.66739845 676 67702440 670 56 140 3148
-1.2600764 2.7256026 -0.68083775 655 67702440 621 57 90 3079
-1.339177 2.6365106 -0.70066959 437 67702440 404 58 99 3039
-1.4006386 2.5210435 -0.71371758 493 67702440 435 59 106 2971
-1.1400677 2.7359259 -0.760629 597 67702440 560 60 62 3060
-1.278546 2.771647 -0.81398737 213 67702440 212 61 48 3159
-1.3619341 2.6825891 -0.83410823 114 67702440 111 62 77 3122
-1.4032855 2.5233176 -0.83287704 366 67702440 330 63 36 3005
-2.0838413 5.0169477 1.6956794 492 67800630 1595 0 69 5691
-2.1699624 4.7095933 1.5564034 371 67800630 1088 1 89 5414
-2.2477605 4.4324832 1.4390769 592 67800630 1583 2 57 5174
-2.2909734 4.1248612 1.3180147 692 67800630 1660 3 55 4899
-1.9809951 4.7625341 1.3934062 558 67800630 1593 4 110 5343
-2.0464239 4.4465742 1.2701875 644 67800630 1648 5 71 5057
-2.1198828 4.1842966 1.1684681 623 67800630 1456 6 133 4834
-2.1820049 3.9380517 1.0762188 733 67800630 1571 7 116 4629
-1.8859471 4.5315747 1.1311083 630 67800630 1598 8 130 5037
-1.9660282 4.267571 1.0335838 624 67800630 1444 9 113 4811
-2.0328321 4.0178638 0.94528788 676 67800630 1432 10 80 4601
-2.0905626 3.780797 0.86484689 714 67800630 1385 11 50 4406
-1.7964828 4.3146982 0.89672416 699 67800630 1583 12 143 4759
-1.8778068 4.080194 0.8155266 687 67800630 1432 13 94 4565
-1.9476619 3.851361 0.74112958 626 67800630 1200 14 132 4379
-2.0114138 3.6397557 0.67510372 721 67800630 1280 15 82 4213
-1.7246426 4.1423597 0.69142342 702 67800630 1448 16 69 4540
-1.8040599 3.922296 0.6229009 685 67800630 1304 17 113 4362
-1.8719642 3.7066531 0.55908298 661 67800630 1161 18 77 4190
-1.9478544 3.5298336 0.50409275 685 67800630 1131 19 108 4063
-1.6579281 3.9823165 0.50406611 718 67800630 1354 20 123 4343
-1.731176 3.7653937 0.44392133 700 67800630 1216 21 101 4168
-1.8060161 3.5802617 0.39099199 670 67800630 1088 22 92 4029
-1.879473 3.4102757 0.34334239 702 67800630 1074 23 173 3909
-1.6022284 3.85061 0.33395091 721 67800630 1263 24 92 4184
-1.6728944 3.6411395 0.2825197 720 67800630 1162 25 111 4017
-1.7468153 3.4632022 0.23635457 675 67800630 1018 26 169 3886
-1.7984571 3.2678595 0.19202448 711 67800630 992 27 119 3735
-1.5295832 3.6810939 0.17327607 786 67800630 1252 28 85 3990
-1.6231121 3.5360389 0.13185732 654 67800630 992 29 72 3893
-1.7062594 3.3907406 0.093630239 696 67800630 1004 30 58 3797
-1.7469246 3.1769793 0.054170493 712 67800630 936 31 118 3626
-1.4824564 3.5682056 0.026975591 694 67800630 1036 32 121 3864
-1.5447935 3.3686736 -0.0093788663 695 67800630 955 33 112 3706
-1.6424325 3.2648947 -0.043632548 665 67800630 889 34 103 3655
-1.6936637 3.0848346 -0.075498551 722 67800630 895 35 100 3520
-1.4345134 3.4575772 -0.11116542 742 67800630 1040 36 170 3745
-1.4995649 3.2763817 -0.14094202 727 67800630 946 37 83 3606
-1.5795909 3.1432548 -0.17125073 736 67800630 913 38 224 3522
-1.659057 3.0216773 -0.20051339 607 67800630 724 39 73 3453
-1.3766165 3.3254056 -0.23886152 796 67800630 1035 40 138 3607
-1.4468484 3.1649966 -0.26368016 686 67800630 835 41 144 3490
-1.5292441 3.045188 -0.29093641 750 67800630 878 42 173 3420
-1.5848289 2.8901894 -0.31280077 87 67800630 96 43 81 3311
-1.3407824 3.2420452 -0.3621819 792 67800630 985 44 148 3527
-1.4232706 3.1167283 -0.38601935 725 67800630 862 45 93 3448
-1.5040865 2.9990058 -0.40998611 61 67800630 70 46 102 3380
-1.53943 2.809025 -0.42296013 723 67800630 754 47 159 3231
-1.2947302 3.1381316 -0.47643369 788 67800630 926 48 111 3428
-1.3797723 3.0249665 -0.49885029 413 67800630 467 49 68 3362
-1.393451 2.7820435 -0.49732432 690 67800630 685 50 56 3151
-1.5017076 2.7420089 -0.53056985 70 67800630 71 51 81 3171
-1.2959714 3.1490874 -0.6069501 90 67800630 108 52 117 3459
-1.2878047 2.8271286 -0.58380193 698 67800630 698 53 102 3161
-1.3650119 2.7274039 -0.6032359 629 67800630 608 54 134 3109
-1.44752 2.6429567 -0.62733525 361 67800630 342 55 49 3078
-1.1647582 2.8347495 -0.66485435 663 67800630 652 56 147 3136
-1.2433287 2.733283 -0.68083775 667 67800630 633 57 87 3079
-1.3281984 2.6551211 -0.70343632 345 67800630 321 58 82 3051
-1.3851434 2.5295904 -0.71371758 417 67800630 368 59 104 2971
-1.1364738 2.7751386 -0.76957756 500 67800630 480 60 71 3096
-1.242347 2.7372069 -0.80161911 530 67800630 513 61 64 3111
-1.3247623 2.6495233 -0.821284 248 67800630 235 62 68 3074
-1.3600669 2.4813271 -0.81624722 573 67800630 497 63 91 2945
-2.0616765 5.0508499 1.7028303 523 67897190 1709 0 87 5715
-2.1172965 4.6704793 1.5391548 486 67897190 1393 1 111 5354
-2.235971 4.4771276 1.4490898 629 67897190 1708 2 74 5210
-2.2656205 4.1388407 1.3180147 670 67897190 1609 3 63 4899
-1.9561187 4.7853227 1.3965356 405 67897190 1161 4 123 5355
-2.0334756 4.4907908 1.2792298 610 67897190 1583 5 61 5093
-2.1149631 4.2389021 1.1800706 633 67897190 1509 6 109 4882
-2.168988 3.9718528 1.0817987 700 67897190 1516 7 79 4653
-1.8713865 4.5755315 1.1391925 640 67897190 1647 8 109 5073
-1.9494827 4.3009024 1.0387398 617 67897190 1442 9 126 4835
-2.0238531 4.0617952 0.9526841 680 67897190 1463 10 74 4637
-2.0729551 3.8038852 0.86720234 728 67897190 1422 11 58 4418
-1.7878267 4.3692689 0.90576863 668 67897190 1544 12 102 4807
-1.8624763 4.1131506 0.81981415 663 67897190 1397 13 100 4589
-1.9398111 3.8949995 0.74722248 645 67897190 1257 14 108 4415
-2.0060389 3.6832352 0.68087244 723 67897190 1305 15 98 4249
-1.7081755 4.1748171 0.69507843 692 67897190 1443 16 62 4564
-1.7848558 3.9441125 0.62461454 673 67897190 1288 17 103 4374
-1.8597775 3.7393663 0.56228542 696 67897190 1236 18 104 4214
-1.9261591 3.5417187 0.50409275 708 67897190 1169 19 106 4063
-1.6334618 3.9924142 0.50406611 679 67897190 1281 20 110 4343
-1.7277097 3.8194299 0.44903365 667 67897190 1186 21 90 4216
-1.7999545 3.6233644 0.39448556 677 67897190 1119 22 83 4065
-1.8585125 3.4217436 0.34334239 705 67897190 1077 23 157 3909
-1.5830988 3.8714404 0.33490872 732 67897190 1289 24 102 4196
-1.6505213 3.6513357 0.2825197 699 67897190 1128 25 115 4017
-1.7308612 3.4845827 0.23708443 682 67897190 1036 26 125 3898
-1.7955129 3.3104362 0.19387533 705 67897190 1002 27 125 3771
-1.5250965 3.7348058 0.17536059 747 67897190 1218 28 98 4038
-1.5964487 3.5350015 0.13145088 645 67897190 971 29 44 3881
-1.6800954 3.3903973 0.093334325 686 67897190 984 30 64 3785
-1.733115 3.1981876 0.054349769 726 67897190 961 31 106 3638
-1.4650702 3.5883443 0.027059367 689 67897190 1035 32 113 3876
-1.5438347 3.4218419 -0.0095003415 702 67897190 989 33 128 3754
-1.627695 3.2856631 -0.043775797 673 67897190 905 34 106 3667
-1.6804128 3.1057203 -0.075755931 749 67897190 934 35 93 3532
-1.4132711 3.4663141 -0.11116542 745 67897190 1045 36 134 3745
-1.4892796 3.3073883 -0.14188007 703 67897190 927 37 94 3630
-1.5549585 3.1421454 -0.17066726 721 67897190 888 38 232 3510
-1.6746917 3.0950177 -0.20469438 253 67897190 315 39 91 3525
-1.3652099 3.3559721 -0.24045084 787 67897190 1037 40 134 3631
-1.437217 3.1956403 -0.26549342 701 67897190 866 41 118 3514
-1.5264307 3.0866666 -0.29399893 289 67897190 345 42 158 3456
-1.5841037 2.9313891 -0.31620181 249 67897190 279 43 67 3347
-1.3298523 3.2723277 -0.3646464 803 67897190 1013 44 128 3551
-1.3943465 3.1036482 -0.38333246 600 67897190 704 45 65 3424
-1.5067548 3.0508981 -0.41580841 88 67897190 104 46 109 3428
-1.5391252 2.8498211 -0.42767277 735 67897190 784 47 167 3267
-1.2799153 3.1570296 -0.47810146 797 67897190 943 48 114 3440
-1.2931666 2.8817971 -0.47392261 900 67897190 918 49 57 3194
-1.4235287 2.8861861 -0.51437002 692 67897190 735 50 69 3259
-1.4455206 2.6782928 -0.51651502 96 67897190 92 51 68 3087
-1.2101912 2.9926965 -0.57536554 685 67897190 737 52 92 3279
-1.2800792 2.8565021 -0.58823442 669 67897190 679 53 102 3185
-1.3430471 2.7251687 -0.6009075 639 67897190 613 54 115 3097
-1.4312758 2.6517889 -0.62733525 342 67897190 324 55 57 3078
-1.1561232 2.8635917 -0.6699425 609 67897190 608 56 137 3160
-1.2360946 2.7622247 -0.68614465 652 67897190 628 57 86 3103
-1.3583202 2.7574942 -0.72833675 207 67897190 207 58 74 3159
-1.3972553 2.589298 -0.72813123 296 67897190 272 59 85 3031
-1.1367798 2.8251925 -0.78150898 344 67897190 340 60 55 3144
-1.2066197 2.7024291 -0.78925085 593 67897190 557 61 69 3063
-1.2982644 2.6368532 -0.81487191 483 67897190 450 62 62 3050
-1.3338568 2.4693367 -0.80959535 618 67897190 527 63 95 2921
-2.0519652 5.1165643 1.7207078 505 67995440 1685 0 96 5775
-2.1026428 4.7148738 1.549504 513 67995440 1491 1 112 5390
-2.2135446 4.5011067 1.4524274 565 67995440 1541 2 81 5222
-2.2676189 4.2035236 1.334157 696 67995440 1711 3 51 4959
-1.913767 4.7649851 1.3871472 599 67995440 1695 4 87 5319
-2.0200608 4.5350142 1.288272 626 67995440 1647 5 74 5129
-2.1043174 4.2831526 1.1887724 674 67995440 1631 6 104 4918
-2.1556377 4.0056415 1.0873785 740 67995440 1619 7 81 4677
-1.8563569 4.6194782 1.1472765 572 67995440 1493 8 121 5109
-1.9230561 4.3127832 1.0387398 577 67995440 1349 9 128 4835
-1.9937195 4.0635934 0.95021868 676 67995440 1445 10 51 4625
-2.0662768 3.8476317 0.87426865 709 67995440 1407 11 68 4454
-1.7697759 4.4020257 0.9102909 670 67995440 1563 12 150 4831
-1.851616 4.156857 0.82624543 660 67995440 1413 13 91 4625
-1.9262899 3.9280658 0.7512843 677 67995440 1334 14 115 4439
-1.9890029 3.7059116 0.68279535 699 67995440 1270 15 69 4261
-1.686951 4.1962242 0.69690603 664 67995440 1391 16 75 4576
-1.7702821 3.976691 0.6280418 669 67995440 1295 17 91 4398
-1.8420287 3.7613881 0.56388658 673 67995440 1202 18 100 4226
-1.9100159 3.563966 0.50558156 687 67995440 1141 19 108 4075
-1.631162 4.0576558 0.51102996 687 67995440 1332 20 101 4403
-1.7090924 3.8408604 0.45031175 670 67995440 1198 21 126 4228
-1.782936 3.6450694 0.39565009 707 67995440 1176 22 84 4077
-1.843123 3.4436219 0.34439638 720 67995440 1107 23 148 3921
-1.5593143 3.8810813 0.33490872 701 67995440 1234 24 111 4196
-1.6378133 3.68327 0.28420767 702 67995440 1146 25 103 4041
-1.71471 3.505897 0.23781429 684 67995440 1045 26 139 3910
-1.7864645 3.3425293 0.19510922 692 67995440 996 27 120 3795
-1.4976875 3.7329667 0.17483945 782 67995440 1268 28 89 4026
-1.5942043 3.5885715 0.13307665 658 67995440 1016 29 69 3929
-1.6697819 3.4222052 0.093926147 672 67995440 976 30 72 3809
-1.7247623 3.2299299 0.054708313 745 67995440 999 31 108 3662
-1.4519601 3.6195402 0.027226916 687 67995440 1045 32 109 3900
-1.5228096 3.4312503 -0.0095003415 711 67995440 1002 33 126 3754
-1.6075039 3.2955885 -0.043775797 693 67995440 932 34 99 3667
-1.6669692 3.1265593 -0.076013319 759 67995440 953 35 100 3544
-1.3964359 3.4860551 -0.11152163 719 67995440 1014 36 156 3757
-1.4738139 3.3274276 -0.14234909 722 67995440 958 37 81 3642
-1.5513997 3.1839519 -0.17241769 704 67995440 885 38 212 3546
-1.542943 2.8938148 -0.19075774 1112 67995440 1200 39 116 3285
-1.3445925 3.3642857 -0.24045084 775 67995440 1022 40 127 3631
-1.4224228 3.2153418 -0.26640007 729 67995440 906 41 113 3526
-1.4917598 3.0637248 -0.29093641 52 67995440 60 42 152 3420
-1.5941616 2.9937766 -0.32187021 405 67995440 470 43 80 3407
-1.3053226 3.2693403 -0.36341417 781 67995440 978 44 130 3539
-1.4186556 3.2103086 -0.39542353 139 67995440 174 45 90 3532
-1.4880064 3.060086 -0.41580841 122 67995440 143 46 124 3428
-1.5216101 2.8592112 -0.42767277 676 67995440 722 47 176 3267
-1.2781088 3.2089839 -0.48477265 433 67995440 527 48 117 3488
-1.3281715 3.0091007 -0.49350864 378 67995440 419 49 68 3326
-1.4161452 2.9161851 -0.51815796 731 67995440 788 50 64 3283
-1.4901663 2.8020127 -0.53860116 53 67995440 55 51 77 3219
-1.1569129 2.9122324 -0.55852044 698 67995440 707 52 125 3183
-1.2958254 2.9398446 -0.60374832 676 67995440 722 53 109 3269
-1.3365786 2.75454 -0.60556418 656 67995440 639 54 117 3121
-1.4094614 2.6501489 -0.62488955 292 67995440 275 55 76 3066
-1.1471779 2.8924339 -0.67503071 505 67995440 512 56 146 3184
-1.2238374 2.7804687 -0.68879819 649 67995440 630 57 87 3115
-1.3311841 2.7447641 -0.72280335 157 67995440 154 58 54 3135
-1.4086856 2.6492476 -0.74254489 180 67995440 172 59 72 3091
-1.1493317 2.9077816 -0.80238903 165 67995440 172 60 60 3228
-1.1900152 2.7097816 -0.78925085 645 67995440 605 61 57 3063
-1.2568398 2.5927413 -0.79884166 577 67995440 516 62 78 2990
-1.3132627 2.4672966 -0.80626935 588 67995440 498 63 97 2909
-2.0373261 5.17169 1.7350098 426 68093940 1445 0 97 5823
-2.1013737 4.7908392 1.5702025 597 68093940 1781 1 108 5462
-2.1909077 4.5249786 1.455765 610 68093940 1672 2 65 5234
-2.2472086 4.2275639 1.3373854 684 68093940 1691 3 71 4971
-1.8972481 4.8089671 1.3965356 598 68093940 1715 4 107 5355
-2.0061796 4.5792408 1.2973143 610 68093940 1628 5 69 5165
-2.0729265 4.285501 1.1858718 638 68093940 1535 6 128 4906
-2.1364868 4.0291042 1.0901685 721 68093940 1586 7 71 4689
-1.832271 4.6416583 1.1499714 613 68093940 1607 8 132 5121
-1.9106785 4.3567009 1.046474 618 68093940 1467 9 89 4871
-1.9840726 4.1074753 0.95761502 647 68093940 1407 10 78 4661
-2.0426292 3.8602378 0.87426865 709 68093940 1406 11 47 4454
-1.7470611 4.4237628 0.91255206 664 68093940 1556 12 172 4843
-1.835551 4.1897697 0.83053303 707 68093940 1529 13 76 4649
-1.9021515 3.9398115 0.7512843 638 68093940 1257 14 121 4439
-1.9662265 3.7180459 0.68279535 691 68093940 1255 15 74 4261
-1.6785965 4.2506199 0.70421618 694 68093940 1485 16 94 4624
-1.7553755 4.0092382 0.63146907 695 68093940 1360 17 90 4422
-1.8240796 3.7833323 0.5654878 681 68093940 1223 18 91 4238
-1.8992319 3.5966771 0.50855917 708 68093940 1190 19 124 4099
-1.6106117 4.0786738 0.51242268 677 68093940 1320 20 114 4415
-1.6950608 3.8731365 0.45286793 679 68093940 1228 21 87 4252
-1.7657186 3.6667013 0.39681464 697 68093940 1166 22 79 4089
-1.8331106 3.4760129 0.34650439 700 68093940 1089 23 154 3945
-1.5486449 3.9239559 0.33778211 679 68093940 1216 24 100 4232
-1.6295714 3.7261519 0.28673956 709 68093940 1178 25 108 4077
-1.7087553 3.548728 0.24000388 697 68093940 1085 26 145 3946
-1.7770895 3.3746357 0.19634312 706 68093940 1029 27 128 3819
-1.4879414 3.7755475 0.17640285 775 68093940 1279 28 104 4062
-1.576957 3.6092758 0.1334831 648 68093940 1007 29 67 3941
-1.6539464 3.4431999 0.094222054 697 68093940 1017 30 52 3821
-1.716085 3.2616892 0.055066861 753 68093940 1023 31 102 3686
-1.4429212 3.6618738 0.02747824 703 68093940 1089 32 96 3936
-1.5065277 3.4515274 -0.0095307101 724 68093940 1027 33 126 3766
-1.6028348 3.3378401 -0.044205558 676 68093940 927 34 93 3703
-1.6589122 3.1579707 -0.07652808 753 68093940 959 35 104 3568
-1.3881952 3.528043 -0.11259024 704 68093940 1012 36 143 3793
-1.4629468 3.3583944 -0.14328714 755 68093940 1015 37 71 3666
-1.5370179 3.2042177 -0.17300116 695 68093940 880 38 227 3558
-1.5140152 2.8820169 -0.18936408 843 68093940 897 39 179 3261
-1.3370503 3.4059091 -0.24283482 805 68093940 1082 40 123 3667
-1.4122144 3.2459533 -0.26821336 701 68093940 883 41 116 3550
-1.4625967 3.0512567 -0.28889477 67 68093940 77 42 142 3396
-1.5480117 2.9506078 -0.31620181 730 68093940 818 43 76 3347
-1.2983117 3.3106258 -0.36711097 811 68093940 1036 44 162 3575
-1.3751664 3.1642709 -0.38870627 410 68093940 495 45 72 3472
-1.4486297 3.0261831 -0.40998611 679 68093940 776 46 111 3380
-1.5482334 2.9527838 -0.44023982 86 68093940 97 47 134 3363
-1.2930295 3.3053007 -0.498115 127 68093940 163 48 104 3584
-1.3522103 3.1151662 -0.50953358 386 68093940 456 49 78 3434
-1.4033359 2.9355102 -0.5200519 735 68093940 798 50 75 3295
-1.4454907 2.7587063 -0.52856201 422 68093940 421 51 40 3159
-1.224905 3.1393912 -0.6006332 93 68093940 109 52 118 3423
-1.2918339 2.9802024 -0.6103971 697 68093940 761 53 113 3305
-1.309504 2.7414448 -0.6009075 685 68093940 657 54 124 3097
-1.4095321 2.6899655 -0.63222682 144 68093940 139 55 77 3102
-1.1677177 2.9977653 -0.69792742 408 68093940 442 56 147 3292
-1.2114024 2.7986655 -0.69145161 674 68093940 659 57 105 3127
-1.3344409 2.7950299 -0.73387015 408 68093940 414 58 74 3183
-1.3924036 2.6578414 -0.74254489 261 68093940 250 59 67 3091
-1.1945612 3.0773132 -0.84713191 60 68093940 69 60 44 3408
-1.1687689 2.7063878 -0.78615874 648 68093940 604 61 59 3051
-1.235927 2.5899677 -0.79563558 461 68093940 409 62 72 2978
-1.292744 2.4650972 -0.80294335 486 68093940 408 63 87 2897
-1.9807568 5.1199932 1.7135569 561 68191050 1856 0 106 5751
-2.1083543 4.8880715 1.5978001 558 68191050 1724 1 126 5558
-2.1779799 4.5695519 1.465778 596 68191050 1656 2 86 5270
-2.2426746 4.2822266 1.3502992 656 68191050 1654 3 67 5019
-1.9053732 4.9177384 1.4247011 603 68191050 1800 4 112 5463
-1.9826397 4.6021318 1.3003283 658 68191050 1764 5 62 5177
-2.0566041 4.3191662 1.1916732 666 68191050 1619 6 90 4930
-2.1279373 4.0731711 1.0985384 732 68191050 1635 7 95 4725
-1.8164359 4.6855221 1.1580554 621 68191050 1652 8 112 5157
-1.8978336 4.4006276 1.0542082 626 68191050 1507 9 124 4907
-1.9739615 4.1513901 0.96501124 670 68191050 1479 10 74 4697
-2.0406625 3.9144342 0.8836906 708 68191050 1436 11 65 4502
-1.7369306 4.4783497 0.92159653 665 68191050 1591 12 132 4891
-1.8191516 4.2226405 0.83482057 701 68191050 1532 13 91 4673
-1.8931715 3.9834545 0.75737727 640 68191050 1281 14 122 4475
-1.954322 3.7510502 0.68664122 708 68191050 1300 15 78 4285
-1.6567721 4.2718973 0.70604372 652 68191050 1402 16 65 4636
-1.7401356 4.0417509 0.63489628 698 68191050 1380 17 95 4446
-1.8212274 3.8374298 0.57189256 686 68191050 1260 18 106 4286
-1.8881181 3.6293898 0.5115369 684 68191050 1163 19 115 4123
-1.5898645 4.0995917 0.5138154 678 68191050 1329 20 106 4427
-1.6759804 3.8944242 0.45414603 673 68191050 1224 21 124 4264
-1.7534183 3.6990514 0.39914373 666 68191050 1127 22 98 4113
-1.8172587 3.497803 0.34755841 726 68191050 1136 23 156 3957
-1.5288618 3.9445376 0.3387399 722 68191050 1301 24 90 4244
-1.6066775 3.7360806 0.28673956 672 68191050 1117 25 110 4077
-1.6818185 3.5483224 0.23927402 692 68191050 1071 26 127 3934
-1.7563496 3.3854761 0.19634312 699 68191050 1019 27 101 3819
-1.4690742 3.7957869 0.17692399 799 68191050 1327 28 91 4074
-1.5595152 3.6299028 0.13388954 666 68191050 1041 29 63 3953
-1.6327882 3.4532835 0.094222054 690 68191050 1008 30 72 3821
-1.701561 3.2828104 0.055246137 749 68191050 1025 31 94 3698
-1.4247558 3.6818497 0.027562017 700 68191050 1091 32 114 3948
-1.4995196 3.493788 -0.0096218158 725 68191050 1048 33 119 3802
-1.582324 3.3476119 -0.044205558 656 68191050 900 34 102 3703
-1.639504 3.1680901 -0.07652808 736 68191050 937 35 94 3568
-1.3708446 3.5476828 -0.11294644 714 68191050 1033 36 171 3805
-1.4517548 3.3893521 -0.1442252 726 68191050 989 37 75 3690
-1.5224458 3.2244267 -0.17358464 725 68191050 924 38 202 3570
-1.6174388 3.1253188 -0.20469438 162 68191050 201 39 103 3525
-1.3247409 3.4363937 -0.24442415 794 68191050 1082 40 109 3691
-1.3969773 3.265559 -0.26911998 689 68191050 874 41 128 3562
-1.4591528 3.0926137 -0.29195726 100 68191050 117 42 145 3432
-1.5408481 2.9812758 -0.31846917 718 68191050 816 43 82 3371
-1.286553 3.3408079 -0.36957547 817 68191050 1058 44 147 3599
-1.3041824 3.0520298 -0.37392828 624 68191050 696 45 88 3340
-1.4351113 3.04579 -0.41144168 712 68191050 819 46 138 3392
-1.4754891 2.8565285 -0.42453101 74 68191050 78 47 118 3243
-1.2301108 3.2022405 -0.48143709 488 68191050 586 48 102 3464
-1.3190955 3.0906606 -0.50419194 711 68191050 820 49 57 3398
-1.3903427 2.9547875 -0.52194589 714 68191050 781 50 78 3307
-1.4014038 2.7149594 -0.51852286 721 68191050 693 51 108 3099
-1.205619 3.146848 -0.6006332 324 68191050 380 52 112 3423
-1.2688994 2.9772236 -0.60818088 689 68191050 747 53 103 3293
-1.2976669 2.7600813 -0.6032359 685 68191050 662 54 108 3109
-1.4361105 2.782078 -0.65179282 132 68191050 135 55 59 3198
-1.1911961 3.1144078 -0.72336829 205 68191050 238 56 128 3412
-1.1896245 2.7952776 -0.68879819 616 68191050 598 57 93 3115
-1.2874691 2.7397571 -0.7172699 587 68191050 568 58 62 3111
-1.3600425 2.6352808 -0.73389667 500 68191050 467 59 82 3055
-1.1384 2.986834 -0.82028615 158 68191050 172 60 30 3300
-1.1430779 2.6921632 -0.77997464 572 68191050 524 61 56 3027
-1.2249281 2.6079695 -0.79884166 303 68191050 271 62 61 2990
-1.2934704 2.5037138 -0.81292123 384 68191050 331 63 65 2933
-1.9493037 5.1320505 1.7135569 521 68290480 1724 0 93 5751
-2.0828092 4.9114976 1.6012499 580 68290480 1800 1 98 5570
-2.1547959 4.5932646 1.4691155 551 68290480 1538 2 67 5282
-2.2216563 4.3061781 1.3535277 684 68290480 1732 3 71 5031
-1.8875195 4.9618201 1.4340895 604 68290480 1827 4 102 5499
-1.9724848 4.6569924 1.3123847 606 68290480 1653 5 55 5225
-2.0448873 4.3633351 1.200375 622 68290480 1534 6 106 4966
-2.1082454 4.0965285 1.1013283 718 68290480 1611 7 103 4737
-1.7959714 4.7184367 1.1634449 637 68290480 1710 8 115 5181
-1.8845212 4.4445596 1.0619423 586 68290480 1432 9 95 4943
-1.9633858 4.1953344 0.97240758 668 68290480 1497 10 82 4733
-2.0166054 3.9268818 0.8836906 704 68290480 1428 11 60 4502
-1.7220013 4.5219631 0.92837983 701 68290480 1701 12 133 4927
-1.7978126 4.2445955 0.83696437 697 68290480 1531 13 85 4685
-1.8737048 4.0057082 0.75940812 659 68290480 1327 14 115 4487
-1.9366777 3.7735093 0.68856418 692 68290480 1278 15 76 4297
-1.6389701 4.3041501 0.70969886 707 68290480 1537 16 60 4660
-1.7199328 4.0632896 0.63660991 675 68290480 1342 17 104 4458
-1.8026803 3.8593078 0.57349378 675 68290480 1247 18 96 4298
-1.8821045 3.6726975 0.51600337 664 68290480 1148 19 124 4159
-1.5858864 4.1649637 0.52077925 678 68290480 1365 20 118 4487
-1.6567023 3.9156229 0.45542407 646 68290480 1181 21 126 4276
-1.7407871 3.7313871 0.40147275 659 68290480 1128 22 92 4137
-1.8012081 3.5195284 0.3486124 676 68290480 1066 23 176 3969
-1.5173928 3.9873829 0.34161329 694 68290480 1271 24 126 4280
-1.6023688 3.7899699 0.29011545 695 68290480 1183 25 101 4125
-1.6650783 3.5694299 0.24000388 687 68290480 1069 26 139 3946
-1.740997 3.4068604 0.19696006 676 68290480 992 27 131 3831
-1.454273 3.827143 0.17796624 775 68290480 1302 28 104 4098
-1.5418798 3.6504517 0.13429599 677 68290480 1063 29 57 3965
-1.621691 3.4849901 0.094813868 690 68290480 1021 30 58 3845
-1.681386 3.293189 0.055246137 743 68290480 1016 31 97 3698
-1.4021375 3.6905224 0.027562017 709 68290480 1105 32 111 3948
-1.4827189 3.513979 -0.0096521843 689 68290480 1002 33 122 3814
-1.5668148 3.3681376 -0.044348814 677 68290480 935 34 118 3715
-1.6254827 3.1887789 -0.07678546 740 68290480 948 35 101 3580
-1.3533052 3.5672424 -0.11330265 759 68290480 1105 36 160 3817
-1.4309309 3.398196 -0.1442252 711 68290480 969 37 80 3690
-1.5076833 3.2445774 -0.17416812 681 68290480 874 38 212 3582
-1.5982317 3.1351843 -0.20469438 522 68290480 649 39 75 3525
-1.3036306 3.4444573 -0.24442415 775 68290480 1056 40 128 3691
-1.3861912 3.296129 -0.27093327 698 68290480 897 41 121 3586
-1.4905044 3.2099531 -0.30216557 172 68290480 217 42 146 3552
-1.5225264 2.9906743 -0.31846917 696 68290480 791 43 104 3371
-1.2744725 3.3709695 -0.37203997 782 68290480 1026 44 145 3623
-1.3685607 3.2578654 -0.39811045 190 68290480 241 45 72 3556
-1.4214064 3.0653443 -0.41289723 720 68290480 834 46 170 3404
-1.4687235 2.8867347 -0.42767277 74 68290480 79 47 135 3267
-1.1936661 3.1652513 -0.47476587 513 68290480 599 48 120 3416
-1.3092892 3.1205823 -0.50775301 707 68290480 827 49 54 3422
-1.3771656 2.9740157 -0.52383989 771 68290480 850 50 89 3319
-1.3900806 2.7340529 -0.5205307 710 68290480 687 51 104 3111
-1.1821289 3.1431289 -0.59852761 464 68290480 540 52 94 3411
-1.255165 2.9958308 -0.6103971 717 68290480 783 53 103 3305
-1.2955366 2.8000431 -0.61022091 695 68290480 687 54 107 3145
-1.4083637 2.7698932 -0.64690131 405 68290480 408 55 43 3174
-1.225652 3.2643833 -0.75644141 65 68290480 83 56 113 3568
-1.1769673 2.8133204 -0.69145161 657 68290480 643 57 89 3127
-1.2706341 2.7476053 -0.7172699 634 68290480 614 58 60 3111
-1.3385686 2.6331925 -0.73101401 578 68290480 536 59 62 3043
-1.1281974 3.0155356 -0.82625186 324 68290480 358 60 43 3324
-1.1354694 2.7205267 -0.78615874 489 68290480 456 61 64 3051
-1.2186065 2.6364298 -0.80525374 174 68290480 158 62 79 3014
-1.3094583 2.5732586 -0.83287704 220 68290480 199 63 84 3005
-1.8297417 4.907783 1.6348959 54 68386120 163 0 85 5487
-2.0570557 4.9347935 1.6046997 598 68386120 1864 1 112 5582
-2.1410656 4.6377954 1.4791285 588 68386120 1664 2 71 5318
-2.2109003 4.3506393 1.3632131 678 68386120 1742 3 66 5067
-1.8691963 5.005867 1.443478 579 68386120 1774 4 107 5535
-1.9661949 4.7226229 1.3274552 652 68386120 1819 5 56 5285
-2.0278292 4.3969479 1.2061763 646 68386120 1609 6 119 4990
-2.088347 4.1197977 1.1041182 724 68386120 1633 7 101 4749
-1.7833562 4.7731833 1.1742238 603 68386120 1649 8 112 5229
-1.8707405 4.4884925 1.0696764 614 68386120 1522 9 114 4979
-1.947432 4.2286372 0.97733849 662 68386120 1499 10 73 4757
-2.0084052 3.9706807 0.89075691 730 68386120 1504 11 68 4538
-1.698349 4.5434833 0.930641 679 68386120 1656 12 144 4939
-1.7808105 4.2773461 0.84125185 684 68386120 1517 13 114 4709
-1.8540361 4.027873 0.76143909 634 68386120 1283 14 109 4499
-1.9188309 3.795892 0.69048703 687 68386120 1276 15 72 4309
-1.6166821 4.3252349 0.71152645 677 68386120 1479 16 78 4672
-1.7040937 4.0956984 0.64003718 680 68386120 1366 17 102 4482
-1.783933 3.8811021 0.575095 670 68386120 1245 18 83 4310
-1.8595339 3.6841767 0.51600337 702 68386120 1215 19 99 4159
-1.556128 4.1634517 0.51938653 688 68386120 1378 20 117 4475
-1.641809 3.9477487 0.45798025 666 68386120 1232 21 105 4300
-1.717859 3.7419982 0.40147275 661 68386120 1132 22 102 4137
-1.7795788 3.5305142 0.3486124 690 68386120 1087 23 148 3969
-1.4970838 4.0078239 0.34257108 706 68386120 1301 24 97 4292
-1.5744903 3.7886772 0.2892715 663 68386120 1121 25 114 4113
-1.6531391 3.601351 0.24146363 694 68386120 1093 26 148 3970
-1.725448 3.4281836 0.197577 681 68386120 1005 27 124 3843
-1.4433317 3.8696926 0.17952964 791 68386120 1352 28 88 4134
-1.5286492 3.6819966 0.13510887 657 68386120 1046 29 62 3989
-1.6052712 3.5057821 0.095109776 692 68386120 1030 30 79 3857
-1.6719285 3.3248832 0.055604681 772 68386120 1070 31 102 3722
-1.3878523 3.7215431 0.027729567 705 68386120 1112 32 107 3972
-1.470324 3.5451798 -0.0097129224 669 68386120 985 33 135 3838
-1.5561072 3.3995087 -0.044635318 679 68386120 950 34 94 3739
-1.6166518 3.2201364 -0.077300221 731 68386120 949 35 100 3604
-1.3439486 3.609201 -0.11437126 749 68386120 1111 36 152 3853
-1.4238095 3.4401503 -0.14563227 715 68386120 993 37 81 3726
-1.4927306 3.2646675 -0.17475159 724 68386120 935 38 246 3594
-1.5574638 3.1021075 -0.20190705 717 68386120 867 39 90 3477
-1.2908102 3.4748399 -0.24601346 809 68386120 1116 40 115 3715
-1.3659405 3.3045726 -0.27093327 711 68386120 914 41 135 3586
-1.4459361 3.1646624 -0.29706141 693 68386120 845 42 142 3492
-1.5309194 3.0533559 -0.32413757 336 68386120 396 43 80 3431
-1.2496119 3.3675351 -0.37080771 759 68386120 989 44 149 3611
-1.348545 3.2662015 -0.39811045 451 68386120 570 45 47 3556
-1.4174043 3.1065183 -0.41726395 756 68386120 895 46 123 3440
-1.4829608 2.9595091 -0.43709806 102 68386120 113 47 150 3339
-1.2030964 3.2505286 -0.48644048 112 68386120 137 48 102 3500
-1.2946413 3.1395283 -0.50953358 702 68386120 828 49 74 3434
-1.3638045 2.9931927 -0.52573383 664 68386120 737 50 91 3331
-1.3785757 2.7531097 -0.52253854 697 68386120 680 51 95 3123
-1.1791841 3.1946547 -0.6069501 313 68386120 375 52 107 3459
-1.2502308 3.0361915 -0.61704588 702 68386120 784 53 121 3341
-1.283209 2.8186536 -0.61254925 664 68386120 662 54 112 3157
-1.3703003 2.7364638 -0.63711828 578 68386120 565 55 82 3126
-1.1974896 3.2498345 -0.7513532 142 68386120 178 56 134 3544
-1.1685836 2.8421369 -0.69675857 577 68386120 573 57 101 3151
-1.244079 2.7340937 -0.71173644 684 68386120 652 58 99 3087
-1.3119568 2.6205239 -0.72524846 501 68386120 457 59 81 3019
-1.0896431 2.9678454 -0.81133759 554 68386120 591 60 59 3264
-1.1319559 2.7596247 -0.79543495 401 68386120 382 61 54 3087
-1.2359176 2.7175415 -0.82769608 326 68386120 313 62 76 3098
-1.3246402 2.6430919 -0.85283285 176 68386120 166 63 57 3077
-1.7720438 4.8436146 1.6098675 61 68485380 179 0 86 5403
-2.0398088 4.979229 1.6150488 572 68485380 1806 1 100 5618
-2.1316361 4.6928234 1.492479 542 68485380 1562 2 65 5366
-2.1841638 4.3641233 1.3632131 632 68485380 1624 3 67 5067
-1.8543888 5.0607519 1.4559959 642 68485380 2001 4 98 5583
-1.9327818 4.7238483 1.3244411 636 68485380 1769 5 60 5273
-2.0056233 4.4199114 1.2090769 631 68485380 1579 6 99 5002
-2.0786679 4.1638608 1.112488 726 68485380 1663 7 91 4785
-1.7620857 4.805994 1.1796132 595 68485380 1642 8 113 5253
-1.852049 4.5215774 1.0748326 574 68485380 1437 9 127 5003
-1.9214489 4.2405066 0.97733849 681 68485380 1542 10 87 4757
-1.9892502 3.9934616 0.89311242 694 68485380 1438 11 62 4550
-1.6744974 4.5648828 0.9329021 685 68485380 1679 12 126 4951
-1.7724161 4.3319035 0.84982699 639 68485380 1447 13 90 4757
-1.8488035 4.0822678 0.76956296 638 68485380 1319 14 106 4547
-1.9060612 3.8288019 0.69433284 695 68485380 1305 15 94 4333
-1.6064491 4.3796115 0.71883661 697 68485380 1554 16 66 4720
-1.6924162 4.1390576 0.64517802 692 68485380 1413 17 106 4518
-1.7649857 3.9028106 0.5766961 677 68485380 1265 18 92 4322
-1.8474931 3.7168424 0.51898098 686 68485380 1201 19 105 4183
-1.542865 4.2064915 0.52356482 686 68485380 1396 20 104 4511
-1.6265835 3.9798381 0.46053645 653 68485380 1221 21 122 4324
-1.709615 3.7851224 0.40496638 691 68485380 1204 22 86 4173
-1.773827 3.5734882 0.35177442 706 68485380 1132 23 150 4005
-1.4806976 4.0393958 0.34448665 705 68485380 1314 24 85 4316
-1.564791 3.8315117 0.29180339 723 68485380 1245 25 87 4149
-1.6359404 3.6223426 0.24219349 669 68485380 1060 26 134 3982
-1.7203467 3.4709189 0.19942784 722 68485380 1086 27 128 3879
-1.4236811 3.8897343 0.18005078 805 68485380 1384 28 99 4146
-1.5241503 3.7357249 0.13673465 660 68485380 1076 29 68 4037
-1.5935848 3.5374415 0.095701598 659 68485380 993 30 58 3881
-1.6568205 3.3458319 0.055783957 723 68485380 1008 31 92 3734
-1.3732389 3.7525265 0.027897118 713 68485380 1139 32 103 3996
-1.4576015 3.5763595 -0.0097736595 686 68485380 1023 33 122 3862
-1.540146 3.4199338 -0.044778571 675 68485380 950 34 117 3751
-1.607497 3.2515049 -0.077814989 719 68485380 946 35 95 3628
-1.3341275 3.6511779 -0.11543988 726 68485380 1098 36 144 3889
-1.398157 3.4377148 -0.14516325 701 68485380 968 37 77 3714
-1.4775879 3.2846961 -0.17533508 733 68485380 953 38 219 3606
-1.5437096 3.1223443 -0.20260388 712 68485380 867 39 95 3489
-1.2735653 3.4939444 -0.24680813 799 68485380 1110 40 128 3727
-1.3546442 3.3350637 -0.27274653 755 68485380 984 41 119 3610
-1.4313929 3.1843805 -0.29808223 711 68485380 872 42 169 3504
-1.4539788 2.9448619 -0.31166711 53 68485380 58 43 62 3299
-1.2411774 3.408788 -0.37450451 770 68485380 1024 44 133 3647
-1.3150294 3.2412653 -0.3940801 729 68485380 904 45 72 3520
-1.3934386 3.1042902 -0.41580841 743 68485380 873 46 110 3428
-1.4963591 3.0325646 -0.44652337 238 68485380 276 47 154 3411
-1.2074676 3.3248682 -0.49644724 373 68485380 476 48 70 3572
-1.2842664 3.16941 -0.51309466 714 68485380 854 49 70 3458
-1.3744942 3.0663824 -0.53709763 194 68485380 225 50 60 3403
-1.3668891 2.7721276 -0.52454638 678 68485380 667 51 100 3135
-1.1957647 3.3018003 -0.62590086 111 68485380 141 52 107 3567
-1.227154 3.0328732 -0.61482966 573 68485380 635 53 129 3329
-1.2755135 2.8479614 -0.61720598 702 68485380 710 54 110 3181
-1.3430926 2.723747 -0.63222682 670 68485380 645 55 93 3102
-1.1775265 3.2571208 -0.7513532 256 68485380 322 56 113 3544
-1.1555064 2.8601046 -0.69941205 528 68485380 529 57 68 3163
-1.2272795 2.7416759 -0.71173644 666 68485380 635 58 101 3087
-1.3216069 2.6807644 -0.73966217 328 68485380 311 59 101 3079
-1.0595951 2.9416687 -0.80238903 703 68485380 732 60 56 3228
-1.1410077 2.8310437 -0.81398737 207 68485380 206 61 52 3159
-1.2144973 2.7145183 -0.82449007 506 68485380 482 62 68 3086
-1.3032949 2.6408305 -0.84950686 366 68485380 343 63 41 3065
-1.6958554 4.7250175 1.5669615 89 68582040 247 0 70 5259
-2.0220935 5.0236378 1.625398 570 68582040 1823 1 100 5654
-2.1216114 4.7479091 1.5058295 350 68582040 1027 2 64 5414
-2.1777813 4.4189105 1.3761269 700 68582040 1833 3 74 5115
-1.8311397 5.0938387 1.462255 606 68582040 1905 4 105 5607
-1.9167578 4.7679496 1.3334832 616 68582040 1737 5 79 5309
-1.9974512 4.4746656 1.2206793 590 68582040 1505 6 112 5050
-2.0633774 4.197485 1.1180679 693 68582040 1603 7 108 4809
-1.7444371 4.8497252 1.1876973 597 68582040 1670 8 113 5289
-1.8330215 4.5546007 1.0799887 587 68582040 1483 9 127 5027
-1.904956 4.2736697 0.98226929 683 68582040 1562 10 77 4781
-1.9802544 4.0372849 0.90017885 676 68582040 1422 11 79 4586
-1.6544375 4.5972495 0.93742442 696 68582040 1722 12 140 4975
-1.7413987 4.3317423 0.84768325 658 68582040 1482 13 92 4745
-1.8381593 4.1259446 0.77565581 640 68582040 1344 14 126 4583
-1.9033865 3.8829684 0.70202452 714 68582040 1371 15 89 4381
-1.5875777 4.411705 0.72249174 686 68582040 1545 16 58 4744
-1.6802704 4.1824269 0.65031892 672 68582040 1394 17 116 4554
-1.7506732 3.9352992 0.57989854 693 68582040 1309 18 82 4346
-1.8298867 3.7388036 0.52046984 697 68582040 1227 19 74 4195
-1.5291321 4.2495241 0.52774316 681 68582040 1408 20 115 4547
-1.6110253 4.011888 0.46309257 655 68582040 1239 21 101 4348
-1.7009056 3.8282845 0.40845996 685 68582040 1214 22 97 4209
-1.7623652 3.6057842 0.35388246 721 68582040 1170 23 151 4029
-1.4599324 4.0596614 0.34544444 706 68582040 1323 24 101 4328
