# .PCD v0.7 - Point Cloud Data file format
VERSION 0.7
FIELDS x y z intensity t reflectivity ring noise range
SIZE 4 4 4 4 4 2 1 2 4
TYPE F F F F U U U U U
COUNT 1 1 1 1 1 1 1 1 1
WIDTH 804
HEIGHT 1
VIEWPOINT 0 0 0 1 0 0 0
POINTS 804
DATA ascii
1.4169813 -2.0128496 -0.16336882 36 14348400 22 40 102 2467
1.4681746 -1.9326153 -0.18389612 54 14348400 32 41 115 2434
0 -0 -0 7 14348400 0 42 152 0
1.5634149 -1.773701 -0.22437385 78 14348400 44 43 73 2375
1.4622542 -2.0787017 -0.2623688 457 14348400 298 44 101 2555
1.0550092 -1.3899076 -0.19659223 10 14348400 3 45 87 1756
1.5438113 -1.8867524 -0.29790705 30 14348400 18 46 119 2456
1.771453 -2.0107114 -0.35384127 146 14348400 107 47 129 2703
1.1791538 -1.6792415 -0.28797275 11 14348400 5 48 84 2072
1.4353563 -1.8927048 -0.35640642 409 14348400 236 49 76 2402
1.5716892 -1.9228765 -0.39694402 42 14348400 26 50 52 2515
1.6672612 -1.893513 -0.42817035 68 14348400 45 51 61 2559
1.3645561 -1.9469568 -0.42375967 520 14348400 303 52 101 2415
1.5198624 -2.0062456 -0.47298852 106 14348400 70 53 98 2561
1.6017495 -1.9609107 -0.50078857 203 14348400 135 54 93 2581
1.6731063 -1.9000844 -0.5270595 26 14348400 17 55 52 2586
1.3473086 -1.9246342 -0.50966507 463 14348400 268 56 121 2404
1.4447616 -1.9091872 -0.54285699 93 14348400 56 57 57 2455
1.5453361 -1.892589 -0.57893431 20 14348400 12 58 48 2511
1.6363181 -1.8586323 -0.61282176 142 14348400 93 59 79 2551
1.317618 -1.8869139 -0.59060603 428 14348400 241 60 53 2376
1.2947036 -1.7138743 -0.57280594 14 14348400 7 61 45 2223
1.529424 -1.8738356 -0.67059952 160 14348400 101 62 68 2510
1.481936 -1.6818545 -0.64662302 138 14348400 75 63 58 2333
1.0230412 -1.4686383 0.55867136 171 14446990 60 0 55 1875
1.0466443 -1.3867899 0.52148432 71 14446990 23 1 77 1814
1.1011385 -1.3503817 0.50453913 161 14446990 53 2 56 1814
1.1473086 -1.3035316 0.48507461 264 14446990 86 3 42 1803
1.0618908 -1.5227653 0.50150102 98 14446990 36 4 79 1923
1.0938433 -1.4506438 0.47145382 184 14446990 65 5 39 1877
1.1314682 -1.388665 0.44621268 218 14446990 74 6 103 1846
1.199616 -1.3657466 0.43453294 98 14446990 34 7 67 1869
1.162479 -1.6663282 0.46820739 13 14446990 6 8 108 2085
1.0795369 -1.4305279 0.394227 243 14446990 82 9 37 1835
1.1892167 -1.4611541 0.39549643 129 14446990 48 10 69 1925
1.2192075 -1.3904967 0.37019998 282 14446990 100 11 31 1886
1.116762 -1.6002604 0.37440446 34 14446990 13 12 113 1987
1.2185198 -1.6159885 0.36747828 23 14446990 10 13 65 2057
1.186131 -1.4579345 0.32275268 31 14446990 11 14 106 1907
1.2497568 -1.4260408 0.30782679 117 14446990 43 15 83 1921
1.1900131 -1.7052886 0.32043055 22 14446990 10 16 40 2104
1.2831653 -1.7025242 0.30759484 28 14446990 13 17 92 2154
1.463827 -1.8012547 0.31249937 21 14446990 12 18 81 2342
1.7064054 -1.9495029 0.32394439 14 14446990 10 19 78 2611
1.4726968 -2.1104529 0.30072188 18 14446990 12 20 103 2591
1.5460924 -2.0520506 0.27521417 19 14446990 13 21 112 2584
1.2778746 -1.5739533 0.19767949 28 14446990 12 22 71 2037
1.5008572 -1.7165451 0.20105159 13 14446990 7 23 132 2289
1.39375 -1.9981352 0.19507076 30 14446990 18 24 101 2444
1.5679492 -2.0821941 0.18377496 24 14446990 17 25 89 2613
0 -0 0 9 14446990 0 26 131 0
1.4130127 -1.6180131 0.1105876 19 14446990 9 27 94 2151
1.2782542 -1.8344659 0.097190939 156 14446990 78 28 69 2238
1.409164 -1.8726915 0.079425998 18 14446990 10 29 50 2345
1.4229743 -1.7561769 0.05575401 14 14446990 7 30 51 2261
1.6895955 -1.9361545 0.038394421 14 14446990 9 31 98 2570
1.3033429 -1.8706803 0.015917275 124 14446990 65 32 98 2280
1.3618047 -1.8111353 -0.0057346225 119 14446990 61 33 73 2266
1.4545615 -1.7956089 -0.027588185 52 14446990 28 34 82 2311
1.6658113 -1.9113896 -0.054393273 21 14446990 14 35 90 2536
1.3504214 -1.9402728 -0.070201926 131 14446990 73 36 146 2365
1.4218342 -1.8938603 -0.092632443 62 14446990 35 37 78 2370
1.4440241 -1.7841283 -0.11173599 106 14446990 56 38 98 2298
0 -0 -0 7 14446990 0 39 76 0
1.4046041 -2.0215061 -0.16336882 85 14446990 52 40 102 2467
1.4921874 -1.9894491 -0.18842933 24 14446990 15 41 100 2494
0 -0 -0 5 14446990 0 42 149 0
1.5995675 -1.8373215 -0.23117591 91 14446990 55 43 73 2447
1.4222412 -2.0484152 -0.25743976 495 14446990 311 44 126 2507
0 -0 -0 5 14446990 0 45 60 0
1.5995824 -1.9795725 -0.3110072 62 14446990 41 46 113 2564
1.7512728 -2.0125685 -0.35227042 103 14446990 74 47 146 2691
1.1959052 -1.7255133 -0.29464394 14 14446990 6 48 96 2120
1.4521663 -1.9394742 -0.36352861 100 14446990 60 49 67 2450
1.5598611 -1.932484 -0.39694402 42 14446990 26 50 52 2515
1.5857382 -1.8233635 -0.41009989 52 14446990 31 51 73 2451
1.3458631 -1.945577 -0.42165402 420 14446990 243 52 95 2403
1.4722049 -1.968313 -0.46190718 398 14446990 249 53 98 2501
1.5231682 -1.8882393 -0.47983348 78 14446990 48 54 90 2473
1.6074489 -1.8482625 -0.50993919 96 14446990 60 55 41 2502
1.3154752 -1.9039202 -0.50203282 418 14446990 234 56 113 2368
1.4330199 -1.9180162 -0.54285699 280 14446990 169 57 72 2455
1.4384109 -1.7838682 -0.54296708 26 14446990 15 58 63 2355
1.5713784 -1.8071065 -0.59264261 31 14446990 19 59 73 2467
1.2994193 -1.8853925 -0.58762318 455 14446990 254 60 52 2364
1.3673477 -1.8333189 -0.60991079 15 14446990 8 61 30 2367
1.5106406 -1.8741813 -0.66739345 207 14446990 129 62 62 2498
1.4867269 -1.7083105 -0.65327495 167 14446990 93 63 51 2357
1.0010313 -1.4560093 0.55152035 175 14544020 60 0 31 1851
1.0655849 -1.4300507 0.53528321 105 14544020 37 1 64 1862
1.092832 -1.3571128 0.50453913 177 14544020 58 2 52 1814
1.1165409 -1.2843796 0.47538927 291 14544020 91 3 52 1767
1.0985036 -1.5960528 0.52340752 93 14544020 38 4 83 2007
1.0779856 -1.4480113 0.46843973 116 14544020 40 5 39 1865
1.1521246 -1.4318695 0.45781517 230 14544020 83 6 94 1894
1.1912134 -1.3730816 0.43453294 261 14544020 91 7 58 1869
1.2119168 -1.7601109 0.49245986 22 14544020 11 8 91 2193
1.0567349 -1.4183288 0.38907093 185 14544020 61 9 11 1811
1.1360852 -1.4135007 0.38070384 149 14544020 51 10 54 1853
1.1952467 -1.3801621 0.36548907 215 14544020 74 11 53 1862
1.2005118 -1.7429608 0.40606022 22 14544020 10 12 114 2155
1.2085813 -1.6234348 0.36747828 25 14544020 11 13 63 2057
1.4216081 -1.7694396 0.38977426 13 14544020 7 14 106 2303
1.1789663 -1.3620354 0.29244345 127 14544020 42 15 65 1825
1.2266186 -1.7809305 0.33322343 25 14544020 12 16 44 2188
1.379048 -1.8532929 0.33329913 18 14544020 10 17 95 2334
1.4378599 -1.7916524 0.309297 19 14544020 10 18 79 2318
1.5153009 -1.7527583 0.28970131 15 14544020 8 19 79 2335
1.3109871 -1.9034964 0.27008098 21 14544020 11 20 94 2327
1.4124086 -1.8987488 0.25348675 23 14544020 13 21 80 2380
1.4923213 -1.8613105 0.23261547 16 14544020 9 22 60 2397
1.3731042 -1.5900165 0.18524152 17 14544020 8 23 129 2109
1.3407657 -1.947534 0.18932401 26 14544020 15 24 86 2372
1.583711 -2.1302006 0.18715084 21 14544020 15 25 100 2661
1.4821973 -1.8488154 0.1443916 13 14544020 7 26 125 2374
1.4656774 -1.6992511 0.11552317 15 14544020 8 27 116 2247
1.233007 -1.7928839 0.094585285 160 14544020 76 28 81 2178
1.347582 -1.8139129 0.07658089 36 14544020 18 29 40 2261
1.4421514 -1.8023424 0.056937639 18 14544020 9 30 47 2309
1.6228487 -1.8828646 0.037139505 20 14544020 13 31 78 2486
1.2986392 -1.8885298 0.016001049 120 14544020 63 32 96 2292
1.3363608 -1.8001866 -0.0056738849 126 14544020 63 33 99 2242
1.4435164 -1.8045001 -0.027588185 40 14544020 21 34 93 2311
1.6775321 -1.9488528 -0.055165417 26 14544020 17 35 76 2572
1.3452823 -1.9584092 -0.070558131 131 14544020 74 36 177 2377
1.4387478 -1.9410816 -0.094508544 96 14544020 56 37 74 2418
1.4854327 -1.858494 -0.11582035 110 14544020 62 38 99 2382
0 -0 -0 9 14544020 0 39 84 0
1.2973684 -1.89184 -0.15224358 230 14544020 122 40 119 2299
1.5297983 -2.065881 -0.19477578 25 14544020 17 41 121 2578
0 -0 -0 9 14544020 0 42 147 0
1.5726863 -1.8289855 -0.22890857 103 14544020 61 43 70 2423
1.3489189 -1.9684845 -0.24634942 568 14544020 327 44 127 2399
1.2010016 -1.6232272 -0.22749169 15 14544020 6 45 61 2032
1.5651178 -1.9614185 -0.30664051 69 14544020 44 46 125 2528
1.6691027 -1.9420743 -0.33813247 70 14544020 47 47 134 2583
0 -0 -0 8 14544020 0 48 89 0
1.4614013 -1.9769768 -0.36887026 19 14544020 12 49 70 2486
1.5553602 -1.9512849 -0.39883801 239 14544020 152 50 30 2527
1.6130643 -1.877932 -0.42013904 52 14544020 33 51 65 2511
1.3339 -1.9537985 -0.42165402 439 14544020 253 52 122 2403
1.4390829 -1.9488473 -0.45525837 395 14544020 240 53 107 2465
1.4455415 -1.8146806 -0.45887834 111 14544020 62 54 71 2365
1.5884229 -1.849179 -0.50749344 150 14544020 93 55 68 2490
1.3103752 -1.921645 -0.50457692 432 14544020 245 56 123 2380
1.4073304 -1.9079369 -0.53755003 179 14544020 106 57 84 2431
1.4565326 -1.829199 -0.55403394 34 14544020 19 58 47 2403
1.2946305 -1.5074238 -0.49174684 10 14544020 4 59 81 2047
1.2943635 -1.902941 -0.59060603 449 14544020 254 60 62 2376
1.3835726 -1.8790214 -0.62227911 31 14544020 18 61 42 2415
1.4559034 -1.8291293 -0.64815712 200 14544020 118 62 72 2426
1.5062798 -1.7523754 -0.66657883 150 14544020 86 63 55 2405
0.99851012 -1.4716029 0.55509585 149 14643230 52 0 46 1863
1.0499796 -1.427304 0.53183347 211 14643230 72 1 83 1850
1.0844842 -1.3637928 0.50453913 150 14643230 49 2 53 1814
1.116168 -1.2999752 0.4786177 267 14643230 84 3 27 1779
1.004068 -1.4781834 0.48272407 147 14643230 50 4 50 1851
1.1034745 -1.5013951 0.48351017 102 14643230 38 5 32 1925
1.1360734 -1.4297953 0.45491457 215 14643230 76 6 88 1882
1.1903598 -1.3892276 0.43732285 306 14643230 108 7 61 1881
1.1287985 -1.6611246 0.46281797 34 14643230 15 8 94 2061
1.1035668 -1.500313 0.40969533 28 14643230 10 9 46 1907
1.1784976 -1.4848365 0.39796185 108 14643230 40 10 55 1937
1.1944039 -1.3964118 0.36784452 197 14643230 69 11 38 1874
1.2759235 -1.8769976 0.43545482 22 14643230 12 12 121 2311
1.1146897 -1.5166546 0.34175301 32 14643230 12 13 60 1913
1.3004634 -1.6391524 0.35930991 17 14643230 8 14 100 2123
1.201375 -1.4052567 0.30013514 215 14643230 76 15 64 1873
1.1756643 -1.7295722 0.32225811 29 14643230 13 16 49 2116
1.5153146 -2.0627282 0.36928517 20 14643230 14 17 83 2586
1.2421752 -1.5674248 0.2692672 22 14643230 9 18 76 2018
1.2880217 -1.5084728 0.24801412 20 14643230 8 19 100 1999
1.2858825 -1.89179 0.26729548 28 14643230 15 20 109 2303
1.4431067 -1.9650817 0.26115525 24 14643230 15 21 90 2452
1.4289771 -1.8048851 0.22446375 21 14643230 11 22 84 2313
1.2702361 -1.489274 0.17259344 13 14643230 5 23 132 1965
1.2951787 -1.9062537 0.18453501 24 14643230 13 24 80 2312
1.414789 -1.927579 0.16858345 27 14643230 16 25 81 2397
1.3964787 -1.7639642 0.13709295 16 14643230 8 26 112 2254
1.4241371 -1.6717217 0.11305539 19 14643230 9 27 91 2199
1.2489135 -1.8400941 0.096669801 130 14643230 65 28 79 2226
1.4073559 -1.9188557 0.08064533 28 14643230 16 29 48 2381
1.3864413 -1.7546812 0.055162188 18 14643230 9 30 51 2237
1.4479351 -1.7009195 0.033374764 16 14643230 8 31 70 2234
1.2870269 -1.8964624 0.016001049 148 14643230 78 32 82 2292
1.3394768 -1.8277104 -0.0057346225 145 14643230 75 33 68 2266
1.432417 -1.8133234 -0.027588185 58 14643230 31 34 79 2311
1.6422302 -1.9316877 -0.054393273 31 14643230 20 35 84 2536
1.3467017 -1.9864833 -0.07127054 131 14643230 75 36 146 2401
1.4055676 -1.9208428 -0.093101472 105 14643230 60 37 75 2382
1.4368727 -1.8205312 -0.11290295 102 14643230 55 38 119 2322
0 -0 -0 7 14643230 0 39 78 0
1.2387582 -1.8303521 -0.14668098 417 14643230 205 40 104 2215
1.4747231 -2.0172703 -0.18933596 20 14643230 13 41 100 2506
1.3699105 -1.7366865 -0.18885347 18 14643230 9 42 127 2220
1.5846335 -1.8659182 -0.23230961 83 14643230 50 43 84 2459
1.3234414 -1.9569486 -0.24388488 567 14643230 320 44 125 2375
1.3035564 -1.7846353 -0.24898697 16 14643230 8 45 65 2224
1.5456812 -1.9616289 -0.3051849 106 14643230 67 46 121 2516
1.618661 -1.90693 -0.33027804 62 14643230 39 47 148 2523
1.2078849 -1.7893059 -0.3029829 12 14643230 6 48 83 2180
1.4562389 -1.9954927 -0.3706508 31 14643230 19 49 54 2498
1.4920553 -1.895613 -0.38558021 467 14643230 279 50 67 2443
1.6397791 -1.9329027 -0.4301782 99 14643230 66 51 68 2571
1.2822794 -1.9031614 -0.40902019 433 14643230 235 52 93 2331
1.4270979 -1.9576408 -0.45525837 281 14643230 171 53 120 2465
1.4416577 -1.8327687 -0.4612067 43 14643230 24 54 76 2377
1.6074476 -1.8947247 -0.51727647 162 14643230 105 55 70 2538
1.2854649 -1.9101906 -0.4994888 438 14643230 243 56 119 2356
1.409375 -1.9354571 -0.54285699 228 14643230 138 57 86 2455
1.474151 -1.8748178 -0.56510079 23 14643230 14 58 57 2451
0 -0 -0 9 14643230 0 59 72 0
1.2502724 -1.8625935 -0.57569176 475 14643230 255 60 46 2316
1.3924695 -1.9156117 -0.63155532 227 14643230 136 61 44 2451
1.4089235 -1.79257 -0.63212687 313 14643230 175 62 71 2366
1.4731133 -1.7352159 -0.65660095 117 14643230 66 63 65 2369
0.99583513 -1.4872203 0.55867136 100 14740400 35 0 57 1875
1.0614631 -1.461619 0.54218262 227 14740400 81 1 44 1886
1.0832144 -1.3794869 0.50787675 149 14740400 50 2 58 1826
1.1231205 -1.324429 0.48507461 250 14740400 81 3 36 1803
1.0014296 -1.4939392 0.48585355 150 14740400 52 4 55 1863
1.0533139 -1.4517293 0.46542561 109 14740400 37 5 41 1853
1.0985279 -1.4000955 0.44331208 214 14740400 72 6 70 1834
1.1516554 -1.3608688 0.42616311 299 14740400 100 7 57 1833
1.0469432 -1.5611886 0.43317607 24 14740400 9 8 105 1929
1.1218852 -1.5449895 0.42000753 21 14740400 8 9 37 1955
1.1766089 -1.501283 0.40042731 118 14740400 45 10 58 1949
1.1858132 -1.4037142 0.36784452 126 14740400 44 11 34 1874
1.1659018 -1.7379878 0.40153795 26 14740400 12 12 131 2131
1.195502 -1.6477001 0.36962202 24 14740400 10 13 64 2069
1.1590943 -1.4795203 0.32275268 22 14740400 8 14 100 1907
1.1774466 -1.3945012 0.29628929 116 14740400 40 15 60 1849
1.2112784 -1.805698 0.33505094 27 14740400 13 16 52 2200
1.3352832 -1.8412321 0.32815829 17 14740400 9 17 89 2298
1.3571315 -1.7342359 0.29648745 18 14740400 9 18 71 2222
1.9465789 -2.3082771 0.37754226 17 14740400 16 19 80 3043
1.3406464 -1.9986271 0.28122315 36 14740400 21 20 103 2423
1.4870489 -2.0511808 0.27137992 18 14740400 12 21 95 2548
1.4987919 -1.9171202 0.23727362 31 14740400 19 22 76 2445
1.36119 -1.615889 0.18629552 17 14740400 8 23 102 2121
1.310104 -1.9539055 0.1883662 39 14740400 22 24 75 2360
1.4520992 -2.0040765 0.17449127 21 14740400 13 25 91 2481
1.370875 -1.7536263 0.13563322 25 14740400 12 26 113 2230
1.4447145 -1.7171092 0.11552317 17 14740400 9 27 84 2247
1.224256 -1.8278012 0.095627546 164 14740400 80 28 60 2202
1.3041205 -1.8011707 0.075361557 102 14740400 50 29 54 2225
1.4494431 -1.8577368 0.058121271 17 14740400 9 30 36 2357
1.5918996 -1.8934536 0.036960233 20 14740400 12 31 88 2474
1.2753662 -1.9043238 0.016001049 121 14740400 64 32 107 2292
1.3352709 -1.8456172 -0.005764991 129 14740400 67 33 80 2278
1.4065038 -1.803156 -0.027301678 66 14740400 35 34 105 2287
1.6534903 -1.9692919 -0.055165417 15 14740400 10 35 81 2572
1.2944696 -1.9348928 -0.069133312 167 14740400 90 36 151 2329
1.3797121 -1.9099907 -0.092163414 57 14740400 32 37 63 2358
1.433043 -1.8387673 -0.11348643 126 14740400 69 38 107 2334
1.4925508 -1.7775514 -0.13501118 15 14740400 8 39 61 2325
1.2142038 -1.8180043 -0.14509167 469 14740400 225 40 130 2191
1.5253384 -2.1136069 -0.19749568 28 14740400 19 41 102 2614
1.3445343 -1.7261939 -0.18681182 26 14740400 12 42 142 2196
1.5270923 -1.820688 -0.22550754 46 14740400 26 43 67 2387
1.3047829 -1.9551039 -0.24265264 504 14740400 281 44 133 2363
1.3414021 -1.8603061 -0.25839114 27 14740400 15 45 64 2308
1.562874 -2.0086801 -0.3110072 111 14740400 73 46 113 2564
1.6680735 -1.9897612 -0.34284511 61 14740400 42 47 112 2619
1.2232367 -1.8362437 -0.30965412 20 14740400 10 48 96 2228
1.3537916 -1.8792162 -0.34750366 73 14740400 40 49 70 2342
1.4585809 -1.8766643 -0.37989831 406 14740400 235 50 73 2407
1.6430842 -1.9610648 -0.43419385 133 14740400 90 51 65 2595
1.2902006 -1.9405069 -0.41533709 401 14740400 225 52 107 2367
1.366838 -1.8993524 -0.43974447 147 14740400 83 53 107 2381
1.4520482 -1.8694711 -0.46819174 101 14740400 59 54 76 2413
1.5882463 -1.8955472 -0.51483071 233 14740400 149 55 61 2526
1.2672323 -1.9082727 -0.4969447 339 14740400 186 56 113 2344
1.3838111 -1.9250634 -0.53755003 414 14740400 245 57 75 2431
1.3480446 -1.7362573 -0.52083337 48 14740400 24 58 48 2259
1.3957213 -1.6660668 -0.53787059 18 14740400 9 59 70 2239
1.2452389 -1.8799202 -0.57867461 436 14740400 236 60 51 2328
1.3468902 -1.8770175 -0.61609489 429 14740400 245 61 48 2391
1.3695382 -1.7646399 -0.61930263 293 14740400 158 62 64 2318
1.4698462 -1.7530572 -0.65992683 146 14740400 83 63 51 2381
0.98037606 -1.4837455 0.55509585 78 14837980 27 0 64 1863
1.0122956 -1.4120581 0.52148432 221 14837980 73 1 52 1814
1.0959182 -1.4134349 0.51788968 125 14837980 43 2 50 1862
1.1298144 -1.3490165 0.49153152 231 14837980 77 3 46 1827
1.0050267 -1.5193801 0.49211255 99 14837980 35 4 69 1887
1.0714401 -1.4959373 0.47748199 115 14837980 41 5 30 1901
1.0899165 -1.4068094 0.44331208 196 14837980 66 6 81 1834
1.1357989 -1.3589544 0.42337319 279 14837980 93 7 73 1821
1.1083289 -1.6748517 0.46281797 30 14837980 13 8 104 2061
1.139696 -1.5899457 0.43031973 26 14837980 10 9 44 2003
1.0883121 -1.4063097 0.37330753 234 14837980 77 10 81 1817
1.154564 -1.3838588 0.36077815 102 14837980 34 11 34 1838
1.2202678 -1.8433789 0.42414922 30 14837980 15 12 102 2251
1.4741206 -2.058157 0.45966047 23 14837980 16 13 61 2573
1.2730142 -1.645633 0.35727894 28 14837980 12 14 126 2111
1.2523133 -1.5017668 0.31744134 42 14837980 17 15 83 1981
1.2198154 -1.8427652 0.34053361 24 14837980 12 16 60 2236
1.4622329 -2.0425384 0.36243069 36 14837980 23 17 104 2538
1.4264528 -1.846047 0.31410056 20 14837980 11 18 80 2354
1.5361238 -1.8444002 0.30012316 14 14837980 8 19 101 2419
1.3349366 -2.0167544 0.2826159 35 14837980 21 20 100 2435
1.5438747 -2.1572967 0.28416079 24 14837980 17 21 78 2668
1.5818765 -2.0491841 0.25241253 18 14837980 12 22 89 2601
1.6417586 -1.9734045 0.22634774 12 14837980 8 23 138 2577
1.1990834 -1.8122703 0.17399928 34 14837980 16 24 69 2180
1.4049557 -1.9642678 0.1702714 27 14837980 16 25 87 2421
1.4991477 -1.9421562 0.14950065 27 14837980 16 26 138 2458
1.4111743 -1.6982896 0.11367233 23 14837980 11 27 99 2211
1.2592909 -1.9052892 0.099275455 161 14837980 84 28 81 2286
1.300018 -1.8188957 0.075768001 112 14837980 56 29 45 2237
1.4526595 -1.8856019 0.058713086 18 14837980 10 30 52 2381
1.5112673 -1.820104 0.035346773 24 14837980 14 31 88 2366
1.2768896 -1.9321357 0.0161686 145 14837980 78 32 83 2316
1.3308954 -1.8635409 -0.0057953601 126 14837980 66 33 80 2290
1.4100569 -1.8307649 -0.027588185 103 14837980 55 34 105 2311
1.4882149 -1.7946975 -0.050017789 60 14837980 33 35 79 2332
1.2363145 -1.8727282 -0.066639885 350 14837980 176 36 160 2245
1.3958133 -1.9574724 -0.094039515 90 14837980 52 37 70 2406
1.4290433 -1.8570246 -0.11406991 117 14837980 64 38 105 2346
1.5580865 -1.8788917 -0.14197952 14 14837980 9 39 69 2445
1.2096148 -1.8354179 -0.14588632 451 14837980 219 40 115 2203
1.470685 -2.0644526 -0.19205587 58 14837980 38 41 102 2542
1.3849415 -1.800755 -0.19395763 68 14837980 35 42 127 2280
1.5539957 -1.8760235 -0.23117591 9 14837980 6 43 63 2447
1.3124571 -1.9929802 -0.24634942 115 14837980 66 44 110 2399
1.2677282 -1.7810675 -0.24630006 34 14837980 17 45 62 2200
1.514236 -1.9710035 -0.30372936 47 14837980 29 46 113 2504
1.6406593 -1.9816315 -0.33970332 55 14837980 37 47 131 2595
1.3033322 -1.9827381 -0.33300325 44 14837980 25 48 74 2396
1.3766224 -1.9358435 -0.35640642 67 14837980 39 49 60 2402
1.4903233 -1.9419814 -0.39126211 88 14837980 54 50 62 2479
1.6159359 -1.9528798 -0.4301782 213 14837980 141 51 95 2571
1.2458673 -1.8989983 -0.40480891 357 14837980 190 52 112 2307
1.3893075 -1.9557768 -0.45082584 202 14837980 120 53 113 2441
1.4405501 -1.8783455 -0.46819174 252 14837980 147 54 83 2413
1.5990548 -1.9324101 -0.52216792 420 14837980 276 55 75 2562
1.261927 -1.9258213 -0.4994888 248 14837980 138 56 137 2356
1.3652006 -1.9239737 -0.53489655 394 14837980 231 57 78 2419
1.3941994 -1.8186313 -0.54296708 138 14837980 76 58 54 2355
1.4300252 -1.7284499 -0.55516702 13 14837980 7 59 85 2311
1.2336805 -1.8875254 -0.57867461 450 14837980 244 60 62 2328
1.3420496 -1.8947084 -0.619187 473 14837980 273 61 56 2403
1.379786 -1.8005459 -0.62892079 169 14837980 93 62 50 2354
1.4811226 -1.7886846 -0.66990477 162 14837980 94 63 41 2417
0.97125351 -1.489733 0.55509585 49 14936170 17 0 60 1863
1.0434469 -1.4745347 0.54218262 189 14936170 67 1 65 1886
1.0662044 -1.3926758 0.50787675 143 14936170 48 2 63 1826
1.1215158 -1.3559235 0.49153152 229 14936170 76 3 39 1827
1.0273443 -1.5740244 0.50776005 85 14936170 32 4 61 1947
1.0756518 -1.5214521 0.48351017 107 14936170 40 5 40 1925
1.1166378 -1.4597127 0.45781517 140 14936170 50 6 76 1894
1.1571575 -1.401902 0.43453294 288 14936170 101 7 65 1869
1.1108177 -1.7012029 0.46820739 33 14936170 14 8 89 2085
1.0960721 -1.5490733 0.41742948 31 14936170 12 9 45 1943
1.0368804 -1.3569715 0.35851496 280 14936170 85 10 58 1745
1.183463 -1.4363225 0.37255546 86 14936170 31 11 30 1898
1.1251519 -1.7225642 0.39475456 63 14936170 28 12 114 2095
1.4682802 -2.0768042 0.46180421 17 14936170 12 13 74 2585
1.3131453 -1.7192051 0.37149563 26 14936170 13 14 111 2195
1.3484949 -1.6374303 0.3443622 20 14936170 9 15 65 2149
1.2992839 -1.9892296 0.36611933 23 14936170 13 16 56 2404
1.1755029 -1.6634868 0.29388586 19 14936170 8 17 101 2058
1.4150988 -1.8547648 0.31410056 17 14936170 10 18 91 2354
1.8122101 -2.2032447 0.35669866 13 14936170 11 19 100 2875
1.3942308 -2.1346765 0.29793635 26 14936170 17 20 83 2567
1.3791541 -1.9523299 0.2560429 21 14936170 12 21 95 2404
1.4099929 -1.8498796 0.22679281 23 14936170 13 22 76 2337
1.3943772 -1.6971236 0.19367357 25 14936170 12 23 122 2205
1.2271757 -1.8796903 0.17974605 56 14936170 29 24 73 2252
1.4826285 -2.0999746 0.18124305 38 14936170 25 25 74 2577
1.4073366 -1.8465282 0.14147215 26 14936170 14 26 125 2326
1.4919549 -1.8180858 0.12107567 19 14936170 11 27 105 2355
1.1886361 -1.8226033 0.094585285 144 14936170 69 28 74 2178
1.2819192 -1.8170387 0.075361557 139 14936170 69 29 48 2225
1.4410623 -1.8944798 0.058713086 23 14936170 13 30 36 2381
1.4087732 -1.7180048 0.033195488 24 14936170 12 31 82 2222
1.2650102 -1.9399343 0.0161686 101 14936170 54 32 104 2316
1.3470922 -1.9109035 -0.0059168343 159 14936170 87 33 80 2338
1.3624804 -1.7916269 -0.02687192 113 14936170 57 34 94 2251
1.4999784 -1.8316411 -0.050789934 65 14936170 37 35 76 2368
1.198613 -1.8400768 -0.065215066 382 14936170 185 36 173 2197
1.3768746 -1.9561945 -0.093570493 133 14936170 76 37 70 2394
1.4393756 -1.8943887 -0.11582035 138 14936170 78 38 120 2382
1.5465285 -1.8884166 -0.14197952 49 14936170 29 39 82 2445
1.2113849 -1.8628813 -0.14747563 466 14936170 231 40 110 2227
1.3753973 -1.9559809 -0.18117622 111 14936170 64 41 109 2398
1.3955588 -1.8377856 -0.19702011 50 14936170 27 42 149 2316
0 -0 -0 4 14936170 0 43 61 0
1.2611812 -1.9409409 -0.23895586 71 14936170 38 44 119 2327
1.4212995 -2.0229845 -0.27854297 116 14936170 72 45 63 2488
0 -0 -0 4 14936170 0 46 101 0
1.5983475 -1.9548212 -0.33341983 74 14936170 48 47 145 2547
1.2458763 -1.9209071 -0.32132867 41 14936170 22 48 95 2312
1.3374467 -1.9054011 -0.34928423 32 14936170 17 49 53 2354
1.3853471 -1.8283101 -0.36664057 34 14936170 19 50 68 2323
1.5515194 -1.8986309 -0.41612339 464 14936170 287 51 85 2487
1.2727102 -1.9661109 -0.41744274 257 14936170 146 52 93 2379
1.3434272 -1.9159826 -0.43974447 205 14936170 116 53 92 2381
1.4645301 -1.9340737 -0.47983348 151 14936170 92 54 53 2473
1.5871676 -1.9421853 -0.52216792 351 14936170 231 55 71 2562
1.2564538 -1.9433762 -0.50203282 234 14936170 131 56 132 2368
1.3399423 -1.9131428 -0.52958959 383 14936170 220 57 86 2395
1.3548255 -1.7899106 -0.53190023 121 14936170 64 58 50 2307
1.5446874 -1.8905398 -0.60417354 18 14936170 12 59 68 2515
1.2094769 -1.8755231 -0.5727089 452 14936170 240 60 43 2304
1.3038238 -1.8648967 -0.60681868 444 14936170 246 61 44 2355
1.3547575 -1.790535 -0.6225087 37 14936170 20 62 56 2330
1.4628208 -1.7888136 -0.66657883 172 14936170 99 63 56 2405
0.95589739 -1.4860306 0.55152035 88 15035080 30 0 68 1851
1.0212169 -1.4620644 0.53528321 173 15035080 60 1 57 1862
1.0854411 -1.4359721 0.5212273 119 15035080 42 2 52 1874
1.1204863 -1.3717304 0.49475998 227 15035080 77 3 45 1839
1.0051225 -1.5608187 0.50150102 72 15035080 27 4 66 1923
1.0264138 -1.4708714 0.46542561 138 15035080 47 5 45 1853
1.1146781 -1.4758286 0.46071583 122 15035080 44 6 97 1906
1.1190369 -1.3727901 0.42337319 255 15035080 85 7 64 1821
1.0686934 -1.658836 0.45473382 70 15035080 29 8 91 2025
1.0664148 -1.5269442 0.40969533 30 15035080 11 9 46 1907
1.1629219 -1.5414366 0.40535817 54 15035080 21 10 76 1973
1.1969072 -1.4709375 0.37962186 110 15035080 41 11 43 1934
1.1017929 -1.7096235 0.39023232 36 15035080 15 12 122 2071
1.5636171 -2.2406945 0.4961046 28 15035080 21 13 56 2777
1.1743915 -1.5572611 0.33493844 19 15035080 7 14 107 1979
1.2188426 -1.4986428 0.31359553 17 15035080 7 15 61 1957
1.2420819 -1.92738 0.35332647 33 15035080 18 16 60 2320
1.2332199 -1.7680833 0.3110221 27 15035080 13 17 92 2178
1.5253369 -2.0248981 0.34132084 13 15035080 9 18 75 2558
1.918776 -2.362201 0.38051993 17 15035080 16 19 78 3067
1.368194 -2.1231537 0.29515085 28 15035080 18 20 90 2543
1.4490414 -2.0782051 0.27137992 27 15035080 18 21 119 2548
1.3842525 -1.8394104 0.22446375 33 15035080 18 22 103 2313
1.4743172 -1.8170366 0.20632164 18 15035080 10 23 149 2349
1.1767538 -1.8268484 0.17399928 54 15035080 26 24 76 2180
1.3944331 -2.0010028 0.17195936 29 15035080 18 25 79 2445
1.5328171 -2.0369728 0.15533957 31 15035080 20 26 110 2554
1.3902274 -1.715479 0.11367233 20 15035080 10 27 118 2211
1.2033792 -1.8701898 0.096669801 156 15035080 78 28 73 2226
1.2501856 -1.7953441 0.074142225 137 15035080 66 29 64 2189
1.350166 -1.7977701 0.055458099 35 15035080 18 30 59 2249
1.3982053 -1.7266165 0.033195488 27 15035080 13 31 79 2222
1.2271125 -1.9072936 0.015833499 101 15035080 52 32 103 2268
1.328488 -1.909283 -0.0058864662 168 15035080 91 33 95 2326
1.3730752 -1.8287396 -0.027301678 98 15035080 51 34 95 2287
1.4509908 -1.7941682 -0.049503028 94 15035080 50 35 81 2308
1.1678449 -1.8171253 -0.064146452 409 15035080 191 36 130 2161
1.3580045 -1.9547585 -0.093101472 140 15035080 80 37 67 2382
1.4349173 -1.9127725 -0.11640382 77 15035080 44 38 87 2394
1.5725788 -1.9444438 -0.14546366 236 15035080 148 39 81 2505
1.1934659 -1.8602014 -0.14668098 468 15035080 230 40 132 2215
1.4111276 -2.0331943 -0.18752268 169 15035080 104 41 116 2482
1.5061853 -2.0089426 -0.21437421 21 15035080 13 42 155 2520
0 -0 -0 5 15035080 0 43 62 0
1.2556905 -1.9586917 -0.24018812 44 15035080 24 44 100 2339
1.3748841 -1.9826723 -0.2718257 463 15035080 273 45 84 2428
0 -0 -0 8 15035080 0 46 95 0
1.5713751 -1.9460796 -0.33027804 68 15035080 43 47 135 2523
1.2596872 -1.968554 -0.32799986 71 15035080 40 48 102 2360
0 -0 -0 8 15035080 0 49 63 0
1.4805764 -1.9791003 -0.39505005 48 15035080 30 50 55 2503
1.5175507 -1.8804946 -0.41009989 501 15035080 301 51 83 2451
1.2479048 -1.95397 -0.41323143 228 15035080 126 52 116 2355
1.3450685 -1.9435853 -0.44417703 198 15035080 114 53 129 2405
1.4949279 -1.9995935 -0.49380356 110 15035080 71 54 85 2545
1.5752207 -1.9518875 -0.52216792 245 15035080 161 55 67 2562
1.2192794 -1.9115009 -0.49185655 256 15035080 138 56 127 2320
1.3281783 -1.9213285 -0.52958959 486 15035080 279 57 91 2395
1.4556564 -1.9478441 -0.57616758 173 15035080 108 58 53 2499
1.4599104 -1.8093271 -0.57534623 17 15035080 10 59 72 2395
1.1917069 -1.8731021 -0.56972599 457 15035080 240 60 45 2292
1.2857714 -1.8633186 -0.60372669 412 15035080 226 61 57 2343
1.3299043 -1.7802852 -0.61609656 46 15035080 25 62 71 2306
1.4880372 -1.8426061 -0.68320864 208 15035080 127 63 81 2465
0.9528991 -1.5015396 0.55509585 62 15132970 21 0 52 1863
1.0383205 -1.5061539 0.5490821 110 15132970 40 1 89 1910
1.0628217 -1.4241301 0.51455206 41 15132970 14 2 59 1850
1.0975355 -1.3605886 0.48830307 231 15132970 76 3 44 1815
1.0203758 -1.6060693 0.51401901 75 15132970 29 4 91 1971
1.0371348 -1.5058396 0.47446787 146 15132970 52 5 26 1889
1.0986408 -1.4733057 0.45781517 109 15132970 39 6 108 1894
1.1471854 -1.4250879 0.43732285 264 15132970 94 7 67 1881
1.0459498 -1.6456245 0.4493444 99 15132970 40 8 73 2001
1.136843 -1.6492522 0.44063196 33 15132970 14 9 42 2051
1.3639028 -1.8310953 0.47932115 20 15132970 11 10 73 2333
1.1583775 -1.4415649 0.37019998 97 15132970 34 11 35 1886
1.1102518 -1.746187 0.39701572 53 15132970 24 12 118 2107
1.2819518 -1.861295 0.41035372 25 15132970 13 13 74 2297
1.2636969 -1.697245 0.36337182 17 15132970 8 14 83 2147
1.4395577 -1.7923816 0.3732059 20 15132970 11 15 76 2329
1.1856894 -1.8649058 0.34053361 33 15132970 16 16 55 2236
1.3233683 -1.9223621 0.33672637 34 15132970 19 17 96 2358
1.4277173 -1.9197049 0.32210654 25 15132970 15 18 90 2414
1.7477833 -2.1788759 0.34925449 18 15132970 14 19 86 2815
1.265615 -1.9906932 0.27565205 22 15132970 12 20 104 2375
1.307743 -1.9003032 0.24709633 35 15132970 19 21 99 2320
1.4869065 -2.0012593 0.24309628 29 15132970 18 22 100 2505
1.3584967 -1.6954498 0.19156554 17 15132970 8 23 117 2181
1.2360952 -1.945086 0.18453501 65 15132970 35 24 74 2312
1.4499635 -2.1081479 0.18039906 39 15132970 26 25 95 2565
1.4631449 -1.9694216 0.14950065 33 15132970 20 26 118 2458
1.5294365 -1.9111115 0.12601125 13 15132970 8 27 98 2451
1.2175822 -1.9180244 0.098754331 154 15132970 80 28 65 2274
1.2527319 -1.822749 0.074955113 115 15132970 56 29 55 2213
1.3462547 -1.8156573 0.05575401 104 15132970 53 30 41 2261
1.5074838 -1.8850963 0.036063865 21 15132970 12 31 71 2414
1.2218171 -1.9249183 0.015917275 154 15132970 80 32 114 2280
1.2759887 -1.8580467 -0.0057042539 109 15132970 56 33 70 2254
1.3546829 -1.8274907 -0.027158424 94 15132970 49 34 105 2275
1.4998487 -1.8780339 -0.051562078 73 15132970 42 35 85 2404
1.1630963 -1.8343871 -0.064502664 402 15132970 190 36 183 2173
1.339204 -1.9531648 -0.092632443 136 15132970 77 37 77 2370
1.4160203 -1.9119093 -0.11582035 73 15132970 41 38 100 2382
1.5307142 -1.9166133 -0.14267634 123 15132970 74 39 73 2457
1.1884333 -1.8776065 -0.14747563 453 15132970 225 40 129 2227
1.358053 -1.9825838 -0.18208286 216 15132970 125 41 113 2410
1.4369224 -1.9412646 -0.20620757 35 15132970 20 42 135 2424
0 -0 -0 8 15132970 0 43 68 0
1.2627896 -1.9966241 -0.24388488 197 15132970 111 44 102 2375
1.3357532 -1.9517088 -0.26645187 422 15132970 239 45 85 2380
0 -0 -0 8 15132970 0 46 125 0
1.5594046 -1.9556847 -0.33027804 119 15132970 76 47 144 2523
1.1904918 -1.8858079 -0.31298968 57 15132970 29 48 85 2252
1.2938693 -1.8922818 -0.34394258 11 15132970 6 49 55 2318
1.3909662 -1.8832994 -0.37421641 100 15132970 56 50 53 2371
1.4986104 -1.8805184 -0.40809205 355 15132970 211 51 85 2439
1.1729167 -1.8616366 -0.39217508 15 15132970 8 52 113 2235
1.2799035 -1.8738919 -0.42644686 172 15132970 92 53 106 2309
1.4406857 -1.9519 -0.47983348 387 15132970 237 54 81 2473
1.4753524 -1.8512671 -0.49281898 68 15132970 40 55 87 2418
1.2325109 -1.9586484 -0.50203282 258 15132970 145 56 129 2368
1.3097686 -1.9197745 -0.52693611 401 15132970 228 57 68 2383
1.4090152 -1.9097587 -0.56233406 389 15132970 231 58 87 2439
1.441522 -1.8091406 -0.57246345 24 15132970 14 59 68 2383
1.1987283 -1.9099138 -0.57867461 464 15132970 251 60 53 2328
1.2677875 -1.8615893 -0.60063457 415 15132970 225 61 46 2331
1.2846376 -1.7418791 -0.6000663 72 15132970 37 62 62 2246
1.4551368 -1.8246586 -0.67323077 218 15132970 129 63 61 2429
0.98013812 -1.5656136 0.57654881 63 15231120 24 0 59 1935
1.0549206 -1.5505069 0.56288105 97 15231120 37 1 58 1958
1.0677378 -1.4491841 0.5212273 45 15231120 16 2 67 1874
1.0891665 -1.3672973 0.48830307 209 15231120 69 3 45 1815
1.010502 -1.6123 0.51401901 99 15231120 39 4 75 1971
1.021346 -1.5025688 0.47145382 153 15231120 54 5 33 1877
1.0895801 -1.4800191 0.45781517 130 15231120 47 6 90 1894
1.131157 -1.4229639 0.43453294 241 15231120 84 7 62 1869
1.0668921 -1.7015469 0.46281797 94 15231120 40 8 80 2061
1.1992152 -1.7627876 0.4689905 25 15231120 12 9 63 2183
1.1926206 -1.6218203 0.42261621 27 15231120 12 10 73 2057
1.1275687 -1.4209938 0.36313364 210 15231120 72 11 41 1850
1.0368958 -1.6531297 0.37440446 138 15231120 55 12 106 1987
1.3103313 -1.9277141 0.42321634 23 15231120 13 13 61 2369
1.3443203 -1.8288491 0.38977426 20 15231120 11 14 103 2303
1.7229491 -2.172399 0.45012254 20 15231120 16 15 75 2809
1.3443713 -2.1434231 0.3898775 22 15231120 14 16 57 2560
1.2981989 -1.9107977 0.33329913 30 15231120 16 17 116 2334
1.3736804 -1.8709117 0.31249937 20 15231120 11 18 88 2342
1.6308727 -2.0588856 0.32841089 14 15231120 10 19 98 2647
1.2153796 -1.9378378 0.26729548 24 15231120 13 20 88 2303
1.2960583 -1.9082917 0.24709633 33 15231120 18 21 99 2320
1.5240468 -2.0777578 0.251248 16 15231120 11 22 86 2589
1.3629025 -1.722502 0.19367357 15 15231120 7 23 132 2205
1.1606007 -1.8512863 0.17495708 108 15231120 52 24 65 2192
1.289099 -1.8991145 0.16183168 38 15231120 20 25 83 2301
1.4581171 -1.9880204 0.15023051 23 15231120 14 26 139 2470
1.4433762 -1.8264349 0.11984179 26 15231120 14 27 94 2331
1.1930645 -1.9051377 0.097712062 150 15231120 76 28 73 2250
1.234792 -1.8204761 0.074548669 134 15231120 65 29 49 2201
1.3138312 -1.7948434 0.054866284 121 15231120 60 30 46 2225
1.4810166 -1.8754774 0.035705317 21 15231120 12 31 90 2390
1.1462997 -1.8306748 0.015079523 364 15231120 170 32 117 2160
1.3184228 -1.9453088 -0.0059472034 130 15231120 72 33 78 2350
1.3647031 -1.864818 -0.027588185 96 15231120 51 34 99 2311
1.4957263 -1.8966218 -0.051819462 51 15231120 30 35 90 2416
1.1645402 -1.8618276 -0.065215066 419 15231120 202 36 162 2197
1.3204743 -1.9514143 -0.092163414 128 15231120 71 37 72 2358
1.3971879 -1.9108864 -0.11523686 55 15231120 31 38 103 2370
1.4966699 -1.8977501 -0.14058584 116 15231120 68 39 74 2421
1.1959149 -1.9153326 -0.14985961 488 15231120 250 40 129 2263
1.2587446 -1.8620092 -0.17029659 435 15231120 221 41 123 2254
1.4532015 -1.9886597 -0.21029089 61 15231120 37 42 135 2472
1.3744198 -1.7446799 -0.21076973 10 15231120 5 43 55 2231
1.2252413 -1.9638263 -0.23895586 233 15231120 126 44 92 2327
1.3437757 -1.9895132 -0.27048224 77 15231120 45 45 97 2416
0 -0 -0 6 15231120 0 46 113 0
1.5547352 -1.9745634 -0.33184892 127 15231120 81 47 135 2535
1.1851802 -1.9031645 -0.31465748 57 15231120 29 48 109 2264
1.2224923 -1.8116519 -0.32791764 11 15231120 6 49 84 2210
1.3933469 -1.9109483 -0.37800437 88 15231120 50 50 42 2395
1.5382577 -1.9547594 -0.42214686 42 15231120 27 51 82 2523
1.2300687 -1.9791704 -0.41533709 13 15231120 7 52 105 2367
1.3079326 -1.9403862 -0.43974447 159 15231120 90 53 115 2381
1.4217495 -1.9511892 -0.47750515 408 15231120 247 54 96 2461
1.4639655 -1.8602848 -0.49281898 49 15231120 29 55 71 2418
1.2081001 -1.9462467 -0.4969447 269 15231120 148 56 127 2344
1.3045006 -1.9374827 -0.52958959 418 15231120 240 57 96 2395
1.3835213 -1.8994914 -0.55680066 439 15231120 256 58 81 2415
1.3943793 -1.7721785 -0.5580498 21 15231120 12 59 60 2323
1.1747499 -1.8974679 -0.5727089 377 15231120 200 60 47 2304
1.2563411 -1.8693333 -0.60063457 430 15231120 233 61 45 2331
1.3215702 -1.8151684 -0.6225087 46 15231120 25 62 80 2330
1.4296467 -1.8154362 -0.66657883 245 15231120 141 63 51 2405
0.95847595 -1.5521055 0.56939787 59 15328590 22 0 80 1911
1.0453869 -1.5569507 0.56288105 85 15328590 33 1 90 1958
1.0859461 -1.4929943 0.53457785 117 15328590 43 2 59 1922
1.0879019 -1.3830385 0.49153152 206 15328590 69 3 49 1827
0.99449825 -1.6086164 0.51088953 68 15328590 26 4 100 1959
1.0509307 -1.5666839 0.48953834 109 15328590 41 5 25 1949
1.1010154 -1.5149347 0.46651706 91 15328590 34 6 93 1930
1.1224046 -1.4298778 0.43453294 193 15328590 67 7 54 1869
1.0133747 -1.638446 0.44395494 77 15328590 30 8 96 1977
1.1622462 -1.7311912 0.45867828 20 15328590 9 9 37 2135
1.0446618 -1.4390317 0.37330753 21 15328590 7 10 58 1817
1.0535129 -1.344528 0.34193447 332 15328590 101 11 43 1742
1.0205321 -1.649439 0.37214336 77 15328590 30 12 110 1975
1.1603541 -1.7298077 0.37819713 39 15328590 18 13 58 2117
1.2288817 -1.6934804 0.35930991 22 15328590 10 14 100 2123
1.3663307 -1.7446343 0.3597455 25 15328590 13 15 74 2245
1.2251146 -1.9801735 0.35880914 31 15328590 17 16 49 2356
1.28645 -1.9187273 0.33329913 28 15328590 15 17 80 2334
1.3900931 -1.9178222 0.31890416 23 15328590 13 18 79 2390
1.3761196 -1.7593464 0.27927953 19 15328590 10 19 83 2251
1.2724448 -2.0567544 0.2826159 36 15328590 21 20 110 2435
1.3308262 -1.9855881 0.2560429 23 15328590 13 21 97 2404
1.3501606 -1.8645784 0.22446375 25 15328590 14 22 71 2313
1.4553407 -1.8627051 0.20842965 19 15328590 11 23 136 2373
1.1743848 -1.8990669 0.17878824 97 15328590 49 24 63 2240
1.2374505 -1.8473173 0.15676785 58 15328590 29 25 91 2229
1.5301863 -2.1133502 0.15898889 39 15328590 27 26 117 2614
1.550105 -1.9864234 0.12971292 22 15328590 14 27 103 2523
1.2128551 -1.9634204 0.10031772 134 15328590 72 28 80 2310
1.2302697 -1.8379847 0.074955113 181 15328590 89 29 67 2213
1.2957672 -1.7931477 0.054570373 122 15328590 60 30 46 2213
1.4178339 -1.8182949 0.034450401 30 15328590 16 31 76 2306
1.1413511 -1.8478832 0.015163299 387 15328590 183 32 111 2172
1.3064618 -1.9533619 -0.0059472034 132 15328590 73 33 96 2350
1.325128 -1.8342506 -0.02701517 122 15328590 62 34 122 2263
1.4619472 -1.8773665 -0.051047318 43 15328590 24 35 87 2380
1.1467962 -1.8587301 -0.064858869 420 15328590 200 36 146 2185
1.2418867 -1.8597609 -0.087473169 336 15328590 168 37 91 2238
1.364392 -1.8902676 -0.11348643 36 15328590 20 38 101 2334
1.440834 -1.8501873 -0.13640486 134 15328590 74 39 65 2349
1.1653026 -1.8920491 -0.14747563 476 15328590 236 40 128 2227
1.2273744 -1.8398355 -0.16757669 494 15328590 243 41 122 2218
1.4619571 -2.0266294 -0.21335338 97 15328590 61 42 157 2508
1.4443733 -1.8568035 -0.22324018 53 15328590 30 43 69 2363
1.2194246 -1.9814731 -0.24018812 489 15328590 268 44 130 2339
1.2918613 -1.9381862 -0.26242152 25 15328590 14 45 62 2344
1.3486098 -1.871567 -0.28189576 99 15328590 54 46 92 2324
1.5279858 -1.9652818 -0.32870716 115 15328590 72 47 122 2511
1.1797001 -1.9205265 -0.31632528 137 15328590 71 48 94 2276
1.3165931 -1.9771601 -0.35640642 16 15328590 9 49 56 2402
1.4369745 -1.9964004 -0.39315611 91 15328590 57 50 62 2491
1.5189756 -1.9548192 -0.42013904 14 15328590 9 51 60 2511
1.1129367 -1.8154585 -0.37954125 11 15328590 5 52 90 2163
1.3155971 -1.9778337 -0.44639328 193 15328590 113 53 100 2417
1.4166244 -1.9694325 -0.47983348 383 15328590 234 54 125 2473
1.4236891 -1.832126 -0.48303595 26 15328590 14 55 54 2370
1.2145061 -1.9836273 -0.50457692 272 15328590 154 56 108 2380
1.2731586 -1.9162078 -0.52162915 395 15328590 220 57 83 2359
1.3718402 -1.9079448 -0.55680066 405 15328590 236 58 63 2415
1.4692392 -1.8910843 -0.59264261 22 15328590 14 59 62 2467
1.1691428 -1.9145603 -0.57569176 239 15328590 128 60 59 2316
1.2448474 -1.8770068 -0.60063457 436 15328590 237 61 48 2331
1.3643986 -1.8983638 -0.64815712 279 15328590 164 62 57 2426
1.3972476 -1.7968686 -0.65660095 313 15328590 176 63 65 2369
1.0323571 -1.6949205 0.6194548 55 15426930 24 0 72 2079
0.97868031 -1.4771048 0.53183347 83 15426930 28 1 113 1850
1.0431509 -1.4528148 0.51788968 123 15426930 42 2 55 1862
1.1077538 -1.4261985 0.50444531 199 15426930 70 3 38 1875
0.99064052 -1.6245791 0.51401901 84 15426930 33 4 100 1971
1.066943 -1.6118451 0.50159472 102 15426930 41 5 34 1997
1.0645483 -1.4838175 0.45491457 127 15426930 45 6 118 1882
1.1350598 -1.4644117 0.44290274 153 15426930 56 7 73 1905
1.0276617 -1.6845634 0.45473382 70 15426930 29 8 66 2025
1.2551653 -1.8946141 0.49992713 18 15426930 10 9 46 2327
1.0700165 -1.4931443 0.38563472 38 15426930 14 10 61 1877
1.1676483 -1.5091743 0.38197732 78 15426930 29 11 40 1946
1.1822867 -1.9373432 0.43545482 38 15426930 20 12 123 2311
1.2865766 -1.9436487 0.42321634 31 15426930 18 13 72 2369
1.2529038 -1.7490618 0.36946467 23 15426930 11 14 106 2183
1.1961888 -1.5468434 0.31744134 21 15426930 8 15 68 1981
1.1882296 -1.9471579 0.35149893 38 15426930 20 16 47 2308
1.3270806 -2.0058272 0.34700808 26 15426930 15 17 90 2430
1.5443873 -2.1584406 0.3573328 24 15426930 17 18 96 2678
1.2925149 -1.6735183 0.26439124 16 15426930 7 19 89 2131
1.2039247 -1.972955 0.27008098 40 15426930 22 20 84 2327
1.3515285 -2.0434766 0.26243335 33 15426930 20 21 99 2464
1.477599 -2.0671549 0.24775441 28 15426930 18 22 79 2553
1.509598 -1.9567801 0.2179157 20 15426930 12 23 163 2481
1.1128799 -1.8245412 0.1711259 233 15426930 107 24 73 2144
1.2326931 -1.8648614 0.15761182 117 15426930 59 25 75 2241
1.5589797 -2.1811671 0.16336808 34 15426930 24 26 152 2686
1.5232583 -1.9769114 0.12847903 21 15426930 13 27 88 2499
1.1820714 -1.9401113 0.098754331 127 15426930 65 28 49 2274
1.2454083 -1.8855278 0.07658089 144 15426930 73 29 55 2261
1.3126063 -1.8401299 0.05575401 142 15426930 72 30 56 2261
1.4578902 -1.8935105 0.035705317 41 15426930 24 31 90 2390
1.105019 -1.8138604 0.014828198 411 15426930 185 32 105 2124
1.2349619 -1.8712032 -0.0056738849 141 15426930 71 33 95 2242
1.3695838 -1.9205023 -0.028161198 125 15426930 70 34 92 2359
1.4211485 -1.8482584 -0.050017789 118 15426930 64 35 73 2332
1.1291342 -1.8554851 -0.064502664 431 15426930 203 36 155 2173
1.2040616 -1.8272955 -0.085597068 368 15426930 177 37 76 2190
1.359723 -1.9083654 -0.11406991 19 15426930 11 38 98 2346
1.4878739 -1.9349674 -0.14197952 79 15426930 47 39 96 2445
1.1598878 -1.9093971 -0.14827029 500 15426930 251 40 140 2239
1.2292207 -1.867321 -0.16938995 434 15426930 218 41 132 2242
1.4217528 -1.9966034 -0.20927006 150 15426930 91 42 153 2460
1.4329529 -1.8656311 -0.22324018 108 15426930 60 43 85 2363
1.2010498 -1.978714 -0.23895586 511 15426930 277 44 123 2327
1.2930497 -1.9660021 -0.26510841 44 15426930 25 45 65 2368
1.3440049 -1.8895131 -0.28335136 253 15426930 138 46 129 2336
1.5231427 -1.9840569 -0.33027804 26 15426930 16 47 127 2523
1.2048395 -1.9887115 -0.32633203 90 15426930 50 48 97 2348
1.2783695 -1.9455303 -0.34928423 14 15426930 7 49 56 2354
1.3903815 -1.9568818 -0.38368627 380 15426930 224 50 57 2431
1.4061289 -1.8326932 -0.3920294 48 15426930 27 51 71 2343
0 -0 -0 9 15426930 0 52 98 0
1.309908 -1.9957285 -0.44860956 226 15426930 133 53 99 2429
1.3840678 -1.9492922 -0.47284842 432 15426930 257 54 110 2437
1.4624813 -1.9060718 -0.50015622 104 15426930 62 55 55 2454
1.1841257 -1.9609255 -0.4969447 253 15426930 139 56 154 2344
1.2549604 -1.9141965 -0.51897568 377 15426930 208 57 85 2347
1.3533491 -1.9068042 -0.55403394 411 15426930 237 58 89 2403
1.3583466 -1.7706716 -0.5522843 26 15426930 14 59 81 2299
1.1453797 -1.9017838 -0.56972599 261 15426930 137 60 55 2292
1.2333069 -1.8846097 -0.60063457 412 15426930 224 61 48 2331
1.3192691 -1.8595433 -0.63212687 401 15426930 225 62 86 2366
1.3861959 -1.805408 -0.65660095 325 15426930 183 63 72 2369
1.6294968 -2.7126284 0.98773092 178 15523590 196 0 87 3315
1.001045 -1.5311819 0.5490821 97 15523590 35 1 89 1910
1.0408821 -1.468592 0.5212273 101 15523590 35 2 52 1874
1.1060154 -1.4421396 0.50767374 202 15523590 72 3 28 1887
0.97468317 -1.6206993 0.51088953 71 15523590 27 4 99 1959
1.0443294 -1.5989119 0.49556652 102 15523590 40 5 45 1973
1.0352349 -1.4618137 0.44621268 214 15523590 73 6 85 1846
1.126053 -1.4713488 0.44290274 138 15523590 50 7 79 1905
0.9931922 -1.6507583 0.44395494 79 15523590 31 8 76 1977
1.1922154 -1.8238018 0.47930273 24 15523590 12 9 46 2231
1.1625662 -1.6434978 0.42261621 29 15523590 12 10 52 2057
1.1583662 -1.5163105 0.38197732 35 15523590 13 11 47 1946
1.0549095 -1.7527136 0.39249349 87 15523590 38 12 106 2083
1.3650179 -2.0898993 0.45322916 25 15523590 16 13 77 2537
1.23532 -1.7470598 0.3674337 15 15523590 7 14 100 2171
1.2585585 -1.6482975 0.33667052 27 15523590 12 15 82 2101
1.1517966 -1.9137655 0.34418869 20 15523590 10 16 58 2260
1.3147482 -2.0139322 0.34700808 21 15523590 12 17 102 2430
1.3870363 -1.9638789 0.32370773 27 15523590 16 18 90 2426
1.4555117 -1.9086576 0.30012316 17 15523590 10 19 80 2419
1.1610667 -1.9292443 0.26311716 45 15523590 23 20 70 2267
1.2998389 -1.9917778 0.25476483 31 15523590 18 21 95 2392
1.4855438 -2.1054587 0.251248 24 15523590 16 22 79 2589
1.4758329 -1.9374787 0.21475369 19 15523590 11 23 134 2445
1.1263279 -1.8723354 0.17495708 325 15523590 156 24 85 2192
1.2670028 -1.9425732 0.16351962 104 15523590 56 25 91 2325
1.3591323 -1.9264386 0.14366174 30 15523590 17 26 124 2362
1.4240253 -1.8717686 0.12107567 24 15523590 13 27 104 2355
1.1701448 -1.9473277 0.098754331 172 15523590 89 28 61 2274
1.2141705 -1.8629912 0.075361557 135 15523590 67 29 67 2225
1.2805715 -1.8187226 0.054866284 127 15523590 63 30 47 2225
1.3373221 -1.7591418 0.033016212 109 15523590 53 31 91 2210
1.0938686 -1.8206065 0.014828198 405 15523590 183 32 110 2124
1.2823927 -1.9692471 -0.0059472034 119 15523590 66 33 80 2350
1.3439603 -1.9092456 -0.02787469 113 15523590 62 34 93 2335
1.4097811 -1.8569436 -0.050017789 123 15523590 67 35 87 2332
1.1362453 -1.8932323 -0.065571271 424 15523590 207 36 183 2209
1.186291 -1.8245964 -0.085128047 399 15523590 189 37 101 2178
1.4031485 -1.9951041 -0.11873773 43 15523590 26 38 74 2442
1.4469969 -1.9058948 -0.13919218 73 15523590 42 39 95 2397
1.1604573 -1.937021 -0.14985961 469 15523590 240 40 117 2263
1.2307755 -1.8948977 -0.17120321 400 15523590 205 41 123 2266
1.3957242 -1.9857258 -0.20722841 142 15523590 84 42 155 2436
1.3637292 -1.798239 -0.21417077 370 15523590 190 43 81 2267
1.188886 -1.9860462 -0.23895586 519 15523590 281 44 133 2327
1.2744709 -1.9638964 -0.26376498 69 15523590 39 45 60 2356
1.3597634 -1.9367185 -0.28917363 221 15523590 126 46 125 2384
1.5540584 -2.050251 -0.33970332 27 15523590 18 47 122 2595
1.1682338 -1.9552615 -0.31966087 209 15523590 111 48 104 2300
1.3180541 -2.0329978 -0.36352861 28 15523590 17 49 53 2450
1.3647404 -1.9459729 -0.37989831 444 15523590 257 50 75 2407
1.4162891 -1.8695778 -0.3980529 106 15523590 60 51 67 2379
1.1994807 -2.0116236 -0.41744274 23 15523590 13 52 85 2379
1.2848164 -1.9839303 -0.44417703 253 15523590 146 53 103 2405
1.3653249 -1.948108 -0.47052011 433 15523590 255 54 98 2425
1.4436641 -1.9056451 -0.49771047 177 15523590 106 55 66 2442
1.1840721 -1.9883059 -0.50203282 297 15523590 166 56 140 2368
1.2495478 -1.9316871 -0.52162915 225 15523590 125 57 87 2359
1.3416237 -1.9150722 -0.55403394 411 15523590 237 58 91 2403
1.4670218 -1.9368287 -0.60129082 21 15523590 13 59 71 2503
1.1396246 -1.9187696 -0.5727089 241 15523590 128 60 56 2304
1.2091411 -1.8726602 -0.59445047 452 15523590 240 61 49 2307
1.2879349 -1.8391865 -0.6225087 393 15523590 213 62 56 2330
1.3820573 -1.8230675 -0.65992683 279 15523590 158 63 64 2381
1.5894687 -2.6831541 0.97342902 41 15620670 44 0 80 3267
1.0040913 -1.5566123 0.55598158 44 15620670 17 1 85 1934
1.0384588 -1.4843959 0.52456492 63 15620670 23 2 58 1886
1.0762146 -1.4212569 0.4979884 183 15620670 63 3 47 1851
0.9942677 -1.67647 0.52653694 68 15620670 28 4 86 2019
1.0659586 -1.6541073 0.51063693 96 15620670 39 5 50 2033
1.0395882 -1.4872257 0.45201394 136 15620670 48 6 125 1870
1.1099676 -1.4689187 0.44011283 138 15620670 50 7 69 1893
1.0188459 -1.7171607 0.46012324 83 15620670 35 8 67 2049
1.0221944 -1.5848591 0.41485143 35 15620670 13 9 36 1931
1.2869231 -1.8431836 0.47192484 25 15620670 13 10 62 2297
1.3190938 -1.748845 0.43850839 21 15620670 10 11 55 2234
