# .PCD v0.7 - Point Cloud Data file format
VERSION 0.7
FIELDS x y z intensity t reflectivity ring noise range
SIZE 4 4 4 4 4 2 1 2 4
TYPE F F F F U U U U U
COUNT 1 1 1 1 1 1 1 1 1
WIDTH 786
HEIGHT 1
VIEWPOINT 0 0 0 1 0 0 0
POINTS 786
DATA ascii
1.5225652 6.2640438 0.62855673 798 79102220 3350 22 68 6477
1.3107792 6.4028502 0.57627767 800 79102220 3445 23 100 6561
1.9224409 5.9742208 0.50252271 781 79102220 3098 24 71 6296
1.7184103 6.091548 0.44625032 815 79102220 3282 25 74 6345
1.5132616 6.2248201 0.39035603 807 79102220 3324 26 109 6418
1.3119074 6.3890624 0.33577293 763 79102220 3255 27 100 6531
1.9180535 5.9506116 0.27176982 841 79102220 3296 28 60 6258
1.7227312 6.0987172 0.21477197 783 79102220 3147 29 38 6341
1.5202972 6.2281828 0.15813819 833 79102220 3425 30 40 6413
1.3132234 6.3835955 0.097375423 802 79102220 3409 31 71 6518
1.9146068 5.9388537 0.043563064 797 79102220 3105 32 75 6240
1.7077146 6.037097 -0.015877767 857 79102220 3375 33 71 6274
1.516193 6.208077 -0.076294281 825 79102220 3372 34 73 6391
1.3006184 6.3017011 -0.13804224 918 79102220 3800 35 57 6436
1.9022739 5.8907394 -0.1838311 851 79102220 3264 36 114 6193
1.709746 6.0274057 -0.24506558 863 79102220 3391 37 54 6270
1.4997762 6.1297169 -0.30720106 891 79102220 3556 38 138 6318
1.2972003 6.2856936 -0.37332773 913 79102220 3772 39 52 6429
1.8980201 5.8618197 -0.40891874 897 79102220 3420 40 107 6175
1.6968999 5.9717956 -0.47039333 890 79102220 3451 41 82 6226
1.4992392 6.1201177 -0.53797722 570 79102220 2281 42 78 6324
1.2901134 6.2343111 -0.60415614 960 79102220 3924 43 52 6395
1.9358975 5.9716864 -0.64806634 300 79102220 1196 44 81 6311
1.7114061 6.0136638 -0.70441818 575 79102220 2278 45 66 6292
1.4901483 6.0692549 -0.76369011 958 79102220 3799 46 85 6296
1.2846656 6.2003498 -0.83610219 939 79102220 3831 47 98 6387
1.8835957 5.7937994 -0.85502338 934 79102220 3536 48 79 6152
1.692225 5.9364238 -0.92618185 929 79102220 3618 49 55 6242
1.4853421 6.0360298 -0.99354374 933 79102220 3699 50 64 6295
1.2864814 6.200398 -1.0746926 935 79102220 3859 51 70 6423
1.8834701 5.7759223 -1.0828243 945 79102220 3600 52 89 6171
1.6855252 5.901588 -1.1533828 945 79102220 3687 53 65 6245
1.4873511 6.0360203 -1.2295612 971 79102220 3898 54 49 6337
1.2779763 6.1599464 -1.3096999 965 79102220 3983 55 51 6426
1.8804526 5.7557607 -1.3135961 949 79102220 3643 56 104 6196
1.6826172 5.879746 -1.3866624 906 79102220 3565 57 58 6271
1.4853195 6.0227985 -1.4698154 948 79102220 3850 58 54 6375
1.2726151 6.1314149 -1.5497111 941 79102220 3917 59 82 6451
1.8801295 5.7320566 -1.5481037 946 79102220 3668 60 48 6228
1.6804771 5.8537235 -1.6241097 922 79102220 3662 61 41 6303
1.4801842 5.9970222 -1.7125669 906 79102220 3720 62 57 6410
1.2660661 6.1127286 -1.8007329 823 79102220 3476 63 58 6497
2.0429571 6.204495 2.0389271 807 79200660 3781 0 60 6843
1.807873 6.2869134 1.9634717 840 79200660 3921 1 63 6830
1.6027092 6.4805212 1.9330468 745 79200660 3596 2 53 6950
1.3637503 6.5661459 1.8733082 830 79200660 4022 3 57 6963
2.0086656 6.1107612 1.7376502 827 79200660 3673 4 83 6663
1.801682 6.2551064 1.6891459 805 79200660 3638 5 49 6725
1.584251 6.395349 1.6412699 806 79200660 3718 6 67 6790
1.363596 6.5321851 1.5951475 859 79200660 4046 7 59 6861
2.0026214 6.0963192 1.4787271 792 79200660 3436 8 71 6585
1.7944101 6.2388659 1.4280256 739 79200660 3266 9 100 6647
1.5803362 6.3647885 1.3767384 812 79200660 3649 10 64 6701
1.3621765 6.497036 1.3288728 764 79200660 3500 11 40 6770
1.9873079 6.0529084 1.222326 783 79200660 3295 12 117 6487
1.7823907 6.1881309 1.1692489 801 79200660 3434 13 63 6545
1.5741802 6.334795 1.1209183 784 79200660 3440 14 69 6623
1.3507446 6.4346809 1.0673785 834 79200660 3702 15 62 6661
1.9732331 6.009686 0.97469366 769 79200660 3149 16 37 6400
1.7782038 6.1683326 0.92621177 766 79200660 3224 17 66 6486
1.5669842 6.2912912 0.87291676 773 79200660 3306 18 39 6542
1.3532194 6.4269409 0.82121336 781 79200660 3423 19 73 6619
1.9704306 6.0007973 0.73805112 772 79200660 3124 20 70 6359
1.7735922 6.1487064 0.68547928 784 79200660 3249 21 78 6436
1.563864 6.2661715 0.62972122 745 79200660 3139 22 68 6489
1.3500417 6.3946867 0.57627767 802 79200660 3453 23 98 6561
1.9590619 5.9623122 0.50252271 785 79200660 3114 24 68 6296
1.7590755 6.0923896 0.44709429 813 79200660 3287 25 58 6357
1.548527 6.2037969 0.38962618 791 79200660 3247 26 87 6406
1.3486029 6.3691688 0.33515602 826 79200660 3510 27 105 6519
1.9545296 5.9387307 0.27176982 817 79200660 3202 28 69 6258
1.7501271 6.0534682 0.21355264 797 79200660 3167 29 26 6305
1.5526515 6.1954641 0.15754637 870 79200660 3550 30 29 6389
1.3399187 6.31673 0.096479051 904 79200660 3772 31 69 6458
1.9472589 5.915596 0.04347929 812 79200660 3151 32 84 6228
1.7447252 6.026505 -0.015877767 839 79200660 3305 33 60 6274
1.5484198 6.1753793 -0.076007776 840 79200660 3407 34 73 6367
1.3392605 6.293602 -0.13804224 902 79200660 3738 35 66 6436
1.938383 5.8789568 -0.1838311 847 79200660 3249 36 98 6193
1.7433543 6.0052857 -0.24459656 872 79200660 3417 37 70 6258
1.5315193 6.0971494 -0.30603409 907 79200660 3592 38 146 6294
1.3307576 6.2541809 -0.37193406 872 79200660 3576 39 57 6405
1.9264355 5.8273268 -0.40732944 890 79200660 3368 40 98 6151
1.7301689 5.9497814 -0.46948668 860 79200660 3322 41 85 6214
1.5076027 5.9948492 -0.52776891 1019 79200660 3921 42 135 6204
1.3233569 6.2029109 -0.60188878 951 79200660 3862 43 64 6371
1.9237448 5.8123789 -0.63204694 910 79200660 3449 44 80 6155
1.7816157 6.1175385 -0.71785271 201 79200660 825 45 36 6412
1.5215383 6.0368967 -0.76077896 948 79200660 3731 46 80 6272
1.320201 6.1807165 -0.83453137 961 79200660 3906 47 107 6375
1.9191103 5.7821326 -0.85502338 949 79200660 3592 48 106 6152
1.7219721 5.9031444 -0.92262077 922 79200660 3563 49 53 6218
1.5194486 6.0153141 -0.99164987 960 79200660 3788 50 42 6283
1.3170785 6.15768 -1.0686691 961 79200660 3919 51 50 6387
1.9114121 5.7418385 -1.078613 937 79200660 3542 52 79 6147
1.7217048 5.8911347 -1.1533828 946 79200660 3690 53 86 6245
1.5185862 6.0039549 -1.2249044 970 79200660 3868 54 62 6313
1.3157489 6.151989 -1.3096999 956 79200660 3950 55 61 6426
1.9120237 5.7329898 -1.3110521 959 79200660 3667 56 107 6184
1.7153741 5.8580794 -1.3840089 945 79200660 3704 57 59 6259
1.5136505 5.9796119 -1.4615152 916 79200660 3679 58 33 6339
1.3077755 6.1121001 -1.5468284 955 79200660 3961 59 68 6439
1.9115751 5.7093906 -1.5451208 928 79200660 3588 60 69 6216
1.7130955 5.8321772 -1.6210177 948 79200660 3751 61 32 6291
1.5112736 5.9654074 -1.7061547 888 79200660 3620 62 47 6386
1.3035492 6.104845 -1.8007329 832 79200660 3514 63 58 6497
2.0773392 6.1809845 2.0353515 762 79298700 3557 0 68 6831
1.8496588 6.2867284 1.9669214 862 79298700 4038 1 64 6842
1.6282634 6.4147043 1.9163587 692 79298700 3283 2 48 6890
1.3991745 6.5350518 1.8668512 825 79298700 3970 3 55 6939
2.0534928 6.1202874 1.7439092 822 79298700 3678 4 63 6687
1.8465954 6.2662172 1.6951741 773 79298700 3518 5 52 6749
1.6205932 6.3742228 1.6383692 780 79298700 3585 6 90 6778
1.398741 6.500875 1.5895675 858 79298700 4012 7 72 6837
2.0437074 6.0950031 1.4814217 798 79298700 3475 8 67 6597
1.8260401 6.2052517 1.4228694 761 79298700 3340 9 77 6623
1.6164601 6.3435917 1.3742731 791 79298700 3541 10 67 6689
1.3970457 6.4655533 1.3241618 849 79298700 3862 11 45 6746
2.0244105 6.0406008 1.222326 772 79298700 3249 12 110 6487
1.8270019 6.199729 1.1735365 750 79298700 3238 13 75 6569
1.6042525 6.290637 1.1148254 747 79298700 3243 14 66 6587
1.3927062 6.437849 1.0693015 832 79298700 3702 15 56 6673
2.0138397 6.0087104 0.97652125 776 79298700 3189 16 50 6412
1.8092988 6.1345215 0.92278451 775 79298700 3238 17 61 6462
1.6026123 6.2700357 0.87131554 794 79298700 3387 18 64 6530
1.3850545 6.3836069 0.81674683 796 79298700 3452 19 61 6583
2.0072136 5.9885941 0.73805112 760 79298700 3075 20 81 6359
1.801155 6.1033764 0.68164504 767 79298700 3143 21 71 6400
1.5993201 6.2448878 0.62855673 786 79298700 3300 22 64 6477
1.3867124 6.3746018 0.57522362 823 79298700 3531 23 107 6549
1.9918054 5.9388385 0.50156492 775 79298700 3062 24 74 6284
1.7896425 6.0585217 0.44540635 793 79298700 3182 25 60 6333
1.5865637 6.1941781 0.38962618 807 79298700 3312 26 97 6406
1.3799949 6.3256474 0.33330515 831 79298700 3493 27 81 6483
1.9909322 5.9266262 0.27176982 841 79298700 3296 28 68 6258
1.7872375 6.0426159 0.21355264 787 79298700 3127 29 41 6305
1.5876493 6.1742024 0.15725046 779 79298700 3167 30 30 6377
1.3760904 6.2966671 0.096299775 873 79298700 3629 31 76 6446
1.9796978 5.8921618 0.043395516 792 79298700 3061 32 86 6216
1.7714473 5.9811683 -0.015786661 811 79298700 3158 33 64 6238
1.5862821 6.1657619 -0.076007776 831 79298700 3371 34 76 6367
1.375283 6.2735472 -0.13778485 928 79298700 3831 35 65 6424
1.9667674 5.8442154 -0.18311869 840 79298700 3197 36 105 6169
1.766515 5.9484973 -0.24272045 840 79298700 3241 37 74 6210
1.5748843 6.1108508 -0.30720106 906 79298700 3615 38 144 6318
1.3691075 6.2458978 -0.37193406 882 79298700 3620 39 71 6405
1.962155 5.8153968 -0.40732944 931 79298700 3522 40 109 6151
1.7666435 5.9390531 -0.46948668 876 79298700 3383 41 100 6214
1.565268 6.0665269 -0.53491467 681 79298700 2692 42 133 6288
1.3639566 6.2063417 -0.60302246 985 79298700 4015 43 63 6383
1.9555526 5.7891569 -0.63081467 928 79298700 3503 44 87 6143
1.7816696 5.9807811 -0.70307469 481 79298700 1895 45 50 6280
1.5615333 6.0389795 -0.76223451 928 79298700 3666 46 78 6284
1.3555439 6.1608806 -0.83296049 958 79298700 3880 47 81 6363
1.9659902 5.8040142 -0.86002672 518 79298700 1984 48 98 6188
1.7547677 5.8810954 -0.92084026 913 79298700 3518 49 61 6206
1.5563293 6.0058775 -0.99164987 962 79298700 3796 50 57 6283
1.3548365 6.1494823 -1.0686691 962 79298700 3926 51 60 6387
1.9466074 5.7300024 -1.078613 926 79298700 3500 52 84 6147
1.754442 5.8691602 -1.1511664 926 79298700 3599 53 82 6233
1.5524405 5.9831295 -1.2225761 982 79298700 3900 54 71 6301
1.3484172 6.1208544 -1.3048085 968 79298700 3965 55 57 6402
1.9471647 5.7211499 -1.3110521 943 79298700 3607 56 97 6184
1.7512863 5.8474441 -1.3840089 896 79298700 3512 57 63 6259
1.5532471 5.981514 -1.4642819 935 79298700 3769 58 48 6351
1.34024 6.0812097 -1.541063 958 79298700 3944 59 70 6415
1.9465712 5.6975536 -1.5451208 936 79298700 3615 60 53 6216
1.7488488 5.8215561 -1.6210177 923 79298700 3652 61 25 6291
1.5507568 5.9672141 -1.7093607 856 79298700 3502 62 44 6398
1.3409833 6.0967317 -1.8007329 871 79298700 3674 63 57 6497
2.11151 6.1572862 2.031776 800 79395830 3721 0 80 6819
1.8881986 6.2752604 1.9669214 866 79395830 4057 1 63 6842
1.6734014 6.4269023 1.923034 785 79395830 3751 2 47 6914
1.4417354 6.5376301 1.8700796 866 79395830 4183 3 45 6951
2.0910075 6.1075726 1.7439092 783 79395830 3503 4 70 6687
1.8850094 6.2547688 1.6951741 800 79395830 3642 5 45 6749
1.6596742 6.3641586 1.6383692 759 79395830 3488 6 80 6778
1.4360783 6.4807749 1.5867776 839 79395830 3906 7 50 6825
2.077282 6.0712848 1.4787271 774 79395830 3358 8 76 6585
1.867458 6.2051535 1.4254476 754 79395830 3320 9 100 6635
1.6523836 6.3221917 1.3718077 788 79395830 3512 10 34 6677
1.439247 6.4683452 1.3265173 843 79395830 3848 11 44 6758
2.0652499 6.039216 1.2245871 707 79395830 2986 12 116 6499
1.8513807 6.1431832 1.1649615 771 79395830 3281 13 68 6521
1.642821 6.2806749 1.1148254 789 79395830 3424 14 75 6587
1.4270308 6.4060588 1.0654556 801 79395830 3543 15 58 6649
2.0506704 5.9962406 0.97652125 798 79395830 3283 16 60 6412
1.8366162 6.089191 0.91764361 801 79395830 3310 17 62 6426
1.635023 6.2370763 0.86811316 776 79395830 3282 18 54 6506
1.4241976 6.3749886 0.81674683 801 79395830 3473 19 69 6583
2.0400641 5.9648876 0.73665833 754 79395830 3039 20 71 6347
1.842018 6.1036325 0.68292308 725 79395830 2982 21 73 6412
1.6315397 6.211854 0.62622762 788 79395830 3280 22 48 6453
1.4231876 6.3543086 0.57416964 820 79395830 3504 23 122 6537
2.0320811 5.9378228 0.50252271 769 79395830 3050 24 76 6296
1.8233216 6.0359678 0.44456238 777 79395830 3106 25 64 6321
1.6214975 6.1727424 0.38889635 811 79395830 3316 26 102 6394
1.4187824 6.3170609 0.33330515 790 79395830 3322 27 68 6483
2.019485 5.8916163 0.27072757 813 79395830 3161 28 70 6234
1.8242806 6.0315356 0.21355264 768 79395830 3052 29 33 6305
1.6255037 6.1643443 0.15725046 771 79395830 3134 30 34 6377
1.4067993 6.2529874 0.095761962 882 79395830 3626 31 70 6410
2.0080311 5.8572016 0.043227967 791 79395830 3034 32 72 6192
1.811592 5.9816713 -0.015817031 774 79395830 3025 33 69 6250
1.6149019 6.1211066 -0.075578019 816 79395830 3273 34 68 6331
1.4084691 6.2415843 -0.13727009 921 79395830 3773 35 72 6400
1.9986944 5.820693 -0.18276247 856 79395830 3245 36 115 6157
1.802981 5.9375458 -0.24272045 844 79395830 3257 37 59 6210
1.6031629 6.066308 -0.30545062 869 79395830 3429 38 133 6282
1.4021323 6.2140079 -0.37054041 913 79395830 3720 39 59 6381
1.993903 5.7919259 -0.40653476 915 79395830 3449 40 87 6139
1.7995697 5.9166532 -0.46858004 881 79395830 3390 41 85 6202
1.6330435 6.1723967 -0.54512304 121 79395830 496 42 139 6408
1.3967408 6.174552 -0.6007551 962 79395830 3892 43 63 6359
1.9871482 5.7657642 -0.62958246 931 79395830 3500 44 103 6131
1.7627412 5.7872224 -0.68157941 1070 79395830 3967 45 70 6088
1.5924531 6.0062571 -0.75932336 954 79395830 3740 46 76 6260
1.3933208 6.1524472 -0.83296049 935 79395830 3785 47 115 6363
2.040381 5.9041595 -0.87670463 167 79395830 666 48 64 6308
1.7873576 5.8588667 -0.91905969 918 79395830 3524 49 63 6194
1.5931513 5.9962149 -0.99164987 950 79395830 3752 50 61 6283
1.3925434 6.1410537 -1.0686691 918 79395830 3743 51 57 6387
1.9817294 5.7179503 -1.078613 936 79395830 3538 52 85 6147
1.7869744 5.8470058 -1.1489502 929 79395830 3597 53 65 6221
1.5891231 5.9734912 -1.2225761 960 79395830 3813 54 62 6301
1.3807529 6.0895505 -1.299917 980 79395830 3988 55 62 6378
1.9745393 5.6869373 -1.3059639 976 79395830 3703 56 109 6160
1.7802798 5.8142076 -1.3787018 914 79395830 3555 57 63 6235
1.5809075 5.9380198 -1.4559819 906 79395830 3612 58 30 6315
1.3723747 6.0501513 -1.5352975 954 79395830 3898 59 69 6391
1.977669 5.6745272 -1.542138 924 79395830 3559 60 62 6204
1.7743243 5.7774639 -1.6117414 893 79395830 3493 61 37 6255
1.575433 5.9128909 -1.6965365 934 79395830 3765 62 28 6350
1.3732753 6.0658984 -1.794081 864 79395830 3618 63 56 6473
2.153033 6.1550269 2.0353515 785 79494170 3665 0 61 6831
1.9165299 6.2305999 1.9565722 822 79494170 3810 1 63 6806
1.7038863 6.3831034 1.913021 757 79494170 3579 2 44 6878
1.4741479 6.4948483 1.8603944 856 79494170 4092 3 39 6915
2.124624 6.0836902 1.7407798 780 79494170 3477 4 78 6675
1.9096731 6.1986828 1.6831176 817 79494170 3666 5 50 6701
1.6956853 6.3426061 1.6354686 785 79494170 3595 6 87 6766
1.4784114 6.4832206 1.5895675 765 79494170 3574 7 53 6837
2.1106422 6.0473838 1.4760323 772 79494170 3337 8 77 6573
1.8986045 6.171175 1.4202915 707 79494170 3091 9 89 6611
1.6820266 6.2779021 1.3644114 789 79494170 3478 10 49 6641
1.4710307 6.424983 1.3194509 811 79494170 3667 11 58 6722
2.1061487 6.0375576 1.2268482 727 79494170 3083 12 94 6511
1.8890396 6.1317077 1.1649615 792 79494170 3370 13 75 6521
1.6782645 6.2590532 1.1127944 755 79494170 3266 14 60 6575
1.4636644 6.3856368 1.0635327 838 79494170 3689 15 53 6637
2.0796111 5.9611492 0.97286618 778 79494170 3173 16 54 6388
1.8844426 6.1118569 0.92278451 756 79494170 3159 17 64 6462
1.6701759 6.2154412 0.866512 738 79494170 3114 18 61 6494
1.4552847 6.331316 0.81228036 790 79494170 3388 19 64 6547
2.0766256 5.9522576 0.73665833 756 79494170 3047 20 67 6347
1.8723999 6.0694127 0.68036699 742 79494170 3030 21 68 6388
1.6603098 6.1671281 0.62273407 781 79494170 3214 22 55 6417
1.4514139 6.2988629 0.56995362 819 79494170 3449 23 105 6489
2.0724189 5.9365354 0.50348049 736 79494170 2930 24 75 6308
1.8603233 6.0246663 0.44456238 803 79494170 3210 25 63 6321
1.6562279 6.1511111 0.38816646 806 79494170 3283 26 89 6382
1.4521207 6.284883 0.33207124 860 79494170 3589 27 79 6459
2.0516403 5.8677974 0.27020642 818 79494170 3168 28 78 6222
1.8541702 5.9973125 0.21273975 765 79494170 3017 29 36 6281
1.6570369 6.1310925 0.15665865 860 79494170 3470 30 39 6353
1.4478459 6.2559276 0.095941238 880 79494170 3631 31 68 6422
2.0399714 5.8334432 0.043144193 793 79494170 3030 32 65 6180
1.8411634 5.9475164 -0.015756292 780 79494170 3025 33 81 6226
1.6524299 6.1110826 -0.075578019 812 79494170 3253 34 54 6331
1.4413151 6.2094517 -0.13675533 906 79494170 3681 35 57 6376
2.0343719 5.8083196 -0.18276247 839 79494170 3181 36 109 6157
1.8358248 5.9149194 -0.24225143 848 79494170 3260 37 60 6198
1.6403549 6.0563569 -0.30545062 878 79494170 3464 38 133 6282
1.4321089 6.1702785 -0.3684499 902 79494170 3633 39 75 6345
2.0254371 5.7682848 -0.40574011 918 79494170 3447 40 97 6127
1.8322877 5.8940735 -0.46767339 889 79494170 3406 41 108 6190
1.6333379 6.0237823 -0.53287303 573 79494170 2248 42 131 6264
1.423772 6.1193237 -0.59622037 958 79494170 3814 43 53 6311
2.0264473 5.7647233 -0.63081467 932 79494170 3518 44 94 6143
1.8336622 5.8901534 -0.69501394 660 79494170 2545 45 69 6208
1.6324 6.0078678 -0.76077896 936 79494170 3683 46 96 6272
1.4310453 6.1437821 -0.83296049 892 79494170 3612 47 97 6363
2.0449669 5.8018675 -0.86336231 422 79494170 1630 48 64 6212
1.8232732 5.8477898 -0.91905969 884 79494170 3393 49 59 6194
1.6205744 5.9520264 -0.98596793 930 79494170 3627 50 55 6247
1.4194498 6.086307 -1.0606377 998 79494170 4012 51 60 6339
2.0128396 5.6945443 -1.0765074 970 79494170 3653 52 66 6135
1.8193012 5.8246741 -1.1467339 891 79494170 3436 53 72 6209
1.6257459 5.9636283 -1.2225761 908 79494170 3603 54 57 6301
1.4127555 6.0580812 -1.2950255 985 79494170 3975 55 47 6354
2.0133109 5.6857696 -1.3085079 925 79494170 3524 56 110 6172
1.8159217 5.8031745 -1.3787018 938 79494170 3644 57 57 6235
1.6142393 5.9169426 -1.4532151 930 79494170 3693 58 50 6303
1.4121183 6.0529609 -1.5381802 935 79494170 3835 59 68 6403
2.0046649 5.6403809 -1.5361723 956 79494170 3650 60 46 6180
1.8097408 5.766468 -1.6117414 927 79494170 3625 61 47 6255
1.6147299 5.9142685 -1.6997427 875 79494170 3540 62 37 6362
1.4078542 6.0461283 -1.790755 836 79494170 3488 63 53 6461
2.1830621 6.120122 2.0282004 757 79591890 3509 0 75 6807
1.9581705 6.2296877 1.960022 778 79591890 3619 1 60 6818
1.7430202 6.3725286 1.913021 778 79591890 3678 2 50 6878
1.5139718 6.4856806 1.8603944 818 79591890 3914 3 64 6915
2.1580262 6.0596256 1.7376502 780 79591890 3465 4 68 6663
1.9476715 6.1868486 1.6831176 815 79591890 3657 5 47 6701
1.7314944 6.3208518 1.632568 780 79591890 3559 6 84 6754
1.5128347 6.4513011 1.5839876 854 79591890 3962 7 57 6813
2.1437874 6.023303 1.4733375 753 79591890 3243 8 64 6561
1.9364344 6.159409 1.4202915 700 79591890 3061 9 85 6611
1.7236243 6.2787881 1.3668767 804 79591890 3557 10 45 6653
1.5050333 6.3929291 1.3147399 820 79591890 3677 11 48 6698
2.1273553 5.9801078 1.2178037 770 79591890 3217 12 92 6463
1.9195367 6.097477 1.1606739 772 79591890 3261 13 65 6497
1.7072387 6.2144246 1.1067016 758 79591890 3239 14 56 6539
1.4946669 6.3419485 1.0577639 803 79591890 3496 15 54 6601
2.1161487 5.9482765 0.97286618 766 79591890 3125 16 43 6388
1.9147706 6.0775228 0.91935724 775 79591890 3214 17 76 6438
1.7019683 6.1821442 0.86330956 769 79591890 3220 18 75 6470
1.491367 6.310679 0.81079155 792 79591890 3385 19 59 6535
2.1131089 5.9394035 0.73665833 780 79591890 3144 20 63 6347
1.9060186 6.0464296 0.67908889 763 79591890 3104 21 63 6376
1.7012949 6.1683378 0.62389857 791 79591890 3268 22 50 6429
1.4872801 6.2782068 0.56889963 799 79591890 3353 23 95 6477
2.1007826 5.9011698 0.50156492 801 79591890 3165 24 71 6284
1.8936533 6.0017228 0.44371843 798 79591890 3174 25 57 6309
1.6875691 6.1177397 0.38670674 787 79591890 3182 26 72 6358
1.4851178 6.2525358 0.33083737 832 79591890 3446 27 86 6435
2.087606 5.8550982 0.27020642 808 79591890 3130 28 71 6222
1.8909341 5.9858227 0.21273975 774 79591890 3053 29 18 6281
1.6914244 6.1092486 0.15636274 808 79591890 3248 30 38 6341
1.477873 6.2119069 0.09540341 874 79591890 3566 31 69 6386
2.079757 5.832119 0.043227967 772 79591890 2961 32 84 6192
1.881241 5.9475484 -0.015786661 760 79591890 2959 33 65 6238
1.6834894 6.0777006 -0.075291507 839 79591890 3339 34 70 6307
1.4793884 6.200491 -0.13675533 892 79591890 3628 35 65 6376
2.0699728 5.7957277 -0.18276247 842 79591890 3192 36 102 6157
1.8720835 5.9035435 -0.24225143 853 79591890 3278 37 77 6198
1.6774851 6.0461779 -0.30545062 869 79591890 3428 38 156 6282
1.469942 6.161375 -0.3684499 891 79591890 3589 39 61 6345
2.0607927 5.7557487 -0.40574011 909 79591890 3413 40 89 6127
1.8647965 5.871316 -0.46676677 899 79591890 3433 41 71 6178
1.6478701 5.9330044 -0.52572721 931 79591890 3555 42 131 6180
1.458514 6.0988536 -0.59508669 915 79591890 3629 43 57 6299
2.0617807 5.7521806 -0.63081467 886 79591890 3345 44 94 6143
1.9059113 5.9924273 -0.70844847 108 79591890 432 45 119 6328
1.6628455 5.9747877 -0.75786775 926 79591890 3616 46 98 6248
1.4604063 6.1001763 -0.82824779 940 79591890 3763 47 115 6327
2.0162234 5.6102781 -0.83667761 1079 79591890 3911 48 102 6020
1.8591202 5.8364921 -0.91905969 908 79591890 3482 49 50 6194
1.6570648 5.9419708 -0.98596793 928 79591890 3619 50 57 6247
1.4595257 6.0889878 -1.0626456 965 79591890 3894 51 59 6351
2.0437374 5.6709723 -1.0744017 943 79591890 3536 52 91 6123
1.8514215 5.802166 -1.1445178 901 79591890 3461 53 74 6197
1.6528101 5.9195261 -1.2155911 879 79591890 3451 54 77 6265
1.4471624 6.0378747 -1.2925798 976 79591890 3927 55 63 6342
2.0401959 5.651248 -1.3034197 942 79591890 3561 56 80 6148
1.8443683 5.769629 -1.373395 943 79591890 3639 57 61 6211
1.6536571 5.9181728 -1.4559819 900 79591890 3587 58 46 6315
1.4410839 6.0101995 -1.529532 977 79591890 3962 59 65 6367
2.0511148 5.6607585 -1.5451208 939 79591890 3627 60 49 6216
1.8415495 5.7442145 -1.6086494 897 79591890 3494 61 51 6243
1.6447605 5.8819761 -1.6933305 874 79591890 3513 62 59 6338
1.4422424 6.0261631 -1.787429 803 79591890 3341 63 68 6449
2.212744 6.0850816 2.0210495 740 79691020 3406 0 74 6783
1.9928447 6.2066121 1.9565722 738 79691020 3421 1 67 6806
1.7820885 6.3617134 1.913021 754 79691020 3569 2 58 6878
1.5483462 6.4537916 1.8539374 863 79691020 4096 3 51 6891
2.1912134 6.0353813 1.7345208 805 79691020 3563 4 71 6651
1.9749295 6.1416087 1.6740755 816 79691020 3622 5 50 6665
1.7608101 6.276475 1.6238661 761 79691020 3436 6 74 6718
1.5469221 6.4192047 1.5784078 850 79691020 3920 7 62 6789
2.1807053 6.0100355 1.4733375 760 79691020 3273 8 75 6561
1.9670243 6.1250944 1.4151354 717 79691020 3112 9 95 6587
1.7525828 6.2341766 1.3594804 819 79691020 3584 10 55 6617
1.538698 6.3607006 1.310029 844 79691020 3757 11 51 6674
2.1640084 5.9669418 1.2178037 771 79691020 3221 12 96 6463
1.9605285 6.0968246 1.1628177 771 79691020 3269 13 62 6509
1.7517433 6.2266021 1.1107634 770 79691020 3318 14 78 6563
1.5335523 6.3326583 1.0577639 796 79691020 3470 15 63 6601
2.1485631 5.9240308 0.97103864 773 79691020 3142 16 36 6376
1.9411103 6.0317416 0.9142164 748 79691020 3068 17 68 6402
1.7430961 6.1830311 0.86491078 781 79691020 3283 18 71 6482
1.5328702 6.3129807 0.81228036 821 79691020 3520 19 80 6547
2.1454487 5.9151216 0.73526561 750 79691020 3012 20 77 6335
1.9394259 6.023263 0.67781079 761 79691020 3083 21 79 6364
1.7391111 6.157783 0.62389857 808 79691020 3342 22 65 6429
1.5229475 6.2573485 0.56784558 761 79691020 3182 23 95 6465
2.1328712 5.8769245 0.50060713 705 79691020 2775 24 66 6272
1.9304435 5.9899907 0.44371843 812 79691020 3230 25 53 6309
1.7185633 6.0842156 0.38524699 779 79691020 3126 26 92 6334
1.5177727 6.2200203 0.32960349 845 79691020 3473 27 97 6411
2.1153021 5.819644 0.26916417 836 79691020 3213 28 69 6198
1.9313096 5.9855213 0.21314619 731 79691020 2893 29 50 6293
1.7256066 6.087214 0.15606683 840 79691020 3364 30 31 6329
1.5159607 6.2027221 0.09540341 908 79691020 3705 31 65 6386
2.1114032 5.8079705 0.043144193 773 79691020 2953 32 77 6180
1.9066317 5.9016366 -0.015695555 803 79691020 3091 33 69 6202
1.7174759 6.0557127 -0.075148255 815 79691020 3232 34 67 6295
1.5116943 6.1679921 -0.13624057 908 79691020 3665 35 74 6352
2.1013923 5.771647 -0.18240629 827 79691020 3122 36 123 6145
1.9045771 5.880538 -0.2417824 840 79691020 3213 37 53 6186
1.7047268 6.0011826 -0.30370018 878 79691020 3424 38 138 6246
1.5020168 6.1289687 -0.36705622 909 79691020 3630 39 56 6321
2.0919652 5.7317476 -0.40494543 919 79691020 3437 40 94 6115
1.8970951 5.8483815 -0.46586016 851 79691020 3236 41 98 6166
1.7267582 6.0722885 -0.53899801 231 79691020 928 42 103 6336
1.4987582 6.1013908 -0.59622037 904 79691020 3602 43 60 6311
2.0888438 5.7169986 -0.6283502 897 79691020 3360 44 89 6119
1.8947537 5.8331842 -0.69098365 601 79691020 2288 45 45 6172
1.6929468 5.9415617 -0.75495666 921 79691020 3569 46 87 6224
1.4921272 6.0679955 -0.82510608 968 79691020 3846 47 109 6303
2.0914853 5.7093849 -0.85335553 663 79691020 2500 48 105 6140
1.887555 5.8024044 -0.91549855 901 79691020 3429 49 40 6170
1.6902398 5.9202967 -0.98407394 931 79691020 3621 50 74 6235
1.4827182 6.0224791 -1.0526065 1002 79691020 3964 51 56 6291
2.0784953 5.6583257 -1.0744017 943 79691020 3537 52 85 6123
1.87968 5.7682705 -1.1400851 933 79691020 3557 53 60 6173
1.6891005 5.9092731 -1.2155911 935 79691020 3671 54 89 6265
1.4841828 6.0288811 -1.2925798 980 79691020 3940 55 56 6342
2.0748329 5.6386232 -1.3034197 950 79691020 3591 56 99 6148
1.8833671 5.7693286 -1.3760484 864 79691020 3344 57 48 6223
1.6835165 5.8854613 -1.4504484 890 79691020 3520 58 49 6291
1.4807202 6.0125551 -1.5324147 961 79691020 3909 59 53 6379
2.0777566 5.6262598 -1.5391551 896 79691020 3434 60 48 6192
1.8767606 5.7328067 -1.6086494 904 79691020 3522 61 46 6243
1.6776383 5.8606558 -1.6901244 877 79691020 3508 62 45 6326
1.4764386 6.0060034 -1.784103 835 79691020 3458 63 50 6437
2.2540205 6.0821309 2.0246251 683 79788550 3151 0 55 6795
2.0237288 6.1724248 1.9496728 831 79788550 3824 1 70 6782
1.811558 6.3174195 1.9030081 733 79788550 3434 2 58 6842
1.5851514 6.4329476 1.850709 827 79788550 3912 3 40 6879
2.2241843 6.0109577 1.7313913 793 79788550 3497 4 67 6639
2.0125766 6.129375 1.6740755 817 79788550 3627 5 42 6665
1.7992887 6.2655525 1.6238661 762 79788550 3441 6 75 6718
1.5778688 6.3756037 1.570038 864 79788550 3942 7 66 6753
2.2215972 6.0075092 1.4760323 768 79788550 3320 8 64 6573
2.0009184 6.1017733 1.4125572 735 79788550 3179 9 81 6575
1.7940496 6.2345915 1.3619459 800 79788550 3514 10 52 6629
1.5748607 6.3397202 1.3076736 806 79788550 3575 11 56 6662
2.1964943 5.9424973 1.2155427 784 79788550 3263 12 97 6451
1.9942176 6.0734625 1.1606739 751 79788550 3172 13 79 6497
1.7833707 6.1930065 1.1067016 693 79788550 2964 14 70 6539
1.5695213 6.3116341 1.0558411 808 79788550 3506 15 48 6589
2.1807597 5.8996115 0.96921104 796 79788550 3226 16 59 6364
1.9817916 6.0310011 0.91593003 751 79788550 3092 17 61 6414
1.7711103 6.1379395 0.86010718 748 79788550 3109 18 67 6446
1.5629354 6.268795 0.80781388 772 79788550 3274 19 94 6511
2.1775701 5.8906665 0.73387289 713 79788550 2853 20 65 6323
1.9726208 5.9999146 0.67653269 760 79788550 3068 21 74 6352
1.7702285 6.1240487 0.62156951 796 79788550 3268 22 62 6405
1.5584153 6.236289 0.56679159 802 79788550 3341 23 88 6453
2.1688912 5.8637266 0.50060713 680 79788550 2676 24 83 6272
1.9596777 5.9552917 0.44203046 812 79788550 3209 25 65 6285
1.755863 6.0735564 0.38524699 784 79788550 3146 26 78 6334
1.5588218 6.2222152 0.33022043 835 79788550 3445 27 83 6423
2.1468062 5.7953129 0.26864305 806 79788550 3086 28 65 6186
1.9567416 5.9393859 0.21192686 750 79788550 2934 29 54 6257
1.7595819 6.0649896 0.15577093 806 79788550 3215 30 34 6317
1.5481511 6.1700277 0.095044866 876 79788550 3547 31 72 6362
2.1344936 5.7611485 0.042892862 762 79788550 2878 32 75 6144
1.9428076 5.8898268 -0.015695555 800 79788550 3079 33 71 6202
1.7512561 6.0335374 -0.075005002 801 79788550 3164 34 67 6283
1.5465846 6.1469655 -0.13598318 887 79788550 3566 35 73 6340
2.1409395 5.7698898 -0.18276247 794 79788550 3010 36 115 6157
1.936859 5.8573565 -0.24131337 869 79788550 3315 37 61 6174
1.7415172 5.9906096 -0.30370018 862 79788550 3361 38 155 6246
1.5366725 6.1080198 -0.36635941 876 79788550 3489 39 68 6309
2.1270952 5.7188034 -0.40494543 900 79788550 3366 40 86 6115
1.9329443 5.8366308 -0.46586016 877 79788550 3335 41 78 6166
1.7472801 6.004178 -0.53389388 712 79788550 2804 42 131 6276
1.5682977 6.219501 -0.60869086 242 79788550 1003 43 44 6443
2.1238835 5.7040739 -0.6283502 930 79788550 3483 44 93 6119
1.9305098 5.8214483 -0.69098365 624 79788550 2375 45 56 6172
1.7327058 5.9424968 -0.75641221 947 79788550 3684 46 96 6236
1.52642 6.0471907 -0.82353514 946 79788550 3744 47 112 6291
4.9733267 13.322629 -1.9957957 166 79788550 3426 48 214 14360
1.930603 5.8132381 -0.91905969 822 79788550 3152 49 51 6194
1.7265342 5.9098144 -0.98407394 963 79788550 3745 50 66 6235
1.5167449 6.0017972 -1.0505986 997 79788550 3933 51 66 6279
2.1048923 5.6233377 -1.0701905 928 79788550 3454 52 69 6099
1.9187609 5.7678189 -1.1423014 924 79788550 3536 53 60 6185
1.7154131 5.8649015 -1.208606 938 79788550 3641 54 61 6229
1.5182692 6.0082707 -1.290134 995 79788550 3989 55 64 6330
2.1011572 5.6038246 -1.2983315 950 79788550 3563 56 110 6124
1.9187316 5.7576642 -1.3760484 910 79788550 3525 57 72 6223
1.7163172 5.8638144 -1.4476817 909 79788550 3585 58 63 6279
1.5061653 5.9581828 -1.5208838 960 79788550 3850 59 59 6331
2.1081462 5.6025262 -1.5361723 911 79788550 3478 60 54 6180
1.9082261 5.710186 -1.6055573 908 79788550 3524 61 47 6231
1.713567 5.8502517 -1.6901244 890 79788550 3560 62 44 6326
1.5076208 5.974472 -1.777451 814 79788550 3346 63 36 6413
2.2791579 6.0360365 2.0138986 760 79887660 3473 0 90 6759
2.0542686 6.1380925 1.9427733 792 79887660 3619 1 78 6758
1.8470416 6.2951245 1.8996705 759 79887660 3539 2 42 6830
1.6189255 6.400691 1.8442521 804 79887660 3777 3 46 6855
2.2569382 5.9863572 1.7282618 830 79887660 3646 4 76 6627
2.053839 6.127924 1.6770896 780 79887660 3475 5 52 6677
1.8376995 6.2543945 1.6238661 769 79887660 3472 6 75 6718
1.6169591 6.3658023 1.570038 851 79887660 3882 7 87 6753
2.2419243 5.9499946 1.4652534 728 79887660 3101 8 82 6525
2.0383205 6.0893807 1.4125572 732 79887660 3166 9 78 6575
1.8190033 6.1784029 1.3520842 706 79887660 3056 10 45 6581
1.6079174 6.3071342 1.3029627 802 79887660 3532 11 36 6638
2.2287619 5.9178791 1.2132815 790 79887660 3276 12 90 6439
2.0314462 6.0611115 1.1606739 725 79887660 3062 13 86 6497
1.824679 6.1932917 1.1087325 739 79887660 3169 14 50 6551
1.5994326 6.2674537 1.0500723 808 79887660 3468 15 46 6553
2.216918 5.8861198 0.96921104 755 79887660 3057 16 44 6364
2.0149829 6.0074673 0.9142164 740 79887660 3035 17 68 6402
1.8121058 6.1383629 0.86170834 777 79887660 3242 18 69 6458
1.5984191 6.2475514 0.80632502 746 79887660 3153 19 71 6499
2.2136736 5.8771944 0.73387289 754 79887660 3016 20 81 6323
2.0018063 5.9650745 0.67397648 757 79887660 3033 21 66 6328
1.8043847 6.1016183 0.62040496 779 79887660 3182 22 48 6393
1.5907129 6.2034516 0.56468362 798 79887660 3298 23 121 6429
2.2048295 5.8503084 0.50060713 757 79887660 2976 24 57 6272
1.9961818 5.9431553 0.44203046 806 79887660 3185 25 71 6285
1.7863024 6.0396967 0.38378727 794 79887660 3162 26 73 6310
1.591004 6.1893196 0.32898653 813 79887660 3329 27 96 6399
2.1907921 5.8044643 0.26968533 814 79887660 3141 28 69 6210
1.9893255 5.9158998 0.21152042 740 79887660 2885 29 38 6245
1.7933496 6.0425782 0.15547502 821 79887660 3263 30 30 6305
1.5859807 6.1604123 0.095044866 904 79887660 3661 31 66 6362
2.1698031 5.7479434 0.042892862 771 79887660 2912 32 73 6144
1.9789103 5.8777947 -0.015695555 821 79887660 3160 33 63 6202
1.7916595 6.0341806 -0.075148255 747 79887660 2962 34 74 6295
1.5872712 6.1489768 -0.13624057 911 79887660 3677 35 67 6352
2.1678193 5.7342052 -0.18205008 844 79887660 3175 36 111 6133
1.9727626 5.8453617 -0.24131337 846 79887660 3227 37 64 6174
1.7748257 5.9683223 -0.30311671 855 79887660 3321 38 171 6234
1.5711275 6.0868764 -0.36566257 913 79887660 3619 39 49 6297
2.1621449 5.7056441 -0.40494543 828 79887660 3097 40 91 6115
1.9687208 5.8246608 -0.46586016 868 79887660 3301 41 82 6166
1.7704431 5.947505 -0.52981055 892 79887660 3459 42 123 6228
1.6154062 6.2444572 -0.61209184 288 79887660 1211 43 58 6479
2.1546092 5.6797743 -0.62711793 919 79887660 3429 44 88 6107
2.0044212 5.9224453 -0.70441818 146 79887660 577 45 38 6292
1.7589226 5.8975101 -0.75204551 883 79887660 3395 46 94 6200
1.5605137 6.0261941 -0.82196426 950 79887660 3746 47 93 6279
2.1487181 5.6499667 -0.84835213 614 79887660 2289 48 76 6104
1.9509988 5.7563267 -0.91193753 881 79887660 3326 49 49 6146
1.7593712 5.8877559 -0.98218006 905 79887660 3506 50 85 6223
1.5535426 5.9923778 -1.0505986 985 79887660 3885 51 64 6279
2.1351476 5.599278 -1.0680848 931 79887660 3451 52 71 6087
1.9465327 5.7336016 -1.1378689 892 79887660 3387 53 66 6161
1.7513672 5.8542657 -1.208606 932 79887660 3617 54 77 6229
1.5521586 5.9874697 -1.2876883 944 79887660 3767 55 45 6318
2.1438713 5.6127372 -1.3034197 954 79887660 3606 56 116 6148
1.9464878 5.7236228 -1.3707415 897 79887660 3448 57 71 6199
1.7422183 5.8196144 -1.4393816 900 79887660 3506 58 53 6243
1.5485439 5.9713807 -1.5266494 966 79887660 3903 59 59 6355
2.1508033 5.6111922 -1.542138 852 79887660 3278 60 46 6204
1.9432273 5.69837 -1.6055573 908 79887660 3524 61 49 6231
1.7461126 5.8285499 -1.6869184 882 79887660 3515 62 46 6314
1.5413616 5.9539475 -1.7741252 861 79887660 3526 63 46 6401
2.3120391 6.0112467 2.010323 757 79986060 3448 0 70 6747
2.095607 6.1362491 1.946223 804 79986060 3687 1 80 6770
1.88232 6.2726326 1.8963329 762 79986060 3541 2 36 6818
1.6523635 6.3682628 1.8377951 871 79986060 4063 3 40 6831
2.2811675 5.9399524 1.7188733 829 79986060 3603 4 59 6591
2.083883 6.0932255 1.6710614 737 79986060 3260 5 44 6653
1.8693391 6.2206974 1.6180649 789 79986060 3537 6 89 6694
1.6501031 6.3331723 1.564458 845 79986060 3828 7 61 6729
2.2825806 5.9470434 1.4679481 792 79986060 3386 8 85 6537
2.0718575 6.0656686 1.4099792 742 79986060 3197 9 92 6563
1.8704226 6.2121062 1.3619459 710 79986060 3119 10 46 6629
1.6495636 6.3085327 1.3053181 819 79986060 3620 11 51 6650
2.2565889 5.8820863 1.2087593 808 79986060 3326 12 92 6415
2.0571361 6.015018 1.1542426 746 79986060 3116 13 75 6461
1.8524102 6.1480069 1.1026397 731 79986060 3104 14 74 6515
1.6408582 6.268981 1.0519953 801 79986060 3450 15 57 6565
2.2487445 5.8613329 0.9673835 776 79986060 3129 16 56 6352
2.0556521 6.0062275 0.91593003 764 79986060 3145 17 71 6414
1.8428619 6.1043582 0.85850602 757 79986060 3135 18 71 6434
1.6397454 6.2491436 0.80781388 714 79986060 3028 19 79 6511
2.2411547 5.8412447 0.73108733 739 79986060 2934 20 61 6299
2.0422351 5.9639678 0.67525458 772 79986060 3105 21 70 6340
1.8383325 6.079 0.61924046 783 79986060 3190 22 66 6381
1.6287466 6.1935744 0.56468362 798 79986060 3299 23 105 6429
2.2321107 5.8143353 0.49869153 758 79986060 2960 24 84 6248
2.0326107 5.9307952 0.44203046 742 79986060 2929 25 57 6285
1.8233277 6.0286226 0.38378727 800 79986060 3186 26 83 6310
1.6197869 6.1446762 0.32713571 820 79986060 3321 27 69 6363
2.217762 5.7685323 0.26864305 822 79986060 3147 28 71 6186
2.0255873 5.9035821 0.21152042 760 79986060 2962 29 51 6245
1.8234249 6.008502 0.15488321 831 79986060 3278 30 27 6281
1.6145622 6.1157613 0.094507046 875 79986060 3503 31 80 6326
2.2050309 5.7345214 0.042892862 768 79986060 2900 32 80 6144
2.0149386 5.8655419 -0.015695555 808 79986060 3110 33 64 6202
1.821679 6.0001106 -0.07486175 814 79986060 3203 34 83 6271
1.6096215 6.0811324 -0.13495366 890 79986060 3524 35 77 6292
2.1986525 5.7096024 -0.18169387 842 79986060 3154 36 118 6121
2.0007839 5.810472 -0.24037531 832 79986060 3146 37 47 6150
1.8079264 5.9458523 -0.30253321 876 79986060 3390 38 145 6222
1.6053811 6.0655403 -0.36496574 889 79986060 3514 39 58 6285
2.1884902 5.669929 -0.40335611 894 79986060 3318 40 68 6091
1.9888196 5.7672234 -0.4622336 851 79986060 3186 41 97 6118
1.79994 5.9136534 -0.52776891 887 79986060 3414 42 105 6204
1.5771195 5.9457526 -0.58374995 1064 79986060 4063 43 88 6179
2.189419 5.6664467 -0.62711793 947 79986060 3534 44 73 6107
2.0134785 5.8311343 -0.69501394 718 79986060 2766 45 43 6208
1.8402424 6.0347209 -0.77096796 164 79986060 663 46 109 6356
1.5944074 6.0050073 -0.82039338 947 79986060 3719 47 118 6267
2.1962221 5.6699204 -0.85335553 513 79986060 1936 48 65 6140
1.9901605 5.7554626 -0.91371804 910 79986060 3449 49 54 6158
1.7885401 5.8541846 -0.97839206 905 79986060 3479 50 74 6199
1.5872426 5.9712987 -1.0485908 962 79986060 3780 51 74 6267
2.1737409 5.597084 -1.0701905 950 79986060 3535 52 82 6099
1.9816768 5.72155 -1.1378689 927 79986060 3520 53 75 6161
1.7872553 5.8434091 -1.208606 897 79986060 3482 54 63 6229
1.5828321 5.9551249 -1.2827967 990 79986060 3920 55 47 6294
2.1740184 5.5885477 -1.3008757 938 79986060 3532 56 86 6136
1.9738988 5.6894588 -1.3654345 905 79986060 3452 57 63 6175
1.7778939 5.808815 -1.4393816 914 79986060 3560 58 53 6243
1.5761747 5.9279938 -1.5180011 943 79986060 3767 59 63 6319
2.1725123 5.5654063 -1.5331894 870 79986060 3308 60 55 6168
1.9743456 5.6753879 -1.6024653 906 79986060 3502 61 52 6219
1.7750702 5.7956128 -1.6805063 881 79986060 3484 62 49 6290
1.5689912 5.9109459 -1.7641472 856 79986060 3466 63 48 6365
2.3447025 5.9862814 2.0067475 741 80082010 3363 0 65 6735
2.1256564 6.1015677 1.9393235 819 80082010 3728 1 93 6746
1.9173921 6.2499452 1.8929952 750 80082010 3472 2 42 6806
1.6854647 6.3356657 1.8313383 845 80082010 3914 3 42 6807
2.3217909 5.9366326 1.7220027 817 80082010 3564 4 65 6603
2.1212313 6.0803246 1.6710614 749 80082010 3313 5 39 6653
1.9040539 6.1979795 1.6151642 760 80082010 3395 6 74 6682
1.6889317 6.3229284 1.564458 822 80082010 3724 7 62 6729
2.3190281 5.9329257 1.4679481 805 80082010 3441 8 84 6537
2.1090367 6.0528417 1.4099792 717 80082010 3089 9 92 6563
1.8946849 6.1556153 1.3520842 777 80082010 3364 10 50 6581
1.6791017 6.2641969 1.2982517 805 80082010 3520 11 39 6614
2.296927 5.8791065 1.2110205 788 80082010 3256 12 101 6427
2.097894 6.0134306 1.1563864 761 80082010 3191 13 75 6473
1.8866173 6.1252222 1.1006087 725 80082010 3067 14 78 6503
1.6762234 6.2473545 1.0500723 801 80082010 3437 15 47 6553
2.2889829 5.8584714 0.96921104 725 80082010 2935 16 42 6364
2.0768075 5.948648 0.9090755 741 80082010 3001 17 55 6366
1.8837895 6.1042991 0.86010718 728 80082010 3023 18 53 6446
1.6718732 6.2159677 0.80483621 766 80082010 3224 19 93 6487
2.2682781 5.8051801 0.72830176 744 80082010 2931 20 84 6275
2.0827255 5.9625888 0.67653269 757 80082010 3056 21 60 6352
1.8791251 6.0790162 0.62040496 776 80082010 3174 22 65 6393
1.663608 6.1719222 0.56362957 818 80082010 3369 23 122 6417
2.2546785 5.7671084 0.49581817 762 80082010 2942 24 75 6212
2.0610626 5.8956122 0.44034252 743 80082010 2914 25 72 6261
1.8638221 6.0287647 0.38451713 805 80082010 3218 26 84 6322
1.6574594 6.1346216 0.32713571 811 80082010 3285 27 65 6363
2.2487445 5.7436519 0.2681219 834 80082010 3178 28 53 6174
2.0617731 5.8910422 0.21152042 736 80082010 2869 29 49 6245
1.8567042 5.985743 0.1545873 818 80082010 3214 30 34 6269
1.6520573 6.1057396 0.094507046 884 80082010 3536 31 50 6326
2.2401757 5.7208834 0.042892862 766 80082010 2892 32 84 6144
2.0508909 5.8530679 -0.015695555 786 80082010 3025 33 67 6202
1.851348 5.9658999 -0.074575245 806 80082010 3147 34 79 6247
1.6469043 6.0711417 -0.13495366 884 80082010 3501 35 60 6292
2.2336447 5.6960044 -0.18169387 856 80082010 3208 36 93 6121
2.0403721 5.8093996 -0.24084434 843 80082010 3203 37 59 6162
1.8372612 5.911756 -0.30136627 873 80082010 3352 38 149 6198
1.6457046 6.0671377 -0.36566257 832 80082010 3301 39 77 6297
2.2232389 5.656394 -0.40335611 905 80082010 3358 40 101 6091
2.0281394 5.7661991 -0.46314022 844 80082010 3172 41 90 6130
1.8326401 5.8910809 -0.52674806 882 80082010 3382 42 97 6192
1.6198395 5.9590197 -0.58601725 817 80082010 3145 43 69 6203
2.2154057 5.6306906 -0.6246534 935 80082010 3461 44 87 6083
2.0294142 5.7624331 -0.68829668 851 80082010 3218 45 59 6148
1.8736919 6.0119438 -0.76951236 302 80082010 1217 46 83 6344
1.6249766 5.9721527 -0.81725168 920 80082010 3586 47 95 6243
2.2614923 5.7337213 -0.86503011 152 80082010 587 48 53 6224
2.017544 5.7207594 -0.91015697 879 80082010 3306 49 49 6134
1.8208953 5.831789 -0.97649807 932 80082010 3569 50 64 6187
1.6207426 5.9500322 -1.0465829 946 80082010 3703 51 73 6255
2.2036984 5.5726547 -1.0680848 905 80082010 3354 52 79 6087
2.0128181 5.698163 -1.1356525 923 80082010 3491 53 92 6149
1.8195642 5.8210974 -1.2062777 932 80082010 3603 54 80 6217
1.6162549 5.9339657 -1.2803509 981 80082010 3870 55 50 6282
2.199631 5.553297 -1.2957876 938 80082010 3505 56 85 6112
2.0087714 5.6772399 -1.3654345 903 80082010 3445 57 63 6175
1.8135027 5.7977962 -1.4393816 904 80082010 3521 58 57 6243
1.6125185 5.918211 -1.5180011 955 80082010 3815 59 70 6319
2.2066202 5.5519714 -1.5331894 916 80082010 3483 60 52 6168
2.0013783 5.6413116 -1.5962811 885 80082010 3395 61 40 6195
1.8071438 5.7735763 -1.6773002 875 80082010 3447 62 55 6278
1.6022041 5.8900814 -1.7608212 851 80082010 3433 63 45 6353
2.3771465 5.9611421 2.0031722 766 80180820 3460 0 56 6723
2.1630549 6.0884099 1.9393235 808 80180820 3679 1 78 6746
1.9557049 6.2380629 1.8929952 700 80180820 3241 2 29 6806
1.7273476 6.3363552 1.8345667 849 80180820 3946 3 46 6819
2.3710308 5.9545631 1.7313913 745 80180820 3285 4 71 6639
2.1546061 6.056251 1.6680472 769 80180820 3389 5 50 6641
1.9385606 6.1750708 1.6122637 759 80180820 3379 6 69 6670
1.7215346 6.2899323 1.5588782 856 80180820 3850 7 77 6705
2.3467407 5.8968554 1.4625587 782 80180820 3318 8 90 6513
2.1422124 6.0287437 1.4074012 730 80180820 3134 9 89 6551
1.935943 6.155077 1.3545496 715 80180820 3107 10 43 6593
1.7143903 6.2424293 1.2958963 789 80180820 3437 11 43 6602
2.3286014 5.8539515 1.2087593 811 80180820 3338 12 97 6415
2.1268373 5.9781966 1.1520989 735 80180820 3059 13 66 6449
1.9241655 6.1135311 1.1006087 719 80180820 3041 14 82 6503
1.7082455 6.2141089 1.0462265 818 80180820 3485 15 50 6529
2.3205028 5.8332958 0.9673835 771 80180820 3113 16 60 6352
2.1132686 5.9357929 0.9090755 734 80180820 2977 17 63 6366
1.9104798 6.0585995 0.85530365 757 80180820 3108 18 46 6410
1.7004925 6.1711535 0.80036974 771 80180820 3210 19 73 6451
2.3038552 5.791153 0.72830176 751 80180820 2959 20 63 6275
2.1072612 5.9159775 0.67269844 723 80180820 2886 21 60 6316
1.9091957 6.0445943 0.61807591 765 80180820 3106 22 58 6369
1.7014469 6.1615982 0.56362957 801 80180820 3299 23 98 6417
2.3032935 5.7865062 0.49869153 778 80180820 3039 24 80 6248
2.0971985 5.8828549 0.44034252 771 80180820 3024 25 68 6261
1.8899549 5.9829502 0.38232753 772 80180820 3051 26 88 6286
1.688676 6.1012363 0.32590181 832 80180820 3344 27 68 6339
2.2795055 5.7186093 0.26760077 810 80180820 3078 28 64 6162
2.0978808 5.8782806 0.21152042 735 80180820 2865 29 40 6245
1.9006456 5.9971089 0.15517911 740 80180820 2929 30 45 6293
1.6959001 6.1186132 0.09486559 788 80180820 3176 31 49 6350
2.2796803 5.7181768 0.04297664 751 80180820 2847 32 79 6156
2.078691 5.8177733 -0.015634818 778 80180820 2971 33 66 6178
1.8879193 5.9544277 -0.074575245 794 80180820 3100 34 82 6247
1.6841252 6.0609221 -0.13495366 896 80180820 3548 35 66 6292
2.2685525 5.6821914 -0.18169387 817 80180820 3062 36 81 6121
2.0719366 5.7854819 -0.24037531 848 80180820 3206 37 56 6150
1.8735005 5.9003716 -0.30136627 864 80180820 3318 38 155 6198
1.6732796 6.0222979 -0.36357206 863 80180820 3384 39 86 6261
2.2579043 5.6426458 -0.40335611 928 80180820 3444 40 81 6091
2.0594425 5.7423835 -0.4622336 880 80180820 3295 41 71 6118
1.8651309 5.8683305 -0.52572721 902 80180820 3445 42 115 6180
1.6755989 6.0180197 -0.59281933 362 80180820 1427 43 73 6275
2.2454748 5.6059103 -0.62342113 945 80180820 3484 44 83 6071
2.0566735 5.7274261 -0.68560976 892 80180820 3344 45 48 6124
1.8346535 5.7619853 -0.73894536 1066 80180820 3958 46 85 6092
1.6647842 5.9735289 -0.8188225 924 80180820 3615 47 116 6255
2.2700634 5.6535702 -0.85502338 462 80180820 1749 48 88 6152
2.0887477 5.8087764 -0.92618185 205 80180820 800 49 83 6242
1.8566442 5.8205066 -0.97649807 938 80180820 3589 50 56 6187
1.6604002 5.9513712 -1.0485908 965 80180820 3791 51 92 6267
2.2378502 5.5590281 -1.0680848 927 80180820 3436 52 74 6087
2.0437472 5.6746092 -1.1334363 902 80180820 3398 53 76 6137
1.8516665 5.7986093 -1.2039493 912 80180820 3513 54 64 6205
1.6494778 5.912621 -1.2779052 958 80180820 3768 55 60 6270
2.2380493 5.5505719 -1.2983315 964 80180820 3615 56 109 6124
2.0395973 5.6537991 -1.362781 914 80180820 3473 57 59 6163
1.8419348 5.7643147 -1.4338481 918 80180820 3548 58 50 6219
1.6488017 5.9082055 -1.5180011 915 80180820 3655 59 70 6319
2.2275672 5.5060024 -1.5242409 920 80180820 3459 60 29 6132
2.0438426 5.6507325 -1.6024653 887 80180820 3429 61 40 6219
1.8390138 5.7513647 -1.6740942 868 80180820 3410 62 58 6266
1.6383148 5.8801398 -1.7608212 881 80180820 3554 63 51 6353
2.4136786 5.9464436 2.0031722 783 80277570 3541 0 74 6723
2.200372 6.0750232 1.9393235 737 80277570 3356 1 81 6746
1.986913 6.2039909 1.88632 714 80277570 3282 2 44 6782
1.7599781 6.3033738 1.8281099 828 80277570 3822 3 46 6795
2.3988192 5.9184299 1.7251322 799 80277570 3498 4 71 6615
2.1838052 6.0210776 1.662019 793 80277570 3470 5 37 6617
1.9728578 6.1519713 1.6093631 743 80277570 3295 6 77 6658
1.7569464 6.2680125 1.5560882 840 80277570 3765 7 66 6693
2.3784885 5.8715072 1.459864 802 80277570 3391 8 71 6501
2.1711805 5.9934478 1.4022452 729 80277570 3107 9 85 6527
1.9628965 6.109539 1.3471533 757 80277570 3254 10 40 6557
1.7462895 6.2091389 1.2911854 814 80277570 3521 11 39 6578
2.3688996 5.8504767 1.2110205 798 80277570 3297 12 94 6427
2.1594529 5.9539347 1.149955 700 80277570 2902 13 72 6437
1.9580213 6.0903502 1.0985777 731 80277570 3081 14 80 6491
1.7463424 6.2035108 1.0462265 754 80277570 3216 15 63 6529
2.3473487 5.7969618 0.96372837 789 80277570 3159 16 37 6328
2.1537023 5.9338789 0.91078913 744 80277570 3028 17 75 6378
1.9476187 6.0467629 0.85530365 763 80277570 3133 18 44 6410
1.7350923 6.1491437 0.79888088 751 80277570 3115 19 81 6439
2.3393457 5.7769079 0.72830176 749 80277570 2951 20 76 6275
2.1475935 5.9141512 0.67397648 683 80277570 2737 21 70 6328
1.9425817 6.0213995 0.61691141 721 80277570 2912 22 50 6357
1.7294645 6.1165347 0.5604676 777 80277570 3164 23 111 6381
2.32528 5.7390056 0.49581817 760 80277570 2935 24 62 6212
2.1332555 5.8698759 0.44034252 797 80277570 3126 25 59 6261
1.9229522 5.9598422 0.38159767 766 80277570 3016 26 74 6274
1.7228131 6.0792298 0.32528484 821 80277570 3287 27 79 6327
2.3190587 5.7156239 0.2681219 826 80277570 3151 28 60 6174
2.1216085 5.8314862 0.21030107 734 80277570 2828 29 40 6209
1.9300187 5.9625077 0.1545873 797 80277570 3131 30 52 6269
1.7235839 6.0734634 0.09432777 849 80277570 3386 31 70 6314
2.3147233 5.7040815 0.04297664 772 80277570 2927 32 69 6156
2.1102421 5.7936339 -0.015604449 749 80277570 2850 33 68 6166
1.9244194 5.9427319 -0.074575245 786 80277570 3069 34 79 6247
1.7179998 6.0389352 -0.13469627 862 80277570 3400 35 77 6280
2.2943437 5.6459403 -0.18098146 821 80277570 3052 36 108 6097
2.0991728 5.7501326 -0.23943728 830 80277570 3117 37 60 6126
1.9096692 5.8887649 -0.30136627 867 80277570 3329 38 155 6198
1.7036448 5.9888725 -0.36217842 853 80277570 3320 39 79 6237
