# .PCD v0.7 - Point Cloud Data file format
VERSION 0.7
FIELDS x y z intensity t reflectivity ring noise range
SIZE 4 4 4 4 4 2 1 2 4
TYPE F F F F U U U U U
COUNT 1 1 1 1 1 1 1 1 1
WIDTH 797
HEIGHT 1
VIEWPOINT 0 0 0 1 0 0 0
POINTS 797
DATA ascii
1.776705 -1.6854446 0.44465405 308 11826790 191 13 45 2489
1.9427997 -1.7114265 0.44461003 83 11826790 57 14 43 2627
1.981287 -1.6203405 0.41551009 30 11826790 20 15 25 2593
1.8698521 -1.9093676 0.4118081 138 11826790 101 16 22 2704
2.0029519 -1.9009337 0.39841673 125 11826790 97 17 54 2790
2.0262666 -1.786901 0.36373752 136 11826790 101 18 42 2726
2.1703696 -1.7771901 0.35074332 217 11826790 173 19 47 2827
1.9006448 -1.9408787 0.31743512 282 11826790 211 20 55 2735
2.0363986 -1.9332851 0.30077586 314 11826790 251 21 67 2824
2.1825407 -1.9265434 0.28385493 311 11826790 266 22 40 2925
2.3180585 -1.90022 0.26429194 92 11826790 84 23 65 3009
1.7878609 -1.8264087 0.2046487 172 11826790 113 24 51 2564
2.0287268 -1.9270117 0.19727851 331 11826790 260 25 45 2805
2.1805322 -1.924906 0.17723551 313 11826790 266 26 75 2914
2.3367393 -1.9178531 0.15562467 281 11826790 258 27 64 3027
1.8901856 -1.9328283 0.11751504 338 11826790 248 28 62 2706
2.0377171 -1.936905 0.095277332 271 11826790 214 29 27 2813
2.2053082 -1.9504788 0.072620764 241 11826790 209 30 29 2945
2.3380959 -1.9204013 0.045206819 360 11826790 330 31 60 3026
1.8960179 -1.9389952 0.018933179 257 11826790 189 32 59 2712
2.0244036 -1.9256628 -0.0070708455 273 11826790 213 33 45 2794
2.2160685 -1.9604782 -0.035323858 282 11826790 247 34 50 2959
2.3566546 -1.9381944 -0.065460674 303 11826790 282 35 43 3052
1.9117433 -1.9569894 -0.081244268 278 11826790 209 36 68 2737
2.0359221 -1.9394642 -0.10998636 283 11826790 224 37 24 2814
2.1851153 -1.9347273 -0.14207685 293 11826790 250 38 77 2922
2.3293505 -1.9156704 -0.17542744 323 11826790 294 39 47 3021
1.8859519 -1.9336234 -0.17926203 320 11826790 235 40 62 2707
2.0423236 -1.9473311 -0.21381515 297 11826790 237 41 53 2830
2.1568596 -1.9107841 -0.24601993 330 11826790 276 42 102 2892
2.3233552 -1.912848 -0.2855925 335 11826790 306 43 34 3023
1.8988761 -1.9482343 -0.28085271 352 11826790 264 44 63 2735
2.0302088 -1.9373363 -0.3161597 344 11826790 274 45 32 2824
2.216049 -1.9652925 -0.36195225 94 11826790 84 46 60 2984
2.3530359 -1.9382493 -0.40253863 321 11826790 304 47 68 3075
1.8701688 -1.9219996 -0.37636593 368 11826790 270 48 62 2708
2.0353293 -1.9439201 -0.42228672 336 11826790 272 49 34 2846
2.0964527 -1.861191 -0.44808117 69 11826790 55 50 45 2839
2.3394625 -1.9281656 -0.51450717 346 11826790 327 51 38 3075
1.8869901 -1.942744 -0.48271751 386 11826790 292 52 68 2751
2.0664814 -1.975674 -0.53726029 266 11826790 225 53 50 2909
2.1745434 -1.9317405 -0.57529569 343 11826790 301 54 48 2965
2.3254063 -1.9165124 -0.62733525 386 11826790 365 55 31 3078
1.8482624 -1.9049997 -0.57581133 361 11826790 267 56 63 2716
2.0848055 -1.9952834 -0.65430295 161 11826790 141 57 43 2959
2.1754918 -1.9333302 -0.68960279 363 11826790 324 58 41 2991
2.333256 -1.9233238 -0.74831039 408 11826790 396 59 40 3115
1.9078308 -1.9710032 -0.70395464 231 11826790 185 60 28 2832
2.0861998 -1.9999691 -0.77069843 83 11826790 74 61 28 2991
2.1879365 -1.9451418 -0.81166583 366 11826790 337 62 38 3038
2.3532884 -1.9381816 -0.87944055 331 11826790 333 63 33 3173
1.5298243 -1.5841033 0.68738925 52 11924580 28 0 33 2307
1.7014894 -1.6326177 0.70776975 209 11924580 127 1 61 2462
1.8441588 -1.6410441 0.71481013 188 11924580 124 2 22 2570
1.8570162 -1.5311667 0.67232472 233 11924580 145 3 29 2499
1.4513471 -1.5013202 0.56409085 125 11924580 58 4 41 2163
1.6036164 -1.5400507 0.57694691 10 11924580 5 5 25 2297
0 -0 0 8 11924580 0 6 47 0
0 -0 0 6 11924580 0 7 30 0
1.4124269 -1.4604989 0.46820739 13 11924580 5 8 50 2085
1.6144115 -1.5492268 0.49219298 11 11924580 6 9 10 2291
0 -0 0 6 11924580 0 10 22 0
1.8869001 -1.5617909 0.49032852 181 11924580 113 11 15 2498
0 -0 0 8 11924580 0 12 69 0
1.7578142 -1.6881363 0.44251031 312 11924580 191 13 27 2477
1.8881297 -1.6839551 0.43445528 275 11924580 181 14 32 2567
0 -0 0 5 11924580 0 15 24 0
1.8828392 -1.9463776 0.41729078 194 11924580 146 16 29 2740
1.9998146 -1.9214165 0.4001303 107 11924580 84 17 40 2802
2.0773633 -1.8547448 0.37494591 178 11924580 140 18 37 2810
2.0952601 -1.7372725 0.34032151 128 11924580 96 19 40 2743
1.8804131 -1.9439375 0.31604233 278 11924580 207 20 60 2723
2.0072925 -1.9292078 0.29821971 341 11924580 268 21 58 2800
2.161773 -1.9319403 0.28269041 296 11924580 251 22 47 2913
2.3155532 -1.9220424 0.26534596 217 11924580 198 23 71 3021
1.7433609 -1.802948 0.20081753 168 11924580 106 24 30 2516
1.9823515 -1.9062356 0.19390263 287 11924580 218 25 42 2757
2.1865418 -1.954213 0.17869525 285 11924580 246 26 88 2938
2.3249276 -1.932155 0.15562467 288 11924580 264 27 58 3027
1.8616315 -1.9271448 0.11647279 315 11924580 226 28 43 2682
2.0085104 -1.93274 0.094464436 260 11924580 202 29 32 2789
2.1664877 -1.9399657 0.071733043 258 11924580 218 30 28 2909
2.3170433 -1.927039 0.045027543 339 11924580 308 31 41 3014
1.8590747 -1.9246997 0.018681854 254 11924580 182 32 61 2676
1.9952624 -1.9214005 -0.0070101079 283 11924580 217 33 41 2770
2.2039974 -1.9740387 -0.035323858 244 11924580 214 34 61 2959
2.3170605 -1.9295859 -0.064688534 304 11924580 276 35 32 3016
1.8913704 -1.9600513 -0.080888055 268 11924580 199 36 78 2725
1.9980901 -1.9269487 -0.10857929 296 11924580 228 37 31 2778
2.1464283 -1.9240973 -0.14032641 325 11924580 271 38 73 2886
2.3175523 -1.929927 -0.17542744 322 11924580 294 39 47 3021
1.8740519 -1.9451591 -0.17926203 316 11924580 232 40 69 2707
2.004509 -1.9348953 -0.21109524 293 11924580 228 41 57 2794
2.1450946 -1.9239824 -0.24601993 346 11924580 290 42 83 2892
2.3207502 -1.9347174 -0.28672618 341 11924580 314 43 35 3035
1.8951651 -1.968448 -0.28208497 336 11924580 254 44 81 2747
2.0182834 -1.949757 -0.3161597 313 11924580 249 45 34 2824
2.1773593 -1.9549793 -0.35758552 121 11924580 106 46 63 2948
2.3136907 -1.9297905 -0.39782599 356 11924580 329 47 83 3039
1.8583404 -1.9334385 -0.37636593 365 11924580 268 48 66 2708
1.9977692 -1.9316252 -0.41694507 338 11924580 267 49 34 2810
2.1114318 -1.897783 -0.45376307 67 11924580 55 50 46 2875
2.3094211 -1.9273231 -0.51049155 355 11924580 330 51 43 3051
1.8504971 -1.9287117 -0.47640058 344 11924580 254 52 59 2715
1.9949995 -1.930902 -0.5217464 335 11924580 267 53 52 2825
2.1451442 -1.9293028 -0.57063901 159 11924580 138 54 67 2941
2.3136032 -1.9307448 -0.62733525 393 11924580 372 55 42 3078
1.8771102 -1.9586382 -0.58853173 370 11924580 285 56 72 2776
2.0220935 -1.9591773 -0.63838208 280 11924580 233 57 40 2887
2.1549077 -1.9388324 -0.68683606 381 11924580 338 58 57 2979
2.3124681 -1.9301398 -0.74542767 391 11924580 376 59 39 3103
1.8635706 -1.9490678 -0.69202322 350 11924580 271 60 35 2784
2.0239658 -1.9642812 -0.75214601 231 11924580 197 61 25 2919
2.1501753 -1.9353217 -0.80204767 371 11924580 334 62 41 3002
2.3147871 -1.9304311 -0.86946267 357 11924580 351 63 38 3137
1.4884485 -1.5603063 0.67308724 19 12023690 9 0 44 2259
1.5760207 -1.5309116 0.65947354 164 12023690 86 1 57 2294
1.7912364 -1.6137531 0.69812196 190 12023690 120 2 31 2510
1.8475863 -1.5425323 0.67232472 248 12023690 155 3 35 2499
1.5061126 -1.577224 0.58912677 111 12023690 56 4 49 2259
1.5358399 -1.4931837 0.5558483 40 12023690 20 5 11 2213
1.4341433 -1.2930403 0.48102018 11 12023690 4 6 55 1990
0 -0 0 7 12023690 0 7 30 0
1.4599805 -1.5283263 0.48707044 15 12023690 7 8 41 2169
1.2518166 -1.2161143 0.3839148 12 12023690 4 9 12 1787
1.6774887 -1.5140895 0.47439024 9 12023690 5 10 30 2309
1.9043361 -1.5960135 0.49739492 171 12023690 110 11 18 2534
1.4702923 -1.5386369 0.40832132 11 12023690 5 12 56 2167
1.7304918 -1.6824293 0.43822274 263 12023690 158 13 32 2453
1.8689835 -1.6875826 0.43242431 289 12023690 188 14 48 2555
2.0792465 -1.7434701 0.44050798 14 12023690 10 15 29 2749
1.8626674 -1.9493191 0.41546321 218 12023690 162 16 26 2728
1.9624457 -1.9088075 0.39498946 125 12023690 95 17 45 2766
2.0394762 -1.8435316 0.37014231 166 12023690 127 18 52 2774
2.1483972 -1.8036901 0.35074332 137 12023690 109 19 46 2827
1.8684499 -1.955439 0.31604233 304 12023690 225 20 55 2723
2.0210726 -1.96645 0.30205396 188 12023690 151 21 46 2836
2.1233091 -1.9211291 0.2791968 309 12023690 255 22 46 2877
2.2945652 -1.9285231 0.26429194 184 12023690 167 23 89 3009
1.7240036 -1.8049612 0.19985974 169 12023690 106 24 31 2504
1.9791949 -1.9267129 0.1947466 299 12023690 229 25 51 2769
2.1212201 -1.9193738 0.17431606 324 12023690 266 26 60 2866
2.3038588 -1.938668 0.15500772 319 12023690 290 27 66 3015
1.8332191 -1.9211843 0.11543053 311 12023690 219 28 50 2658
1.9966135 -1.9450275 0.094464436 243 12023690 189 29 19 2789
2.1634314 -1.9612799 0.07202895 233 12023690 199 30 18 2921
2.2959979 -1.933491 0.044848267 334 12023690 301 31 51 3002
1.8389465 -1.9273884 0.018598078 280 12023690 198 32 54 2664
1.9662502 -1.9168538 -0.0069493703 281 12023690 212 33 38 2746
2.1118438 -1.9149828 -0.03403458 263 12023690 214 34 45 2851
2.2593184 -1.9050977 -0.063401625 333 12023690 290 35 54 2956
1.821377 -1.910843 -0.078394629 245 12023690 171 36 72 2641
1.9862289 -1.9391724 -0.10857929 294 12023690 227 37 26 2778
2.134582 -1.9372313 -0.14032641 311 12023690 259 38 83 2886
2.2781913 -1.9209437 -0.17333694 319 12023690 284 39 50 2985
1.8373179 -1.9306008 -0.17687806 330 12023690 236 40 68 2671
1.9925989 -1.9471582 -0.21109524 316 12023690 247 41 59 2794
2.133249 -1.9371082 -0.24601993 338 12023690 283 42 81 2892
2.2814488 -1.9258035 -0.28332514 363 12023690 326 43 38 2999
1.8501475 -1.945441 -0.27715594 331 12023690 241 44 74 2699
1.980706 -1.9370916 -0.31212935 330 12023690 256 45 35 2788
2.1829507 -1.9843267 -0.36049664 100 12023690 89 46 59 2972
2.283628 -1.9285986 -0.39468423 325 12023690 296 47 77 3015
1.8300776 -1.9275686 -0.37303033 349 12023690 252 48 61 2684
1.9858793 -1.9438469 -0.41694507 322 12023690 254 49 33 2810
2.0997477 -1.9107028 -0.45376307 76 12023690 63 50 34 2875
2.2794785 -1.9261853 -0.50647587 392 12023690 359 51 43 3027
1.8467546 -1.9486046 -0.47850624 365 12023690 272 52 59 2727
1.9662665 -1.926599 -0.51731384 348 12023690 273 53 49 2801
2.0636318 -1.8790241 -0.55201221 115 12023690 93 54 57 2845
2.2747922 -1.922157 -0.61999804 352 12023690 325 55 35 3042
1.8328083 -1.9360538 -0.57835543 358 12023690 267 56 92 2728
1.9849697 -1.9469631 -0.63042164 326 12023690 265 57 36 2851
2.1343384 -1.9441551 -0.6840694 306 12023690 269 58 49 2967
2.2738907 -1.9217354 -0.73677945 416 12023690 391 59 43 3067
1.8515762 -1.9604658 -0.69202322 352 12023690 273 60 32 2784
1.9787918 -1.9441588 -0.73977768 356 12023690 293 61 23 2871
2.1211653 -1.9329011 -0.79563558 369 12023690 327 62 34 2978
2.3028989 -1.9445981 -0.86946267 338 12023690 332 63 26 3137
0 -0 0 3 12121730 0 0 31 0
1.5174279 -1.4922009 0.63877511 135 12121730 67 1 59 2222
1.7983332 -1.6402485 0.70479721 175 12121730 112 2 28 2534
1.820434 -1.5389171 0.66586781 231 12121730 141 3 26 2475
1.4964066 -1.5864357 0.58912677 135 12121730 69 4 34 2259
1.493536 -1.4699886 0.54379195 108 12121730 51 5 10 2165
1.5379835 -1.4038675 0.51872832 35 12121730 16 6 45 2146
0 -0 0 8 12121730 0 7 29 0
1.6110816 -1.7073532 0.54096484 28 12121730 16 8 40 2409
1.5534991 -1.5278323 0.47930273 9 12121730 4 9 11 2231
1.3127151 -1.1995456 0.37330753 9 12121730 3 10 21 1817
1.8675923 -1.5848285 0.49032852 204 12121730 127 11 26 2498
1.4365553 -1.5219189 0.40153795 14 12121730 6 12 46 2131
1.7369658 -1.7095803 0.44251031 176 12121730 108 13 38 2477
1.8498645 -1.6910391 0.43039337 282 12121730 182 14 54 2543
2.0323918 -1.7255306 0.43281633 181 12121730 132 15 25 2701
1.83439 -1.943462 0.4118081 298 12121730 218 16 39 2704
1.9506966 -1.920813 0.39498946 154 12121730 118 17 65 2766
2.0456729 -1.8720686 0.37334469 118 12121730 92 18 41 2798
2.0828557 -1.7705659 0.34181035 128 12121730 97 19 38 2755
1.8073301 -1.9148599 0.30768573 278 12121730 195 20 56 2651
1.9919676 -1.962068 0.29949778 185 12121730 146 21 56 2812
2.1202884 -1.9421886 0.28036132 308 12121730 257 22 41 2889
2.2826889 -1.9425659 0.26429194 308 12121730 279 23 93 3009
1.6964784 -1.7981044 0.19794413 167 12121730 103 24 38 2480
1.950284 -1.9220163 0.19305865 311 12121730 234 25 33 2745
2.1094031 -1.9323533 0.17431606 297 12121730 244 26 68 2866
2.2554317 -1.9216789 0.15253994 273 12121730 240 27 57 2967
1.8131733 -1.9236723 0.11490939 303 12121730 212 28 37 2646
1.950485 -1.9235569 0.092838667 269 12121730 202 29 21 2741
2.1071656 -1.933959 0.070549406 254 12121730 208 30 25 2861
2.2201791 -1.8930478 0.043593355 306 12121730 260 31 46 2918
1.8188555 -1.9299033 0.018514303 283 12121730 199 32 58 2652
1.9629925 -1.9373116 -0.0069797393 295 12121730 224 33 37 2758
2.1354108 -1.9603634 -0.034607593 279 12121730 234 34 47 2899
2.2567105 -1.9267148 -0.063659005 331 12121730 292 35 60 2968
1.8425078 -1.9569148 -0.079819448 293 12121730 212 36 81 2689
1.9487083 -1.926036 -0.10717221 292 12121730 219 37 44 2742
2.1226552 -1.9502923 -0.14032641 288 12121730 240 38 76 2886
2.2572505 -1.9271078 -0.17264012 316 12121730 279 39 43 2973
1.8172363 -1.9331138 -0.17608339 329 12121730 232 40 57 2659
1.9550941 -1.9341023 -0.20837532 292 12121730 222 41 43 2758
2.1037185 -1.9339771 -0.24397826 320 12121730 263 42 91 2868
2.2423453 -1.916481 -0.27992409 367 12121730 322 43 37 2963
1.8381757 -1.9567566 -0.27715594 189 12121730 138 44 70 2699
1.9603089 -1.9408187 -0.31078589 312 12121730 240 45 39 2776
2.1269104 -1.9573536 -0.35321879 266 12121730 226 46 67 2912
2.2355843 -1.911648 -0.3884007 338 12121730 298 47 80 2967
1.8100867 -1.9300934 -0.37136254 348 12121730 249 48 69 2672
1.9486262 -1.9309365 -0.41160342 329 12121730 253 49 30 2774
2.1141295 -1.947637 -0.45944497 101 12121730 85 50 27 2911
2.2496378 -1.924753 -0.50246024 365 12121730 329 51 50 3003
1.8024682 -1.9254016 -0.47008368 362 12121730 259 52 55 2679
1.946035 -1.9303221 -0.51509756 357 12121730 277 53 50 2789
2.0001309 -1.843778 -0.53804219 70 12121730 54 54 59 2773
2.2540286 -1.9284414 -0.61755228 408 12121730 374 55 34 3030
1.7968649 -1.9215661 -0.57072318 327 12121730 237 56 80 2692
1.9480728 -1.934368 -0.6224612 327 12121730 259 57 54 2815
2.0966175 -1.9334668 -0.67576927 126 12121730 108 58 40 2931
2.2443552 -1.9205047 -0.73101401 391 12121730 362 59 43 3043
1.8315833 -1.9632908 -0.68904036 375 12121730 288 60 47 2772
1.9586047 -1.9480872 -0.73668569 367 12121730 300 61 26 2859
2.1007659 -1.9380388 -0.79242951 353 12121730 310 62 42 2966
2.2821603 -1.9511992 -0.86613673 333 12121730 325 63 46 3125
0 -0 0 6 12219010 0 0 47 0
1.5082434 -1.5014834 0.63877511 162 12219010 80 1 54 2222
1.7967032 -1.6590717 0.70813483 185 12219010 120 2 28 2546
1.8285179 -1.5650889 0.67232472 265 12219010 165 3 22 2499
1.4787471 -1.5871118 0.58599734 146 12219010 73 4 48 2247
1.4680319 -1.4627281 0.53776377 101 12219010 46 5 21 2141
1.6063066 -1.4844029 0.54483396 91 12219010 46 6 56 2254
0 -0 0 7 12219010 0 7 32 0
1.608548 -1.7257603 0.54365951 95 12219010 55 8 36 2421
0 -0 0 3 12219010 0 9 13 0
1.4863665 -1.3750569 0.42508161 12 12219010 5 10 22 2069
1.8756824 -1.6115943 0.49503943 68 12219010 43 11 23 2522
0 -0 0 4 12219010 0 12 56 0
1.6595322 -1.6535366 0.42536008 137 12219010 78 13 40 2381
1.8481336 -1.7103909 0.43242431 262 12219010 171 14 70 2555
1.9588896 -1.6839185 0.4193559 339 12219010 232 15 44 2617
1.7900798 -1.9199824 0.40449789 302 12219010 213 16 33 2656
1.938874 -1.9327461 0.39498946 157 12219010 120 17 47 2766
2.0079756 -1.8603376 0.36854112 163 12219010 124 18 33 2762
2.0809774 -1.7910804 0.34329918 137 12219010 105 19 46 2767
1.8118023 -1.9433492 0.31047127 282 12219010 201 20 54 2675
1.9714421 -1.9658287 0.29821971 256 12219010 201 21 61 2800
2.0995741 -1.9470408 0.2791968 387 12219010 320 22 46 2877
2.2345037 -1.9253249 0.26007593 315 12219010 276 23 56 2961
1.7098792 -1.8347321 0.20081753 159 12219010 100 24 41 2516
1.9638764 -1.9593101 0.19559057 282 12219010 218 25 51 2781
2.0887244 -1.937115 0.17358619 286 12219010 233 26 62 2854
2.2254496 -1.9198257 0.15130605 295 12219010 256 27 59 2943
1.7849971 -1.9172127 0.11386713 282 12219010 194 28 35 2622
1.9386455 -1.9354887 0.092838667 280 12219010 210 29 20 2741
2.1040475 -1.9550178 0.070845321 245 12219010 202 30 19 2873
2.2539334 -1.9458392 0.044489723 366 12219010 324 31 50 2978
1.7906268 -1.9234613 0.018346753 265 12219010 183 32 42 2628
1.9340904 -1.932357 -0.0069190017 303 12219010 226 33 48 2734
2.0881851 -1.9407542 -0.03403458 245 12219010 199 34 52 2851
2.2539222 -1.9483713 -0.063916393 314 12219010 278 35 50 2980
1.8141284 -1.9506168 -0.079107039 253 12219010 180 36 81 2665
1.9368536 -1.9379568 -0.10717221 264 12219010 198 37 49 2742
2.1018722 -1.9551166 -0.13974293 289 12219010 239 38 84 2874
2.2544467 -1.948756 -0.17333694 302 12219010 269 39 42 2985
1.8134882 -1.9530021 -0.17687806 293 12219010 209 40 61 2671
1.9431899 -1.9460621 -0.20837532 291 12219010 222 41 71 2758
2.08306 -1.9387032 -0.24295744 321 12219010 262 42 97 2856
2.2305439 -1.9302037 -0.27992409 339 12219010 297 43 41 2963
1.8180153 -1.9592487 -0.27592367 124 12219010 89 44 49 2687
1.9399412 -1.944369 -0.30944243 281 12219010 214 45 56 2764
2.0974302 -1.954128 -0.35030767 320 12219010 267 46 71 2888
2.2238126 -1.9253293 -0.3884007 338 12219010 298 47 69 2967
1.7982099 -1.9411635 -0.37136254 381 12219010 272 48 53 2672
1.9534976 -1.9596658 -0.4151645 317 12219010 248 49 39 2798
2.1368015 -1.9929005 -0.46702081 187 12219010 164 50 19 2959
2.2109587 -1.9152813 -0.49643672 360 12219010 317 51 48 2967
1.798641 -1.945099 -0.47218934 373 12219010 270 52 82 2691
1.9175104 -1.9255131 -0.51066506 354 12219010 270 53 50 2765
2.0490243 -1.9122384 -0.5543406 75 12219010 61 54 43 2857
2.2243936 -1.9268514 -0.61266077 407 12219010 368 55 31 3006
1.8009547 -1.9497845 -0.57581133 334 12219010 247 56 81 2716
1.9444208 -1.9545816 -0.62511474 360 12219010 287 57 52 2827
2.0420384 -1.9064525 -0.66193563 98 12219010 80 58 46 2871
2.2501369 -1.9494948 -0.73677945 410 12219010 385 59 40 3067
1.7722424 -1.9232067 -0.67114317 383 12219010 279 60 36 2700
1.9221032 -1.9353875 -0.72740948 381 12219010 303 61 23 2823
2.0634813 -1.9272133 -0.78281134 378 12219010 324 62 40 2930
2.2439928 -1.9425268 -0.85615885 340 12219010 324 63 47 3089
0 -0 0 5 12318170 0 0 36 0
1.5070976 -1.5188683 0.64222491 141 12318170 70 1 51 2234
1.7359684 -1.6228361 0.6881091 154 12318170 94 2 25 2474
1.8363484 -1.5914173 0.67878157 274 12318170 174 3 34 2523
1.4454459 -1.5705827 0.57660884 135 12318170 66 4 34 2211
1.4753846 -1.4882058 0.54379195 117 12318170 55 5 20 2165
1.6311805 -1.5260514 0.55643642 55 12318170 29 6 49 2302
1.4430038 -1.2530968 0.45685247 11 12318170 4 7 27 1965
1.4553627 -1.5807489 0.49515462 118 12318170 57 8 45 2205
1.5181243 -1.5301414 0.4741466 8 12318170 4 9 11 2207
1.4178996 -1.3279556 0.40782359 14 12318170 5 10 22 1985
1.8480035 -1.6076274 0.49032852 413 12318170 258 11 23 2498
1.5375262 -1.6694651 0.43545482 12 12318170 6 12 56 2311
1.6077921 -1.6217641 0.41464126 132 12318170 71 13 38 2321
1.8117121 -1.6974398 0.42633143 275 12318170 175 14 62 2519
1.9306509 -1.6803535 0.41551009 336 12318170 226 15 40 2593
1.7782654 -1.93093 0.40449789 282 12318170 199 16 27 2656
1.9102584 -1.9277334 0.39156222 185 12318170 139 17 54 2742
2.0138714 -1.8888952 0.3717435 183 12318170 142 18 47 2786
2.1327872 -1.8585751 0.35372099 149 12318170 121 19 63 2851
1.7998439 -1.9544296 0.31047127 284 12318170 203 20 57 2675
1.9341513 -1.9524581 0.29438546 282 12318170 215 21 46 2764
2.070173 -1.9435375 0.27686775 315 12318170 257 22 61 2853
2.2046325 -1.9232829 0.25796792 321 12318170 277 23 76 2937
1.6661838 -1.8099869 0.19698635 168 12318170 102 24 34 2468
1.9097068 -1.9287921 0.19137071 260 12318170 193 25 59 2721
2.0506027 -1.9252989 0.1713966 298 12318170 237 26 91 2818
2.2226539 -1.9413283 0.15192299 333 12318170 290 27 55 2955
1.756969 -1.9104803 0.11282486 305 12318170 206 28 44 2598
1.9351681 -1.9558729 0.093245104 238 12318170 180 29 26 2753
2.0570602 -1.9350131 0.069661684 257 12318170 205 30 13 2825
2.1967812 -1.9201503 0.043593355 332 12318170 282 31 40 2918
1.778791 -1.9344121 0.018346753 246 12318170 170 32 52 2628
1.9390709 -1.9612547 -0.0069797393 281 12318170 214 33 42 2758
2.0500205 -1.9288629 -0.033604819 258 12318170 204 34 43 2815
2.1967852 -1.9226576 -0.062629484 322 12318170 274 35 37 2920
1.7696669 -1.9263785 -0.077682219 231 12318170 158 36 82 2617
1.9080778 -1.9327385 -0.10623417 299 12318170 221 37 45 2718
2.0723848 -1.9515427 -0.13857597 327 12318170 266 38 81 2850
2.1973727 -1.923104 -0.16985279 329 12318170 281 39 53 2925
1.7610033 -1.9199722 -0.17290474 326 12318170 222 40 71 2611
1.9228097 -1.9494295 -0.20746869 285 12318170 215 41 53 2746
2.0450184 -1.92685 -0.23989496 329 12318170 262 42 103 2820
2.2186582 -1.9438537 -0.27992409 341 12318170 299 43 48 2963
1.7898289 -1.9527678 -0.27345914 162 12318170 115 44 67 2663
1.9028631 -1.9307564 -0.30541208 310 12318170 230 45 47 2728
2.05074 -1.934269 -0.34448537 330 12318170 267 46 62 2840
2.1940646 -1.923254 -0.38525894 117 12318170 102 47 86 2943
1.7782431 -1.9433933 -0.36969474 212 12318170 150 48 48 2660
1.9247838 -1.9547037 -0.41160342 314 12318170 241 49 38 2774
2.0642221 -1.9490286 -0.45376307 325 12318170 268 50 35 2875
2.2080595 -1.9366124 -0.49844453 172 12318170 153 51 64 2979
1.7627703 -1.9299301 -0.46587241 379 12318170 267 52 72 2655
1.8973891 -1.9288348 -0.50844878 346 12318170 262 53 56 2753
2.0971508 -1.9813663 -0.57063901 134 12318170 116 54 38 2941
2.1948638 -1.9249711 -0.60776925 378 12318170 336 55 51 2982
1.773149 -1.9434717 -0.57072318 351 12318170 254 56 55 2692
1.9077834 -1.9414338 -0.6171543 284 12318170 221 57 40 2791
2.0557606 -1.9430084 -0.67023581 67 12318170 56 58 43 2907
2.1768339 -1.9094942 -0.71660024 406 12318170 362 59 60 2983
1.7604084 -1.9340447 -0.67114317 362 12318170 264 60 30 2700
1.9101917 -1.9471449 -0.72740948 352 12318170 280 61 26 2823
2.06002 -1.9477831 -0.78601742 289 12318170 250 62 36 2942
2.2060187 -1.9334605 -0.84618092 334 12318170 311 63 31 3053
1.0646596 -1.1723635 0.49431241 12 12415590 3 0 47 1659
1.5379755 -1.5691279 0.65947354 114 12415590 60 1 40 2294
1.5836582 -1.4987663 0.63136929 102 12415590 52 2 29 2270
1.8352367 -1.6102777 0.68201005 241 12415590 155 3 28 2535
1.5215 -1.6737162 0.61103326 140 12415590 77 4 51 2343
1.4743521 -1.5055293 0.54680604 120 12415590 57 5 23 2177
1.6217862 -1.5360314 0.55643642 41 12415590 22 6 46 2302
0 -0 0 7 12415590 0 7 28 0
1.4928404 -1.641556 0.51132292 104 12415590 54 8 57 2277
1.4430813 -1.4724658 0.45352221 15 12415590 7 9 14 2111
1.3926802 -1.3204699 0.40289274 10 12415590 4 10 29 1961
1.8645943 -1.6422676 0.49739492 201 12415590 129 11 29 2534
1.2100396 -1.330163 0.34500986 12 12415590 4 12 54 1831
1.5895499 -1.623163 0.41249746 145 12415590 77 13 38 2309
1.7926819 -1.7003853 0.42430049 227 12415590 142 14 56 2507
1.8936436 -1.6686749 0.40974134 335 12415590 219 15 38 2557
1.7504226 -1.9242585 0.40084282 263 12415590 182 16 25 2632
1.8983941 -1.9394183 0.39156222 312 12415590 234 17 43 2742
1.9677469 -1.8684605 0.36533874 140 12415590 105 18 41 2738
2.0945566 -1.8479933 0.34925449 154 12415590 122 19 51 2815
1.7797978 -1.9566195 0.30907851 267 12415590 189 20 51 2663
1.8720647 -1.913121 0.28671694 274 12415590 198 21 57 2692
2.0322375 -1.9315193 0.27337414 311 12415590 246 22 56 2817
2.1838307 -1.9288609 0.2569139 340 12415590 291 23 90 2925
1.7355188 -1.9086776 0.20656429 111 12415590 74 24 43 2588
1.8225085 -1.8634536 0.18377496 189 12415590 129 25 53 2613
2.0213873 -1.9213411 0.16993687 283 12415590 221 26 81 2794
2.165813 -1.9152356 0.14883827 334 12415590 280 27 71 2895
1.7532746 -1.9300989 0.113346 319 12415590 217 28 44 2610
1.9231308 -1.96771 0.093245104 250 12415590 189 29 34 2753
2.0451486 -1.9475985 0.069661684 254 12415590 203 30 27 2825
2.1759727 -1.9256415 0.043414079 330 12415590 278 31 56 2906
1.7830242 -1.9630555 0.018514303 276 12415590 194 32 51 2652
1.8850788 -1.9301908 -0.006827896 275 12415590 200 33 41 2698
2.0468349 -1.9496813 -0.033748072 265 12415590 212 34 60 2827
2.1759677 -1.9281442 -0.062372103 307 12415590 259 35 47 2908
1.6530299 -1.8217238 -0.073051564 200 12415590 121 36 85 2461
1.8961828 -1.94441 -0.10623417 281 12415590 207 37 49 2718
2.0343456 -1.9394107 -0.13682555 293 12415590 232 38 74 2814
2.1855314 -1.9365507 -0.16985279 321 12415590 274 39 41 2925
1.7572286 -1.9396149 -0.17369941 331 12415590 228 40 69 2623
1.8774112 -1.9269096 -0.20384215 279 12415590 203 41 70 2698
2.0245054 -1.9311091 -0.23887412 326 12415590 257 42 85 2808
2.1709414 -1.9257207 -0.2753894 348 12415590 295 43 45 2915
1.7457684 -1.9283177 -0.2685301 46 12415590 32 44 77 2615
1.8826623 -1.9338515 -0.3040686 298 12415590 220 45 47 2716
2.0216033 -1.9303637 -0.34157422 366 12415590 291 46 65 2816
2.0843449 -1.849816 -0.36797923 53 12415590 42 47 81 2811
1.7901897 -1.9807167 -0.37469813 98 12415590 71 48 43 2696
1.9044794 -1.9579704 -0.40982285 320 12415590 244 49 32 2762
2.0093951 -1.9207187 -0.4442932 368 12415590 291 50 32 2815
2.0634382 -1.832292 -0.46832702 91 12415590 71 51 56 2799
1.7350678 -1.9231666 -0.4616611 368 12415590 255 52 58 2631
1.9019558 -1.9573572 -0.51288134 335 12415590 258 53 46 2777
2.0679395 -1.9779232 -0.56598228 246 12415590 209 54 33 2917
2.1654418 -1.9228015 -0.6028778 428 12415590 374 55 51 2958
1.7611908 -1.9543149 -0.57072318 360 12415590 261 56 82 2692
1.895835 -1.9531032 -0.6171543 371 12415590 289 57 49 2791
2.0522366 -1.9636585 -0.67300254 157 12415590 133 58 36 2919
2.1650765 -1.922815 -0.71660024 407 12415590 362 59 56 2983
1.7640506 -1.9620973 -0.67710894 361 12415590 268 60 29 2724
1.8820704 -1.9421756 -0.72122526 353 12415590 276 61 26 2799
2.0396762 -1.9523903 -0.78281134 244 12415590 209 62 32 2930
2.1768656 -1.9316545 -0.83952898 354 12415590 325 63 25 3029
0 -0 0 5 12513020 0 0 34 0
1.5922762 -1.6445942 0.68707132 166 12513020 95 1 58 2390
1.557786 -1.4925067 0.62469399 101 12513020 51 2 32 2246
1.8339623 -1.629184 0.68523854 256 12513020 166 3 32 2547
1.5034618 -1.6744006 0.60790372 148 12513020 80 4 36 2331
1.5054656 -1.5562896 0.56187648 95 12513020 47 5 15 2237
1.5030677 -1.4411887 0.51872832 40 12513020 18 6 49 2146
1.3316233 -1.1853496 0.42616311 10 12513020 3 7 22 1833
1.4592974 -1.6245872 0.5032388 99 12513020 50 8 41 2241
0 -0 0 6 12513020 0 9 13 0
1.3845516 -1.3289903 0.40289274 16 12513020 6 10 15 1961
1.80179 -1.6066908 0.48326215 136 12513020 82 11 24 2462
1.3357593 -1.4865866 0.38344896 11 12513020 5 12 58 2035
1.530306 -1.5819685 0.39963484 193 12513020 96 13 49 2237
1.7992764 -1.7277361 0.4283624 187 12513020 120 14 61 2531
1.8922076 -1.688148 0.41166422 326 12513020 215 15 45 2569
1.7227292 -1.9173186 0.39718768 278 12513020 189 16 26 2608
1.8699467 -1.9339533 0.38813499 298 12513020 220 17 45 2718
1.99054 -1.9134662 0.3717435 93 12513020 72 18 46 2786
2.083178 -1.8608105 0.34925449 156 12513020 123 19 29 2815
1.7199634 -1.9143076 0.30072188 251 12513020 168 20 56 2591
1.926631 -1.9932042 0.29694161 267 12513020 208 21 68 2788
2.0117414 -1.9356714 0.27220958 312 12513020 245 22 40 2805
2.1541331 -1.926288 0.25480589 374 12513020 315 23 64 2901
1.7797242 -1.981586 0.21326886 177 12513020 126 24 42 2672
1.7195526 -1.7799027 0.17449127 151 12513020 93 25 41 2481
1.9922985 -1.9170977 0.16847715 263 12513020 202 26 83 2770
2.1361632 -1.9125012 0.14760436 319 12513020 263 27 43 2871
1.7333921 -1.9318972 0.11282486 356 12513020 240 28 49 2598
1.8610415 -1.9277035 0.090806447 215 12513020 154 29 30 2681
1.9986142 -1.9268062 0.068478055 255 12513020 197 30 11 2777
2.1641161 -1.9389569 0.043414079 312 12513020 263 31 39 2906
1.7308788 -1.9292991 0.018095426 257 12513020 172 32 48 2592
1.9065257 -1.976266 -0.0069493703 269 12513020 203 33 43 2746
2.026196 -1.9538746 -0.033604819 271 12513020 214 34 47 2815
2.1819563 -1.9574823 -0.062886864 290 12513020 249 35 46 2932
1.6097983 -1.7961036 -0.071626745 189 12513020 110 36 83 2413
1.8758975 -1.9473722 -0.10576514 279 12513020 204 37 44 2706
1.9965342 -1.9268862 -0.13507511 319 12513020 246 38 85 2778
2.1557729 -1.9339249 -0.16845912 331 12513020 279 39 60 2901
1.7373096 -1.9414377 -0.17290474 339 12513020 231 40 50 2611
1.8572551 -1.9297713 -0.2029355 307 12513020 222 41 60 2686
2.0126181 -1.9434948 -0.23887412 329 12513020 260 42 85 2808
2.1413081 -1.9230406 -0.27312201 350 12513020 292 43 38 2891
1.781644 -1.9923805 -0.27592367 98 12513020 70 44 53 2687
1.8542299 -1.9281766 -0.30138171 274 12513020 198 45 52 2692
2.0011566 -1.9344529 -0.34011865 334 12513020 263 46 65 2804
2.1260514 -1.9102777 -0.37740451 47 12513020 39 47 68 2883
1.7780026 -1.9916638 -0.37469813 148 12513020 107 48 51 2696
1.8924296 -1.9696192 -0.40982285 270 12513020 206 49 38 2762
2.0146029 -1.9494925 -0.44808117 362 12513020 292 50 34 2839
2.0609548 -1.8528281 -0.47033486 86 12513020 68 51 33 2811
1.7232349 -1.9337766 -0.4616611 368 12513020 254 52 51 2631
1.8654097 -1.9434652 -0.50623256 312 12513020 235 53 61 2741
2.005022 -1.9414414 -0.55201221 323 12513020 261 54 50 2845
2.1273928 -1.9124897 -0.59554052 238 12513020 203 55 56 2922
1.7413689 -1.9563249 -0.56817907 364 12513020 262 56 70 2680
1.8433177 -1.9224626 -0.6038869 369 12513020 275 57 47 2731
2.0149879 -1.9518411 -0.66470236 293 12513020 243 58 15 2883
2.1359134 -1.9204867 -0.7108348 403 12513020 353 59 58 2959
1.7288244 -1.9468111 -0.66816038 334 12513020 241 60 39 2688
1.894171 -1.9788151 -0.73050147 236 12513020 190 61 18 2835
2.0193539 -1.9568217 -0.77960533 305 12513020 259 62 27 2918
2.1563952 -1.9372698 -0.83620304 348 12513020 316 63 34 3017
0 -0 0 8 12610660 0 0 30 0
1.6298184 -1.7041709 0.70776975 147 12610660 89 1 66 2462
1.540325 -1.494012 0.62135637 110 12610660 55 2 23 2234
1.8153379 -1.6326776 0.68201005 263 12610660 169 3 23 2535
1.5008464 -1.6922612 0.61103326 142 12610660 78 4 42 2343
1.4637904 -1.5319064 0.54982013 117 12610660 56 5 25 2189
1.5359727 -1.4909354 0.53323144 50 12610660 24 6 43 2206
1.4023541 -1.2638186 0.45127258 9 12610660 3 7 29 1941
1.4493016 -1.6335107 0.5032388 99 12610660 50 8 39 2241
1.5059021 -1.5747665 0.47930273 12 12610660 6 9 10 2231
1.3258363 -1.2883546 0.38810012 16 12610660 6 10 24 1889
1.6696236 -1.5073277 0.4502857 166 12610660 87 11 20 2294
1.1545115 -1.3008405 0.33370423 10 12610660 3 12 82 1771
1.5124137 -1.5827923 0.39749107 240 12610660 119 13 35 2225
1.7971216 -1.7469876 0.43039337 139 12610660 90 14 60 2543
1.8466535 -1.6679685 0.40397257 336 12610660 213 15 22 2521
1.6558256 -1.8657596 0.38439485 189 12610660 120 16 30 2524
1.8662483 -1.9539795 0.38984859 308 12610660 230 17 63 2730
1.9872849 -1.9339383 0.37334469 148 12610660 116 18 40 2798
2.0540583 -1.8575841 0.34627685 151 12610660 117 19 52 2791
1.6923625 -1.9069958 0.29793635 204 12610660 134 20 45 2567
1.8402071 -1.9273201 0.28543884 265 12610660 190 21 57 2680
2.0083818 -1.9563125 0.27337414 269 12610660 213 22 52 2817
2.1068273 -1.9073788 0.25058988 376 12610660 306 23 74 2853
1.7278419 -1.9477279 0.20847988 194 12610660 132 24 33 2612
1.7333912 -1.8163997 0.17702319 191 12610660 121 25 61 2517
1.9890776 -1.9376439 0.16920699 291 12610660 225 26 75 2782
2.1243882 -1.9255725 0.14760436 323 12610660 267 27 61 2871
1.7215056 -1.9424967 0.11282486 266 12610660 179 28 35 2598
1.8409015 -1.930407 0.090400003 250 12610660 178 29 25 2669
2.0039244 -1.955791 0.06906987 265 12610660 208 30 19 2801
2.1255167 -1.9280149 0.042876258 333 12610660 274 31 39 2870
1.7428833 -1.9668261 0.018346753 232 12610660 161 32 64 2628
1.8612504 -1.9531783 -0.006827896 266 12610660 193 33 52 2698
1.9969968 -1.9495064 -0.033318315 266 12610660 208 34 67 2791
2.1254997 -1.930503 -0.061599959 307 12610660 253 35 41 2872
1.5907967 -1.7969662 -0.07127054 199 12610660 115 36 83 2401
1.8556478 -1.9501593 -0.10529612 280 12610660 203 37 41 2694
1.9932467 -1.9474767 -0.13565859 293 12610660 228 38 78 2790
2.1349981 -1.9390619 -0.16776229 304 12610660 253 39 44 2889
1.7095052 -1.9341182 -0.17131543 327 12610660 219 40 59 2587
1.8536237 -1.9498032 -0.20384215 283 12610660 206 41 66 2698
1.9835556 -1.9390912 -0.23683247 349 12610660 271 42 68 2784
2.1206293 -1.9281068 -0.27198836 335 12610660 277 43 54 2879
1.6982678 -1.9227564 -0.26483333 289 12610660 193 44 65 2579
1.842364 -1.9395177 -0.30138171 314 12610660 227 45 36 2692
1.9807361 -1.9383643 -0.33866307 342 12610660 266 46 56 2792
2.1142902 -1.9232869 -0.37740451 59 12610660 49 47 76 2883
1.757889 -1.9936224 -0.37303033 209 12610660 150 48 45 2684
1.86397 -1.9639785 -0.40626177 344 12610660 258 49 41 2738
1.977209 -1.9369403 -0.44239926 400 12610660 314 50 37 2803
1.9445543 -1.7698776 -0.44624087 76 12610660 54 51 52 2667
1.711337 -1.9443138 -0.4616611 361 12610660 250 52 59 2631
1.8534498 -1.9548745 -0.50623256 292 12610660 219 53 53 2741
1.9762585 -1.9372263 -0.54735553 343 12610660 273 54 47 2821
2.028734 -1.8464308 -0.57108301 128 12610660 101 55 65 2802
1.7215892 -1.9581658 -0.56563503 327 12610660 233 56 71 2668
1.8314871 -1.9337368 -0.6038869 330 12610660 246 57 45 2731
1.9779627 -1.9396415 -0.65640223 305 12610660 247 58 28 2847
2.1154752 -1.9257149 -0.70795202 440 12610660 383 59 62 2947
1.7015173 -1.9399055 -0.66219461 347 12610660 246 60 41 2664
1.8501291 -1.9567004 -0.71813327 352 12610660 273 61 26 2787
1.9660345 -1.9286849 -0.76357502 350 12610660 286 62 39 2858
2.1274085 -1.9349488 -0.82955104 339 12610660 303 63 46 2993
0 -0 0 7 12707000 0 0 42 0
1.5167252 -1.605526 0.66292322 75 12707000 40 1 43 2306
1.547578 -1.5195866 0.62803161 113 12707000 58 2 21 2258
1.7198286 -1.5659733 0.64972562 185 12707000 108 3 29 2415
1.4828011 -1.6927242 0.60790372 119 12707000 64 4 55 2331
1.4703087 -1.557753 0.5558483 116 12707000 57 5 19 2213
1.5267955 -1.500332 0.53323144 80 12707000 39 6 44 2206
1.4635473 -1.3353312 0.4735921 13 12707000 5 7 25 2037
1.4084239 -1.6071947 0.49245986 50 12707000 24 8 48 2193
1.4559722 -1.5413777 0.46641243 13 12707000 6 9 17 2171
0 -0 0 7 12707000 0 10 23 0
1.6603434 -1.5175439 0.4502857 133 12707000 70 11 27 2294
1.3562586 -1.547177 0.39475456 11 12707000 5 12 40 2095
1.5107776 -1.6006286 0.39963484 201 12707000 101 13 27 2237
1.8369458 -1.8077552 0.44257906 150 12707000 103 14 60 2615
1.8538666 -1.6952546 0.40781841 247 12707000 160 15 28 2545
1.4879901 -1.6975119 0.34784383 211 12707000 110 16 23 2284
1.8297726 -1.9394766 0.38470775 280 12707000 203 17 49 2694
1.9669091 -1.9377491 0.3717435 255 12707000 198 18 30 2786
2.0865333 -1.9103565 0.35372099 144 12707000 117 19 37 2851
1.6099213 -1.8366766 0.28540143 105 12707000 63 20 44 2459
1.82016 -1.9298952 0.28416079 267 12707000 190 21 52 2668
1.9623239 -1.935055 0.26871598 198 12707000 152 22 52 2769
2.1038961 -1.9283471 0.2516439 326 12707000 268 23 99 2865
1.7000923 -1.9402994 0.20656429 172 12707000 115 24 34 2588
1.8453751 -1.9576569 0.18968275 265 12707000 192 25 45 2697
1.9771509 -1.9498122 0.16920699 282 12707000 218 26 70 2782
2.077214 -1.9061605 0.14513658 336 12707000 267 27 53 2823
1.6937617 -1.9349813 0.1117826 239 12707000 158 28 48 2574
1.8125753 -1.9242066 0.089587115 260 12707000 182 29 26 2645
1.991886 -1.9680501 0.06906987 238 12707000 187 30 36 2801
2.1136465 -1.9410205 0.042876258 351 12707000 290 31 58 2870
1.707073 -1.9503944 0.018095426 185 12707000 124 32 49 2592
1.8081063 -1.9208724 -0.0066760518 279 12707000 194 33 51 2638
1.9593936 -1.9364196 -0.032888554 248 12707000 188 34 56 2755
2.1047831 -1.9353878 -0.061342575 324 12707000 265 35 47 2860
1.6192179 -1.851842 -0.073051564 167 12707000 101 36 85 2461
1.8272223 -1.9440341 -0.10435806 263 12707000 187 37 45 2670
1.9642165 -1.9428129 -0.13449162 313 12707000 240 38 74 2766
2.0966043 -1.9277999 -0.1656718 343 12707000 279 39 43 2853
1.70548 -1.9535911 -0.1721101 295 12707000 199 40 55 2599
1.8088608 -1.9262495 -0.20021559 286 12707000 201 41 69 2650
1.9631218 -1.9428151 -0.23581164 329 12707000 253 42 105 2772
2.0999691 -1.9329916 -0.27085468 362 12707000 297 43 38 2867
1.7099787 -1.9601249 -0.2685301 326 12707000 223 44 54 2615
1.8467474 -1.9681776 -0.3040686 220 12707000 162 45 36 2716
1.9772673 -1.9588646 -0.34011865 323 12707000 254 46 65 2804
2.1549559 -1.9845791 -0.38682982 216 12707000 189 47 68 2955
1.698796 -1.9506028 -0.36302358 340 12707000 232 48 67 2612
1.8194187 -1.9407482 -0.39913958 327 12707000 236 49 39 2690
1.9568732 -1.9406916 -0.44050527 351 12707000 273 50 32 2791
2.0467629 -1.8859968 -0.4723427 66 12707000 52 51 40 2823
1.6916239 -1.9458621 -0.45955551 346 12707000 238 52 70 2619
1.8091732 -1.9317782 -0.49736744 270 12707000 196 53 58 2693
1.939267 -1.9244398 -0.54037046 352 12707000 273 54 45 2785
1.9655282 -1.8110794 -0.55640846 79 12707000 59 55 49 2730
1.6941634 -1.9509828 -0.56054682 327 12707000 229 56 71 2644
1.7956016 -1.9193 -0.59592646 309 12707000 224 57 34 2695
1.9245905 -1.910609 -0.64256871 334 12707000 259 58 37 2787
2.0779221 -1.9149767 -0.69930387 184 12707000 156 59 48 2911
1.6895822 -1.9503093 -0.66219461 347 12707000 246 60 42 2664
1.8064312 -1.9341209 -0.70576495 317 12707000 238 61 25 2739
1.9541633 -1.940712 -0.76357502 355 12707000 290 62 40 2858
2.1070142 -1.940156 -0.82622516 362 12707000 321 63 34 2981
0 -0 0 6 12804580 0 0 37 0
1.5068454 -1.6148021 0.66292322 61 12804580 32 1 52 2306
1.5218753 -1.5128016 0.62135637 117 12804580 58 2 20 2234
1.5827202 -1.4589936 0.60129881 167 12804580 83 3 22 2235
1.6088243 -1.8594856 0.66423464 174 12804580 113 4 51 2547
1.5082475 -1.6177194 0.57393283 133 12804580 69 5 22 2285
1.4762856 -1.4686111 0.51872832 95 12804580 44 6 53 2146
1.301006 -1.2017404 0.42337319 9 12804580 3 7 27 1821
1.3908831 -1.6069647 0.48976514 42 12804580 20 8 49 2181
1.4065106 -1.5074372 0.45352221 9 12804580 4 9 16 2111
1.3265692 -1.3211019 0.393031 9 12804580 3 10 28 1913
1.7028193 -1.5756519 0.46441847 38 12804580 21 11 23 2366
1.3004557 -1.502012 0.38118783 17 12804580 7 12 72 2023
1.517031 -1.6271403 0.40392241 197 12804580 101 13 40 2261
1.809062 -1.8022982 0.43851715 158 12804580 106 14 58 2591
1.8695059 -1.7307383 0.41358715 214 12804580 142 15 31 2581
1.4930723 -1.7245429 0.35149893 232 12804580 123 16 31 2308
1.8097403 -1.9419785 0.38299412 239 12804580 172 17 59 2682
1.938141 -1.9329851 0.36854112 300 12804580 228 18 50 2762
2.0660396 -1.9150289 0.35223216 149 12804580 120 19 52 2839
1.614224 -1.8645425 0.28818697 90 12804580 55 20 40 2483
1.8082842 -1.941027 0.28416079 252 12804580 180 21 67 2668
2.0095811 -2.006125 0.27686775 208 12804580 169 22 35 2853
2.083262 -1.9330893 0.25058988 310 12804580 253 23 75 2853
1.6881548 -1.9506944 0.20656429 198 12804580 132 24 42 2588
1.8088568 -1.9426612 0.18715084 293 12804580 207 25 48 2661
1.9312438 -1.9280568 0.16628754 309 12804580 231 26 63 2734
2.0654788 -1.9188702 0.14513658 318 12804580 254 27 59 2823
1.6034487 -1.854646 0.1065713 110 12804580 66 28 40 2454
1.8089041 -1.9440721 0.089993551 228 12804580 161 29 33 2657
1.9628094 -1.9632677 0.068478055 230 12804580 177 30 24 2777
2.0841217 -1.9376135 0.042517714 320 12804580 259 31 52 2846
1.6793784 -1.9426763 0.017927878 127 12804580 84 32 63 2568
1.8126284 -1.9495071 -0.0067367898 238 12804580 168 33 41 2662
1.9559578 -1.9568925 -0.033031806 241 12804580 184 34 48 2767
2.1016495 -1.9564408 -0.061599959 312 12804580 257 35 53 2872
1.6862233 -1.9525222 -0.076613605 189 12804580 126 36 80 2581
1.7336749 -1.8673346 -0.099667817 184 12804580 119 37 36 2550
1.9522586 -1.9548285 -0.13449162 277 12804580 212 38 85 2766
2.1022735 -1.956953 -0.16706546 304 12804580 251 39 44 2877
1.6700039 -1.9368144 -0.16972612 281 12804580 184 40 54 2563
1.78887 -1.9285394 -0.19930895 248 12804580 173 41 64 2638
1.9342707 -1.9378991 -0.23376997 329 12804580 249 42 71 2748
2.0443704 -1.9051183 -0.26518628 339 12804580 267 43 35 2807
1.6901278 -1.9615375 -0.26729783 308 12804580 209 44 66 2603
1.7941066 -1.9357429 -0.29735133 296 12804580 209 45 43 2656
1.9483901 -1.9540901 -0.33720753 313 12804580 242 46 71 2780
2.0731263 -1.9328623 -0.37426278 317 12804580 259 47 68 2859
1.6867954 -1.9609897 -0.36302358 320 12804580 218 48 57 2612
1.8155394 -1.9605827 -0.40092012 280 12804580 204 49 51 2702
1.9365662 -1.9442667 -0.4386113 363 12804580 280 50 31 2779
2.1043603 -1.9630817 -0.48840538 199 12804580 169 51 34 2919
1.6719564 -1.9472419 -0.45744985 329 12804580 224 52 63 2607
1.7892774 -1.9341855 -0.49515122 302 12804580 217 53 40 2681
1.9191176 -1.9279597 -0.53804219 323 12804580 248 54 44 2773
2.0231042 -1.8872148 -0.57597452 61 12804580 48 55 49 2826
1.6821605 -1.9613413 -0.56054682 326 12804580 228 56 66 2644
1.8155618 -1.9646611 -0.60654038 318 12804580 239 57 40 2743
1.9293032 -1.9389365 -0.6481021 361 12804580 285 58 45 2811
1.9894781 -1.856172 -0.67335927 108 12804580 85 59 69 2803
1.6700269 -1.9518081 -0.65921181 369 12804580 259 60 38 2652
1.8181159 -1.9707348 -0.71504116 329 12804580 253 61 29 2775
1.9177539 -1.9280698 -0.75395685 343 12804580 273 62 36 2822
2.0782027 -1.9373239 -0.81957322 347 12804580 303 63 49 2957
0.95382434 -1.1173475 0.45855746 10 12902100 2 0 43 1539
1.5124881 -1.6409199 0.66982269 91 12902100 49 1 49 2330
1.5613128 -1.5711675 0.6413821 105 12902100 56 2 25 2306
1.6159861 -1.508105 0.61744106 147 12902100 77 3 27 2295
1.6575921 -1.9397795 0.68927056 233 12902100 162 4 52 2643
1.4904244 -1.6183991 0.57091874 134 12902100 69 5 14 2273
1.4262238 -1.4363284 0.50422519 117 12902100 51 6 40 2086
1.3618045 -1.2734739 0.44569269 13 12902100 5 7 29 1917
1.4645785 -1.7132413 0.51940709 66 12902100 35 8 30 2313
1.5402013 -1.671162 0.49992713 9 12902100 5 9 18 2327
1.4838459 -1.4959768 0.44233966 13 12902100 6 10 19 2153
1.8648642 -1.7469567 0.51152772 31 12902100 21 11 24 2606
1.3218518 -1.5457903 0.39023232 11 12902100 5 12 72 2071
1.523015 -1.6537881 0.40820992 183 12902100 95 13 37 2285
1.8146236 -1.8301612 0.44257906 145 12902100 99 14 64 2615
1.8761359 -1.7583767 0.41743296 167 12902100 113 15 41 2605
1.4978781 -1.7516994 0.35515401 224 12902100 122 16 30 2332
1.781703 -1.9355694 0.37956691 263 12902100 186 17 49 2658
1.934613 -1.9532907 0.37014231 291 12902100 224 18 44 2774
2.0282013 -1.9032259 0.34776568 213 12902100 167 19 39 2803
1.5562776 -1.8200593 0.27983037 155 12902100 90 20 41 2411
1.7559427 -1.9081858 0.27777034 174 12902100 118 21 42 2608
1.93843 -1.9589901 0.26871598 262 12902100 201 22 40 2769
2.053937 -1.9294667 0.24848187 308 12902100 247 23 74 2829
1.6683819 -1.9519234 0.20560651 218 12902100 144 24 47 2576
1.7563864 -1.9096712 0.18293098 276 12902100 186 25 56 2601
1.9025279 -1.9228414 0.16482781 273 12902100 201 26 77 2710
2.0536659 -1.9315076 0.14513658 310 12902100 247 27 51 2823
1.6309638 -1.9100351 0.10917695 12 12902100 7 28 36 2514
1.7888259 -1.9463048 0.089587115 235 12902100 164 29 20 2645
1.9254376 -1.9496676 0.067590334 239 12902100 179 30 28 2741
2.0459816 -1.9256941 0.041979894 322 12902100 254 31 42 2810
1.6440516 -1.9255664 0.017676551 16 12902100 10 32 47 2532
1.8006324 -1.9605925 -0.0067367898 259 12902100 183 33 51 2662
1.9270527 -1.9517798 -0.032745298 239 12902100 180 34 57 2743
2.0634124 -1.9446145 -0.060827814 312 12902100 251 35 52 2836
1.6975632 -1.9902097 -0.077682219 153 12902100 105 36 77 2617
1.6330363 -1.7807262 -0.094508544 171 12902100 100 37 34 2418
1.9318099 -1.958238 -0.13390815 297 12902100 225 38 85 2754
2.0640709 -1.9451672 -0.16497496 305 12902100 246 39 50 2841
1.6736147 -1.9652568 -0.17131543 306 12902100 205 40 65 2587
1.7850865 -1.9483019 -0.20021559 309 12902100 217 41 61 2650
1.9139491 -1.9412169 -0.23274913 332 12902100 249 42 94 2736
2.0674007 -1.950418 -0.26972097 329 12902100 268 43 34 2855
1.6548524 -1.9445996 -0.26360106 295 12902100 194 44 57 2567
1.8144038 -1.9818965 -0.30272517 227 12902100 166 45 49 2704
1.9447216 -1.9744947 -0.33866307 325 12902100 254 46 68 2792
2.0612276 -1.9455464 -0.37426278 339 12902100 277 47 93 2859
1.6439551 -1.9350766 -0.35635239 317 12902100 208 48 57 2564
1.7954657 -1.9629291 -0.39913958 328 12902100 237 49 32 2690
1.9079788 -1.9392192 -0.43482336 337 12902100 256 50 39 2755
2.0922754 -1.9759569 -0.48840538 327 12902100 278 51 53 2919
1.6446953 -1.9394438 -0.45323858 306 12902100 204 52 68 2583
1.7853311 -1.9538341 -0.49736744 331 12902100 240 53 62 2693
1.9320122 -1.9648805 -0.5450272 321 12902100 253 54 47 2809
2.0627346 -1.9479902 -0.59064901 111 12902100 93 55 23 2898
1.6549346 -1.9537292 -0.55545866 334 12902100 229 56 81 2620
1.7719136 -1.9411902 -0.59592646 322 12902100 234 57 50 2695
1.9091846 -1.9424103 -0.64533538 330 12902100 258 58 44 2799
1.9526465 -1.8443484 -0.66471106 80 12902100 61 59 35 2767
1.650517 -1.9531405 -0.6562289 260 12902100 181 60 28 2640
1.7747509 -1.9475729 -0.7026729 329 12902100 244 61 39 2727
1.897783 -1.9315521 -0.75075084 346 12902100 273 62 34 2810
2.0746615 -1.9579525 -0.82289916 297 12902100 262 63 34 2969
1.3678174 -1.6223696 0.66236073 8 13001080 4 0 20 2223
1.4869157 -1.6331719 0.66292322 80 13001080 42 1 47 2306
1.5193452 -1.547815 0.62803161 94 13001080 48 2 25 2258
1.5562958 -1.4703689 0.59807038 146 13001080 72 3 23 2223
1.630715 -1.9322075 0.68301159 269 13001080 185 4 58 2619
1.496098 -1.6446984 0.57694691 141 13001080 74 5 16 2297
1.4826133 -1.5115554 0.52743018 94 13001080 45 6 61 2182
1.2946362 -1.2256391 0.42616311 13 13001080 4 7 23 1833
1.4842132 -1.7579349 0.53018594 122 13001080 68 8 48 2361
1.4273539 -1.5679163 0.46641243 12 13001080 6 9 12 2171
0 -0 0 7 13001080 0 10 22 0
1.7858082 -1.6935917 0.49268401 18 13001080 11 11 15 2510
1.441612 -1.7069331 0.42867145 11 13001080 6 12 64 2275
1.5207839 -1.6718361 0.41035372 118 13001080 62 13 19 2297
1.7702581 -1.8074636 0.43445528 150 13001080 99 14 51 2567
1.8739041 -1.7780083 0.4193559 147 13001080 100 15 39 2617
1.517711 -1.7971014 0.36246422 216 13001080 122 16 24 2380
1.769793 -1.9464653 0.37956691 235 13001080 166 17 47 2658
1.8893237 -1.9311208 0.36373752 291 13001080 216 18 42 2726
2.0251179 -1.9238359 0.34925449 197 13001080 156 19 47 2815
1.5143201 -1.7931498 0.2742593 180 13001080 100 20 42 2363
1.6960484 -1.8659477 0.27010185 84 13001080 54 21 62 2536
1.8846319 -1.928142 0.26289332 270 13001080 198 22 46 2709
2.0507212 -1.9502708 0.24953586 316 13001080 255 23 96 2841
1.6486577 -1.9529833 0.2046487 194 13001080 127 24 40 2564
1.752685 -1.9292724 0.18377496 245 13001080 167 25 51 2613
1.899066 -1.943045 0.16555768 286 13001080 212 26 67 2722
2.0244174 -1.9275445 0.14390269 325 13001080 255 27 70 2799
1.5960265 -1.8925124 0.10761356 26 13001080 16 28 28 2478
1.7687885 -1.9483644 0.089180663 242 13001080 168 29 24 2633
1.8966845 -1.9442708 0.066998519 216 13001080 159 30 27 2717
2.0080674 -1.9133805 0.04144207 307 13001080 236 31 54 2774
1.6244701 -1.9264445 0.017592777 10 13001080 7 32 65 2520
1.7724431 -1.9538283 -0.0066760518 246 13001080 171 33 40 2638
1.9317964 -1.9807478 -0.033031806 243 13001080 186 34 63 2767
2.034081 -1.9406754 -0.060313046 325 13001080 257 35 54 2812
1.6698638 -1.9822413 -0.07696981 163 13001080 110 36 77 2593
1.6945292 -1.8706949 -0.098729767 173 13001080 110 37 38 2526
1.8946631 -1.9443022 -0.13215773 281 13001080 208 38 79 2718
2.0347614 -1.9412566 -0.1635813 319 13001080 253 39 26 2817
1.6384033 -1.9479985 -0.16893145 293 13001080 191 40 70 2551
1.7490109 -1.9326025 -0.19749568 295 13001080 202 41 64 2614
