# .PCD v0.7 - Point Cloud Data file format
VERSION 0.7
FIELDS x y z intensity t reflectivity ring noise range
SIZE 4 4 4 4 4 2 1 2 4
TYPE F F F F U U U U U
COUNT 1 1 1 1 1 1 1 1 1
WIDTH 865
HEIGHT 1
VIEWPOINT 0 0 0 1 0 0 0
POINTS 865
DATA ascii
3.0175648 -1.7177395 -0.65250623 361 7911060 451 53 83 3533
3.2258289 -1.683095 -0.71965319 368 7911060 507 54 82 3709
3.4959006 -1.6623362 -0.80587518 340 7911060 532 55 70 3954
2.8437726 -1.7634586 -0.72591239 302 7911060 354 56 137 3424
3.0460193 -1.7360495 -0.79493719 318 7911060 411 57 70 3595
3.3046453 -1.7250251 -0.88327253 336 7911060 492 58 51 3831
3.5511739 -1.6889992 -0.97316384 365 7911060 600 59 58 4051
2.9020917 -1.804325 -0.87696046 364 7911060 453 60 49 3528
3.1137559 -1.7781128 -0.95622259 380 7911060 523 61 49 3711
3.39451 -1.7727638 -1.061738 296 7911060 468 62 69 3974
3.6389148 -1.7288617 -1.1621476 295 7911060 518 63 53 4193
1.5675286 -0.97707242 0.57654881 70 8009500 26 0 61 1935
1.4884131 -0.85084033 0.51458484 31 8009500 10 1 72 1790
0 -0 0 0 8009500 0 2 38 0
0 -0 0 0 8009500 0 3 34 0
0 -0 0 0 8009500 0 4 67 0
0 -0 0 2 8009500 0 5 30 0
0 -0 0 4 8009500 0 6 70 0
0 -0 0 8 8009500 0 7 62 0
2.2114372 -1.3762909 0.60024863 39 8009500 28 8 71 2673
2.4613547 -1.4071863 0.62367356 323 8009500 272 9 83 2903
0.91974026 -0.48195589 0.21798532 35 8009500 4 10 35 1061
0.99964565 -0.47792333 0.22180593 67 8009500 9 11 18 1130
1.9070855 -1.1864617 0.43093258 192 8009500 101 12 95 2287
2.0128403 -1.1517907 0.42107257 15 8009500 8 13 46 2357
0.86852705 -0.45533207 0.16840008 28 8009500 3 14 86 995
0.99461114 -0.475815 0.17899142 56 8009500 7 15 52 1117
1.1714906 -0.72885185 0.21260506 12 8009500 2 16 32 1396
0.89157939 -0.51044959 0.14822815 32 8009500 3 17 69 1038
0.95998448 -0.50394166 0.14597538 49 8009500 6 18 43 1094
0.92975557 -0.44548669 0.12890778 50 8009500 5 19 64 1039
2.4178379 -1.5043349 0.33275557 326 8009500 268 20 98 2867
2.6022646 -1.4903989 0.3212252 268 8009500 243 21 39 3016
0.8748526 -0.45977789 0.096365109 45 8009500 4 22 50 993
0 -0 0 0 8009500 0 23 103 0
2.4744701 -1.5402294 0.23338252 228 8009500 195 24 58 2924
2.6561494 -1.5221839 0.21584591 83 8009500 78 25 57 3069
0.9842667 -0.51732421 0.067755789 45 8009500 6 26 91 1114
0.96405137 -0.46326479 0.055062447 57 8009500 7 27 91 1071
2.6302216 -1.6389607 0.13471237 20 8009500 20 28 66 3102
2.6780219 -1.5359607 0.10462555 336 8009500 320 29 44 3089
2.8913445 -1.5231515 0.080610283 306 8009500 327 30 32 3269
0.91008461 -0.43774229 0.015088857 181 8009500 18 31 57 1010
2.5459917 -1.5866598 0.020943783 360 8009500 324 32 95 3000
2.6937306 -1.5462828 -0.0078604314 399 8009500 385 33 66 3106
2.9254475 -1.5415734 -0.039478201 278 8009500 304 34 84 3307
3.1379941 -1.5118423 -0.07472641 220 8009500 267 35 88 3484
2.5958874 -1.6195166 -0.090861775 398 8009500 373 36 112 3061
2.770242 -1.5929035 -0.12499517 400 8009500 409 37 53 3198
3.0054774 -1.5853543 -0.16541596 319 8009500 369 38 112 3402
3.191906 -1.5377475 -0.20608805 391 8009500 493 39 59 3549
2.6052914 -1.6282276 -0.20389649 426 8009500 404 40 104 3079
2.8190234 -1.6226557 -0.24645406 361 8009500 384 41 98 3262
3.0452695 -1.6074313 -0.29399893 129 8009500 155 42 181 3456
3.2377622 -1.5619985 -0.34114274 397 8009500 517 43 57 3611
2.6708672 -1.6705071 -0.32521409 423 8009500 424 44 105 3167
2.8861744 -1.6628512 -0.37527174 365 8009500 410 45 52 3352
3.0504937 -1.6122319 -0.42163068 391 8009500 473 46 84 3476
3.291795 -1.5890572 -0.48265368 337 8009500 458 47 133 3687
2.7155099 -1.7015958 -0.44974893 398 8009500 417 48 104 3236
1.2147593 -0.70058209 -0.21040146 74 8009500 15 49 116 1418
3.1481626 -1.6659607 -0.56929505 368 8009500 478 50 40 3607
3.3583419 -1.6223381 -0.63296932 387 8009500 555 51 65 3783
2.7639391 -1.7353706 -0.58168244 393 8009500 432 52 95 3315
2.9763281 -1.7185311 -0.64585739 371 8009500 454 53 85 3497
3.1946347 -1.6918379 -0.71499652 357 8009500 485 54 93 3685
3.4433205 -1.6633153 -0.79609215 355 8009500 542 55 62 3906
1.1351452 -0.71359801 -0.29087377 121 8009500 23 56 137 1372
3.0353098 -1.7547069 -0.79493719 350 8009500 453 57 64 3595
3.2733626 -1.734336 -0.87773913 345 8009500 499 58 57 3807
3.5302548 -1.7056893 -0.97028106 357 8009500 583 59 78 4039
2.8811328 -1.8159003 -0.87397766 389 8009500 480 60 44 3516
3.0927536 -1.7913735 -0.95313054 366 8009500 500 61 51 3699
3.3631344 -1.7827271 -1.055326 304 8009500 475 62 82 3950
3.6178546 -1.7461454 -1.1588216 268 8009500 469 63 59 4181
1.522769 -0.96219665 0.56224686 69 8107740 24 0 35 1887
1.5428225 -0.89454752 0.53528321 29 8107740 10 1 77 1862
0 -0 0 4 8107740 0 2 32 0
0.95994091 -0.46396443 0.2978245 13 8107740 2 3 28 1107
0 -0 0 4 8107740 0 4 70 0
0 -0 0 0 8107740 0 5 35 0
0 -0 0 3 8107740 0 6 82 0
0 -0 0 0 8107740 0 7 57 0
2.0644937 -1.302482 0.56252259 110 8107740 69 8 68 2505
2.4526742 -1.4222624 0.62367356 316 8107740 267 9 66 2903
1.0204527 -0.54273713 0.24263965 29 8107740 4 10 51 1181
0.96494132 -0.4686271 0.21473956 61 8107740 7 11 24 1094
1.6605332 -1.0472602 0.37666559 12 8107740 5 12 107 1999
1.2296509 -0.71368384 0.2581459 10 8107740 2 13 56 1445
1.0014473 -0.5328756 0.19480249 23 8107740 3 14 89 1151
1.0236336 -0.49744034 0.18476015 56 8107740 7 15 46 1153
1.0466186 -0.6601038 0.19067447 11 8107740 2 16 50 1252
0.93978488 -0.54573202 0.15679625 32 8107740 4 17 74 1098
0.90439487 -0.4818615 0.13796942 57 8107740 6 18 73 1034
0.95912415 -0.4668161 0.13337427 49 8107740 6 19 67 1075
2.3883996 -1.5064253 0.32997003 341 8107740 276 20 82 2843
2.5724363 -1.4943513 0.31866905 337 8107740 302 21 80 2992
0.89309096 -0.47637925 0.098694175 39 8107740 4 22 45 1017
0.89992183 -0.43860409 0.088272981 59 8107740 6 23 127 1005
2.4548569 -1.5490004 0.23242474 330 8107740 280 24 62 2912
2.6053631 -1.5143912 0.21247001 343 8107740 313 25 77 3021
0.94936961 -0.50644112 0.065566197 23 8107740 3 26 99 1078
0.93965137 -0.45865771 0.053828552 69 8107740 8 27 110 1047
2.4072628 -1.5206141 0.12376862 20 8107740 16 28 49 2850
2.6270802 -1.5282415 0.10299978 308 8107740 284 29 50 3041
2.8290484 -1.5125824 0.079130739 325 8107740 334 30 55 3209
0.89660078 -0.4380511 0.014909584 130 8107740 13 31 65 998
2.5159183 -1.5894338 0.020776231 379 8107740 336 32 77 2976
2.6738217 -1.5567442 -0.0078300629 342 8107740 328 33 76 3094
2.8947716 -1.5481769 -0.039191697 306 8107740 330 34 73 3283
1.2751708 -0.62402892 -0.030456804 69 8107740 14 35 103 1420
2.5453517 -1.6097691 -0.089436963 405 8107740 368 36 131 3013
2.7293417 -1.591749 -0.12358809 402 8107740 402 37 61 3162
2.9111588 -1.5585096 -0.16074814 404 8107740 441 38 154 3306
3.1824102 -1.5573038 -0.20608805 379 8107740 478 39 61 3549
2.5851371 -1.6377747 -0.20310183 414 8107740 390 40 100 3067
2.7986805 -1.6338897 -0.24554744 392 8107740 414 41 107 3250
1.2331105 -0.66059762 -0.11943706 87 8107740 17 42 113 1404
3.2066619 -1.5713222 -0.33887538 394 8107740 506 43 56 3587
2.6202426 -1.6612973 -0.32028505 435 8107740 423 44 124 3119
2.8244386 -1.650448 -0.36855444 413 8107740 448 45 75 3292
3.040544 -1.630919 -0.42163068 393 8107740 475 46 99 3476
3.2713008 -1.6039878 -0.48108277 345 8107740 466 47 128 3675
2.6849561 -1.7054825 -0.44641334 383 8107740 395 48 111 3212
1.1694639 -0.68405563 -0.20327927 84 8107740 16 49 52 1370
3.0856848 -1.6572132 -0.55982524 402 8107740 506 50 67 3547
3.3483241 -1.6429139 -0.63296932 370 8107740 530 51 78 3783
2.7233396 -1.7332678 -0.57536554 383 8107740 412 52 97 3279
2.9555504 -1.7308013 -0.64364111 357 8107740 434 53 77 3485
3.1738243 -1.7058347 -0.71266818 332 8107740 448 54 91 3673
3.4119558 -1.6740621 -0.79120064 378 8107740 570 55 64 3882
1.1208553 -0.71424752 -0.28832966 127 8107740 24 56 100 1360
2.9841034 -1.7496212 -0.78432328 351 8107740 442 57 65 3547
3.2318068 -1.7377983 -0.86943901 364 8107740 517 58 57 3771
3.4988084 -1.7170547 -0.96451569 354 8107740 571 59 84 4015
2.8111665 -1.7959975 -0.85608047 369 8107740 437 60 46 3444
3.0317168 -1.7809522 -0.93767017 358 8107740 473 61 54 3639
3.2706628 -1.7595015 -1.0296774 305 8107740 452 62 57 3854
3.5863667 -1.7581607 -1.1521697 297 8107740 514 63 58 4157
1.5554204 -0.99623483 0.57654881 78 8203480 29 0 54 1935
1.6958237 -0.99721289 0.5904789 13 8203480 6 1 64 2054
0 -0 0 0 8203480 0 2 43 0
0 -0 0 7 8203480 0 3 26 0
0 -0 0 3 8203480 0 4 66 0
0 -0 0 6 8203480 0 5 32 0
0 -0 0 4 8203480 0 6 87 0
0 -0 0 0 8203480 0 7 51 0
1.9579499 -1.2521251 0.53557539 71 8203480 41 8 81 2385
2.4135945 -1.4194613 0.61593944 359 8203480 295 9 75 2867
2.5983071 -1.4024535 0.61985081 228 8203480 207 10 23 3017
0.91983718 -0.45371827 0.20531771 62 8203480 7 11 27 1046
1.3363347 -0.85430127 0.30430964 11 8203480 3 12 106 1615
1.2557739 -0.73918343 0.26457721 10 8203480 2 13 39 1481
0.95653272 -0.51653206 0.18667868 24 8203480 3 14 73 1103
0.95683241 -0.47225723 0.17322268 53 8203480 6 15 50 1081
1.1724508 -0.74956131 0.21443263 15 8203480 3 16 31 1408
0.96712089 -0.56956977 0.16193712 29 8203480 4 17 66 1134
0.87003708 -0.47043219 0.13316584 39 8203480 4 18 56 998
0.96691608 -0.47796893 0.13486309 65 8203480 8 19 78 1087
2.3489854 -1.5017912 0.32579172 363 8203480 286 20 83 2807
2.5632188 -1.5101074 0.31866905 326 8203480 292 21 80 2992
0.94266737 -0.51027787 0.10451684 30 8203480 4 22 73 1077
0.8972137 -0.44411767 0.088272981 46 8203480 5 23 126 1005
2.4049988 -1.5382531 0.22859356 348 8203480 286 24 75 2864
2.6269579 -1.5485854 0.21500193 133 8203480 125 25 76 3057
0.91464424 -0.49514991 0.063376598 19 8203480 2 26 76 1042
0.86165911 -0.42715505 0.049509931 58 8203480 5 27 96 963
2.5190437 -1.6129322 0.1300222 51 8203480 45 28 51 2994
2.6383126 -1.5565202 0.10381266 328 8203480 308 29 43 3065
2.8408024 -1.5413548 0.079722553 310 8203480 324 30 55 3233
0.92614084 -0.45954388 0.015447405 55 8203480 6 31 67 1034
2.5061183 -1.6048412 0.020776231 186 8203480 165 32 89 2976
2.6435533 -1.5609186 -0.0077693253 400 8203480 377 33 66 3070
2.8430336 -1.5430149 -0.038618684 322 8203480 337 34 90 3235
1.2390872 -0.61582291 -0.029684659 51 8203480 10 35 68 1384
2.5253284 -1.6188834 -0.089080758 380 8203480 342 36 132 3001
2.6988821 -1.5962574 -0.12265005 396 8203480 390 37 78 3138
2.8804772 -1.5648992 -0.15958117 418 8203480 450 38 132 3282
3.1298831 -1.5554751 -0.20330071 394 8203480 483 39 72 3501
2.5649641 -1.647136 -0.20230716 445 8203480 415 40 90 3055
2.7371204 -1.6205506 -0.24101424 399 8203480 406 41 98 3190
1.208025 -0.65673006 -0.11739541 56 8203480 11 42 132 1380
3.1327891 -1.5590336 -0.3320733 406 8203480 501 43 55 3515
2.5999579 -1.6708901 -0.31905279 435 8203480 420 44 116 3107
2.7937415 -1.6555889 -0.36586753 365 8203480 390 45 65 3268
3.0200176 -1.6438501 -0.42017511 372 8203480 446 46 118 3464
3.2187994 -1.602818 -0.47479922 325 8203480 427 47 117 3627
2.6444659 -1.7026256 -0.44140998 373 8203480 376 48 89 3176
1.2673098 -0.75176316 -0.22108476 51 8203480 11 49 50 1490
3.0650535 -1.6704448 -0.55793124 402 8203480 502 50 57 3535
3.2746463 -1.6317687 -0.62092233 387 8203480 533 51 77 3711
2.7027259 -1.7435411 -0.57325995 408 8203480 436 52 94 3267
2.9043143 -1.7248156 -0.63477612 334 8203480 395 53 118 3437
3.121959 -1.7027305 -0.70335478 358 8203480 471 54 75 3625
3.3595595 -1.674008 -0.78141761 372 8203480 547 55 67 3834
1.1361538 -0.73383701 -0.29341784 74 8203480 14 56 119 1384
2.9531934 -1.7559363 -0.77901632 356 8203480 442 57 60 3523
3.200583 -1.7464097 -0.86390561 346 8203480 486 58 60 3747
3.436079 -1.7125107 -0.95010197 352 8203480 551 59 87 3955
2.7805805 -1.8005769 -0.8501147 321 8203480 376 60 64 3420
3.0008097 -1.7876527 -0.93148607 349 8203480 456 61 45 3615
3.2496555 -1.773996 -1.0264715 308 8203480 455 62 59 3842
3.5342257 -1.7595783 -1.1388658 285 8203480 480 63 57 4109
1.5300626 -0.99328548 0.56939787 181 8301680 66 0 35 1911
0 -0 0 5 8301680 0 1 73 0
0 -0 0 0 8301680 0 2 32 0
0 -0 0 0 8301680 0 3 26 0
0 -0 0 3 8301680 0 4 69 0
0 -0 0 3 8301680 0 5 31 0
0 -0 0 3 8301680 0 6 70 0
0 -0 0 0 8301680 0 7 58 0
1.8030429 -1.1687104 0.49515462 97 8301680 47 8 64 2205
2.3645771 -1.4102316 0.60562724 310 8301680 247 9 83 2819
2.5690522 -1.4070868 0.6149199 357 8301680 320 10 64 2993
1.0117203 -0.50678223 0.22651686 45 8301680 6 11 26 1154
1.2618356 -0.81762487 0.28848174 17 8301680 4 12 84 1531
1.2410766 -0.74082315 0.26243344 10 8301680 2 13 55 1469
0 -0 0 0 8301680 0 14 76 0
1.006863 -0.50465697 0.18283725 60 8301680 8 15 41 1141
1.1678295 -0.75674123 0.21443263 14 8301680 3 16 39 1408
0.96360785 -0.57549316 0.16193712 21 8301680 3 17 69 1134
1.0339576 -0.56729108 0.15878491 26 8301680 4 18 56 1190
0.90011472 -0.45184109 0.12593013 47 8301680 5 19 58 1015
2.3697336 -1.5356212 0.32997003 363 8301680 294 20 81 2843
2.5026901 -1.4952089 0.31227863 352 8301680 303 21 75 2932
0.94998688 -0.52180231 0.10568138 39 8301680 5 22 55 1089
0.91583228 -0.46035159 0.090380996 57 8301680 6 23 105 1029
2.3654037 -1.5334603 0.22572017 373 8301680 299 24 64 2828
2.5557599 -1.527823 0.20993809 35 8301680 32 25 64 2985
0.97457772 -0.53535372 0.067755789 17 8301680 2 26 96 1114
0.84831756 -0.42704546 0.048892982 45 8301680 4 27 78 951
2.499043 -1.6218319 0.12950106 222 8301680 198 28 67 2982
2.6081285 -1.5603647 0.10299978 297 8301680 274 29 48 3041
2.7577288 -1.5182569 0.077651203 340 8301680 337 30 45 3149
2.9913611 -1.5072341 0.0500472 239 8301680 268 31 36 3350
2.5465515 -1.6528535 0.021195108 35 8301680 32 32 91 3036
2.6236303 -1.5709451 -0.0077389563 384 8301680 359 33 81 3058
2.8650444 -1.5777953 -0.039048441 318 8301680 341 34 95 3271
3.066792 -1.547725 -0.073696882 151 8301680 179 35 75 3436
2.4751153 -1.6082071 -0.087655939 362 8301680 316 36 127 2953
2.6581874 -1.5942851 -0.12124297 397 8301680 382 37 69 3102
2.8813176 -1.5883304 -0.16016465 409 8301680 443 38 148 3294
3.0561097 -1.542267 -0.19911973 276 8301680 325 39 89 3429
2.5146682 -1.6367168 -0.19912854 443 8301680 401 40 83 3007
2.7271254 -1.6373148 -0.24101424 378 8301680 385 41 103 3190
2.9314113 -1.6170121 -0.28583229 259 8301680 292 42 113 3360
3.1338265 -1.5836147 -0.33320698 387 8301680 482 43 60 3527
2.5596509 -1.667267 -0.31535599 419 8301680 395 44 95 3071
2.7630882 -1.6604155 -0.36318064 377 8301680 397 45 63 3244
2.9785941 -1.6450735 -0.41580841 184 8301680 216 46 133 3428
3.1770539 -1.6064335 -0.47008657 348 8301680 449 47 118 3591
2.6041129 -1.6993369 -0.43640658 360 8301680 355 48 89 3140
2.8287268 -1.7015399 -0.49528918 296 8301680 329 49 46 3338
3.0028975 -1.6605488 -0.54846144 374 8301680 451 50 48 3475
3.2434597 -1.6411481 -0.6169067 385 8301680 524 51 101 3687
2.6623132 -1.7406969 -0.56694305 394 8301680 411 52 102 3231
2.8633673 -1.7243512 -0.62812728 120 8301680 139 53 101 3401
3.1114523 -1.7218544 -0.70335478 364 8301680 479 54 86 3625
3.3597076 -1.6998943 -0.78386337 372 8301680 551 55 58 3846
2.7309558 -1.7877555 -0.70810378 348 8301680 389 56 77 3340
2.9423637 -1.7740238 -0.77901632 339 8301680 421 57 71 3523
3.1489446 -1.7433921 -0.85283875 366 8301680 501 58 64 3699
3.3943262 -1.7177823 -0.94145375 351 8301680 540 59 79 3919
2.8083501 -1.8431146 -0.86204618 103 8301680 123 60 55 3468
2.9798596 -1.8000365 -0.92839396 365 8301680 473 61 39 3603
3.1982462 -1.77149 -1.0136472 312 8301680 448 62 49 3794
3.482204 -1.7604231 -1.125562 298 8301680 491 63 49 4061
1.5143696 -0.99635893 0.56582236 185 8399520 67 0 33 1899
0 -0 0 4 8399520 0 1 72 0
0 -0 0 0 8399520 0 2 40 0
0 -0 0 7 8399520 0 3 28 0
0 -0 0 0 8399520 0 4 68 0
0 -0 0 7 8399520 0 5 37 0
0 -0 0 0 8399520 0 6 78 0
0 -0 0 0 8399520 0 7 49 0
1.7176518 -1.1283883 0.47359687 128 8399520 57 8 72 2109
2.3659079 -1.4307785 0.60820526 315 8399520 253 9 70 2831
2.5295739 -1.4057101 0.60752362 333 8399520 292 10 60 2957
0.97712779 -0.49697766 0.21945047 64 8399520 8 11 28 1118
0 -0 0 8 8399520 0 12 88 0
1.216306 -0.73619682 0.2581459 13 8399520 3 13 30 1445
1.0224794 -0.56845921 0.20089535 20 8399520 3 14 69 1187
0.94040841 -0.47859105 0.17129974 43 8399520 5 15 44 1069
1.3515174 -0.88759112 0.24915607 10 8399520 3 16 20 1636
1.0210147 -0.6183089 0.17221884 16 8399520 2 17 58 1206
0.96811026 -0.53891796 0.14917776 30 8399520 4 18 48 1118
0.82306385 -0.41950545 0.11550833 40 8399520 4 19 64 931
2.300492 -1.510875 0.32161343 325 8399520 250 20 72 2771
2.4220321 -1.467261 0.30333203 335 8399520 272 21 80 2848
0.94676727 -0.52762151 0.10568138 34 8399520 4 22 45 1089
0.98752022 -0.50400007 0.097759031 29 8399520 4 23 105 1113
2.3759441 -1.561082 0.22763577 383 8399520 312 24 69 2852
2.4644451 -1.4938366 0.20318632 27 8399520 23 25 78 2889
2.7603726 -1.5384473 0.19256267 19 8399520 19 26 111 3166
0.88836557 -0.45405927 0.051360767 44 8399520 4 27 93 999
2.3888819 -1.5712545 0.12428975 361 8399520 295 28 53 2862
2.547236 -1.5452369 0.10096756 308 8399520 273 29 37 2981
2.7693076 -1.5468495 0.078243017 313 8399520 316 30 58 3173
2.9179647 -1.4927722 0.04897156 396 8399520 426 31 70 3278
2.4962611 -1.642069 0.020860007 22 8399520 20 32 91 2988
2.6139419 -1.5870138 -0.0077389563 377 8399520 353 33 78 3058
2.8238842 -1.577787 -0.038618684 315 8399520 330 34 113 3235
2.9718201 -1.5227457 -0.071637832 381 8399520 425 35 83 3340
2.4952543 -1.6431543 -0.088724554 368 8399520 329 36 122 2989
2.648355 -1.6105654 -0.12124297 382 8399520 368 37 77 3102
2.8192132 -1.576727 -0.15724726 388 8399520 406 38 136 3234
1.2340951 -0.63231695 -0.080658294 60 8399520 12 39 92 1389
2.5245681 -1.6653019 -0.20071785 416 8399520 382 40 94 3031
2.6965861 -1.6415733 -0.23920096 382 8399520 383 41 101 3166
2.8796997 -1.6116118 -0.28174898 381 8399520 418 42 130 3312
3.1134214 -1.5973604 -0.3320733 418 8399520 516 43 57 3515
2.5593345 -1.6895175 -0.31658825 410 8399520 390 44 104 3083
2.7222986 -1.6587242 -0.35915026 366 8399520 377 45 64 3208
1.2019253 -0.67347914 -0.16836116 123 8399520 24 46 123 1388
3.1777208 -1.6313305 -0.47165748 372 8399520 483 47 106 3603
2.6134608 -1.7283938 -0.43974215 375 8399520 375 48 106 3164
2.818233 -1.7188646 -0.49528918 354 8399520 395 49 60 3338
2.9823177 -1.6731452 -0.54656744 364 8399520 437 50 69 3463
3.222805 -1.6556126 -0.61489886 345 8399520 466 51 79 3675
2.6220384 -1.7374232 -0.56062609 383 8399520 391 52 115 3195
1.1415964 -0.69706249 -0.25136173 136 8399520 25 53 90 1361
3.0597694 -1.7178614 -0.69404137 352 8399520 451 54 92 3577
3.2969642 -1.6936367 -0.77163464 400 8399520 574 55 72 3786
2.680846 -1.778546 -0.69792742 384 8399520 416 56 131 3292
2.8814981 -1.7615241 -0.76574892 368 8399520 442 57 69 3463
3.107646 -1.7455257 -0.84453857 329 8399520 442 58 75 3663
3.3526394 -1.7226065 -0.93280554 354 8399520 534 59 76 3883
1.093632 -0.72738832 -0.33706304 150 8399520 28 60 30 1356
2.9390957 -1.800119 -0.91911775 345 8399520 438 61 48 3567
3.1973977 -1.7967458 -1.0168533 323 8399520 469 62 64 3806
3.4405637 -1.7659613 -1.115584 282 8399520 457 63 70 4025
1.5368195 -1.0246962 0.57654881 136 8498430 51 0 43 1935
0 -0 0 5 8498430 0 1 71 0
0 -0 0 4 8498430 0 2 28 0
0 -0 0 0 8498430 0 3 34 0
0 -0 0 4 8498430 0 4 64 0
0 -0 0 2 8498430 0 5 23 0
0 -0 0 3 8498430 0 6 71 0
0 -0 0 6 8498430 0 7 61 0
1.6133589 -1.0741036 0.44664967 98 8498430 39 8 71 1989
2.2072167 -1.3533758 0.56953448 301 8498430 212 9 102 2651
2.47998 -1.3981348 0.59766191 355 8498430 301 10 74 2909
1.0263352 -0.52995658 0.23122779 48 8498430 7 11 21 1178
1.3203834 -0.87875414 0.30430964 16 8498430 4 12 97 1615
0 -0 0 8 8498430 0 13 49 0
0.89535642 -0.50500035 0.17652391 24 8498430 3 14 90 1043
0.92693084 -0.47891521 0.16937684 35 8498430 4 15 38 1057
0 -0 0 6 8498430 0 16 42 0
0 -0 0 8 8498430 0 17 70 0
1.0579846 -0.59748095 0.16358849 29 8498430 4 18 59 1226
0.90507752 -0.46832499 0.12741897 44 8498430 5 19 74 1027
2.2614119 -1.5051502 0.31743512 349 8498430 261 20 91 2735
2.4129837 -1.4820946 0.30333203 349 8498430 283 21 96 2848
1.0162898 -0.57456625 0.11383311 14 8498430 2 22 54 1173
0.85704625 -0.44405964 0.08511097 49 8498430 5 23 128 969
2.3464077 -1.5623719 0.22572017 362 8498430 290 24 78 2828
2.5776119 -1.5841416 0.213314 49 8498430 45 25 72 3033
2.6987479 -1.5258795 0.18891336 226 8498430 218 26 97 3106
0.90683752 -0.47054067 0.052594658 39 8498430 4 27 69 1023
2.3592443 -1.5725839 0.12324748 381 8498430 307 28 54 2838
2.5377066 -1.5608374 0.10096756 238 8498430 211 29 51 2981
2.7075782 -1.5342416 0.076763481 322 8498430 312 30 49 3113
2.8874538 -1.4995881 0.048613016 406 8498430 430 31 69 3254
2.4462004 -1.6307306 0.020524906 25 8498430 22 32 90 2940
2.5837169 -1.5904418 -0.0076782191 358 8498430 330 33 78 3034
2.7619555 -1.5655001 -0.037902419 335 8498430 338 34 84 3175
2.9624207 -1.5409518 -0.071637832 374 8498430 417 35 84 3340
2.4452169 -1.6318015 -0.087299734 360 8498430 311 36 122 2941
2.6282163 -1.6204919 -0.12077394 374 8498430 358 37 63 3090
2.8094854 -1.5939958 -0.15724726 365 8498430 382 38 126 3234
1.18768 -0.61776495 -0.077870972 63 8498430 11 39 71 1341
2.4744849 -1.6541438 -0.1975392 435 8498430 387 40 86 2983
2.6559155 -1.6392345 -0.23648106 357 8498430 350 41 94 3130
2.828166 -1.6056386 -0.27766564 423 8498430 450 42 129 3264
3.0611804 -1.5943602 -0.32753861 396 8498430 476 43 92 3467
2.5290773 -1.6919153 -0.31412375 405 8498430 379 44 112 3059
2.6917801 -1.6628625 -0.35646337 376 8498430 382 45 76 3184
1.3013239 -0.73970371 -0.18291686 52 8498430 12 46 94 1508
3.1254511 -1.6288056 -0.46537393 390 8498430 493 47 101 3555
2.5435772 -1.7047018 -0.42973542 391 8498430 374 48 94 3092
2.7672598 -1.7111595 -0.48816699 377 8498430 409 49 64 3290
2.9513981 -1.6796907 -0.54277951 381 8498430 451 50 77 3439
3.2020957 -1.6698855 -0.61289102 350 8498430 470 51 86 3663
2.6113284 -1.753479 -0.56062609 413 8498430 422 52 99 3195
1.1272702 -0.69784641 -0.24914546 86 8498430 16 53 60 1349
3.0184834 -1.7191257 -0.68705636 330 8498430 414 54 59 3541
3.2344258 -1.6866739 -0.75940585 352 8498430 489 55 77 3726
2.6406858 -1.7753329 -0.69029516 394 8498430 418 56 127 3256
2.8507407 -1.7668411 -0.76044196 358 8498430 424 57 90 3439
3.0867319 -1.7587805 -0.8417719 359 8498430 479 58 70 3651
3.3420064 -1.7431455 -0.93280554 354 8498430 534 59 87 3883
1.0602328 -0.71459603 -0.32811445 110 8498430 19 60 31 1320
2.9279952 -1.818119 -0.91911775 346 8498430 440 61 45 3567
3.1360819 -1.7876971 -1.000823 347 8498430 488 62 61 3746
3.4398882 -1.7923669 -1.1189101 299 8498430 487 63 47 4037
1.5305032 -1.0341067 0.57654881 116 8596870 43 0 53 1935
0 -0 0 0 8596870 0 1 77 0
0 -0 0 0 8596870 0 2 29 0
0 -0 0 3 8596870 0 3 29 0
0 -0 0 0 8596870 0 4 65 0
0 -0 0 0 8596870 0 5 29 0
0 -0 0 6 8596870 0 6 81 0
0 -0 0 4 8596870 0 7 44 0
1.713369 -1.1559213 0.47629157 45 8596870 20 8 57 2121
2.0097566 -1.2493335 0.52055156 277 8596870 163 9 72 2423
2.4713545 -1.4133254 0.59766191 362 8596870 307 10 66 2909
0.97095555 -0.5089311 0.21945047 33 8596870 4 11 36 1118
0 -0 0 9 8596870 0 12 80 0
0 -0 0 7 8596870 0 13 45 0
1.0770195 -0.61620343 0.21308109 17 8596870 3 14 81 1259
1.1232806 -0.58912295 0.20591225 21 8596870 3 15 43 1285
1.4683486 -0.99032038 0.27291423 11 8596870 3 16 37 1792
0 -0 0 8 8596870 0 17 75 0
0.94078529 -0.53893453 0.14597538 30 8596870 4 18 60 1094
0.89164525 -0.46833271 0.12593013 67 8596870 7 19 84 1015
2.2521338 -1.5189977 0.31743512 289 8596870 217 20 67 2735
2.4241014 -1.5094867 0.30588821 411 8596870 339 21 82 2872
0 -0 0 0 8596870 0 22 62 0
0.93894249 -0.49382371 0.093543015 47 8596870 5 23 142 1065
2.3070302 -1.556668 0.22284679 375 8596870 293 24 77 2792
2.547524 -1.5872674 0.21162604 109 8596870 99 25 72 3009
2.6269932 -1.5066555 0.18453416 384 8596870 353 26 99 3034
0.93574321 -0.49285018 0.054445498 30 8596870 3 27 81 1059
2.3296814 -1.5736095 0.12220523 420 8596870 332 28 54 2814
2.6909101 -1.6779103 0.10747066 38 8596870 38 29 39 3173
2.6773121 -1.5388699 0.076171666 336 8596870 320 30 45 3089
2.8781981 -1.517277 0.048613016 401 8596870 425 31 68 3254
2.4460919 -1.6524267 0.020608682 56 8596870 49 32 61 2952
2.5230081 -1.5745001 -0.0075263758 362 8596870 321 33 73 2974
2.7418954 -1.5764369 -0.037759162 319 8596870 320 34 72 3163
2.921082 -1.5422952 -0.070865691 381 8596870 416 35 77 3304
2.4450941 -1.6534934 -0.087655939 233 8596870 203 36 123 2953
2.5470486 -1.592098 -0.11749076 389 8596870 352 37 83 3006
2.7892635 -1.6052259 -0.15666379 377 8596870 391 38 152 3222
2.9954221 -1.581479 -0.19702923 103 8596870 119 39 60 3393
2.4543755 -1.6625807 -0.19674455 433 8596870 382 40 108 2971
2.6255202 -1.6428062 -0.23466779 368 8596870 355 41 88 3106
2.8182609 -1.6229618 -0.27766564 385 8596870 410 42 127 3264
3.0090945 -1.59078 -0.32300389 342 8596870 400 43 92 3419
2.4791269 -1.6806099 -0.30919471 379 8596870 344 44 111 3011
2.6714199 -1.6730185 -0.35511991 360 8596870 363 45 68 3172
2.8962138 -1.6698726 -0.40853053 196 8596870 223 46 91 3368
3.0733337 -1.6257015 -0.45909041 409 8596870 503 47 133 3507
2.5134077 -1.706924 -0.4263998 397 8596870 374 48 88 3068
2.7365987 -1.7155006 -0.48460591 334 8596870 356 49 56 3266
2.9512987 -1.7036928 -0.5446735 236 8596870 281 50 73 3451
3.1290512 -1.6562929 -0.60084403 351 8596870 453 51 64 3591
2.5712185 -1.7495311 -0.55430919 389 8596870 389 52 78 3159
2.7612171 -1.7328806 -0.61261338 242 8596870 267 53 70 3317
2.9874916 -1.7258373 -0.68239969 340 8596870 421 54 70 3517
3.2136326 -1.7009923 -0.75696015 385 8596870 530 55 57 3714
2.6297429 -1.7915025 -0.69029516 379 8596870 402 56 114 3256
2.8200274 -1.7718475 -0.75513506 255 8596870 298 57 94 3415
3.045553 -1.7601585 -0.83347178 360 8596870 471 58 75 3615
3.2694786 -1.7309172 -0.9155091 362 8596870 526 59 94 3811
2.697161 -1.8420522 -0.83818334 257 8596870 292 60 19 3372
2.8971591 -1.8236971 -0.91293365 357 8596870 448 61 38 3543
3.0950212 -1.7895412 -0.99120486 310 8596870 427 62 63 3710
3.3574803 -1.7757066 -1.0956283 309 8596870 482 63 51 3953
1.561937 -1.069363 0.59085083 82 8694150 32 0 51 1983
0 -0 0 5 8694150 0 1 76 0
0 -0 0 8 8694150 0 2 32 0
0 -0 0 5 8694150 0 3 26 0
0 -0 0 4 8694150 0 4 67 0
0 -0 0 3 8694150 0 5 28 0
0 -0 0 3 8694150 0 6 80 0
0 -0 0 5 8694150 0 7 46 0
1.6965909 -1.1598134 0.47359687 49 8694150 22 8 62 2109
1.9623919 -1.2366483 0.5102393 87 8694150 49 9 39 2375
2.462636 -1.4284627 0.59766191 354 8694150 299 10 50 2909
0.86393464 -0.45961487 0.19589587 22 8694150 2 11 26 998
1.24139 -0.84834564 0.28848174 16 8694150 4 12 83 1531
0 -0 0 8 8694150 0 13 40 0
0.94023806 -0.54563046 0.18667868 17 8694150 2 14 77 1103
0.99417478 -0.52921462 0.18283725 23 8694150 3 15 37 1141
0 -0 0 9 8694150 0 16 47 0
0 -0 0 4 8694150 0 17 72 0
0.95802653 -0.55664641 0.14917776 23 8694150 3 18 61 1118
0.94129205 -0.50180244 0.13337427 47 8694150 5 19 66 1075
2.2821324 -1.5596888 0.32300621 374 8694150 290 20 90 2783
2.4047041 -1.5179632 0.30461013 356 8694150 291 21 79 2860
2.6093688 -1.5177784 0.29433572 254 8694150 234 22 59 3033
0.99916655 -0.53334981 0.099867053 32 8694150 4 23 117 1137
2.3073096 -1.5775458 0.22380459 367 8694150 289 24 62 2804
2.4871337 -1.5709075 0.20740618 231 8694150 201 25 67 2949
2.6073456 -1.5167233 0.18380429 377 8694150 344 26 123 3022
0.89042616 -0.47598389 0.051977713 18 8694150 2 27 79 1011
2.2804089 -1.5607892 0.1201207 421 8694150 323 28 63 2766
2.5183616 -1.5918614 0.10096756 25 8694150 22 29 44 2981
2.6678193 -1.5552686 0.076171666 350 8694150 334 30 33 3089
2.8265157 -1.5122671 0.04789592 381 8694150 392 31 74 3206
2.3863966 -1.6335143 0.020189807 228 8694150 191 32 86 2892
2.5132997 -1.5899513 -0.0075263758 372 8694150 329 33 69 2974
2.7321711 -1.5932312 -0.037759162 326 8694150 327 34 72 3163
2.9009891 -1.554523 -0.070608303 400 8694150 434 35 86 3292
2.4645863 -1.6888053 -0.088724554 194 8694150 173 36 144 2989
2.5473604 -1.6141144 -0.11795979 374 8694150 341 37 59 3018
2.7483072 -1.6041839 -0.15491335 367 8694150 372 38 153 3186
2.9328651 -1.5715383 -0.19354507 395 8694150 439 39 65 3333
2.4342558 -1.6708331 -0.19594988 409 8694150 358 40 107 2959
2.6254952 -1.6652941 -0.23557442 359 8694150 349 41 109 3118
2.777276 -1.622133 -0.27460316 403 8694150 420 42 129 3228
1.2202381 -0.65469903 -0.13141222 77 8694150 15 43 97 1391
2.4589293 -1.6890316 -0.30796245 404 8694150 364 44 96 2999
2.6510367 -1.6829873 -0.35377643 384 8694150 384 45 72 3160
2.8447835 -1.6635605 -0.40270823 370 8694150 408 46 103 3320
3.052819 -1.6389015 -0.45751953 385 8694150 470 47 127 3495
2.4930973 -1.7155774 -0.42473203 439 8694150 410 48 83 3056
2.6959732 -1.7131656 -0.47926426 340 8694150 354 49 55 3230
1.1512624 -0.6740396 -0.21322918 87 8694150 16 50 98 1351
3.1188295 -1.6754612 -0.60084403 387 8694150 500 51 77 3591
2.5215299 -1.7384521 -0.54588664 377 8694150 365 52 109 3111
2.7306311 -1.73713 -0.60818088 353 8694150 383 53 82 3293
2.9666889 -1.7381847 -0.68007129 342 8694150 421 54 81 3505
3.1513882 -1.6928811 -0.74473137 353 8694150 472 55 84 3654
2.5897474 -1.7876189 -0.68266296 367 8694150 381 56 95 3220
1.1014314 -0.70150173 -0.29608369 112 8694150 20 57 69 1339
2.9944007 -1.7551935 -0.82240492 372 8694150 473 58 57 3567
3.2485354 -1.7454325 -0.91262639 392 8694150 566 59 74 3799
2.6380177 -1.8254964 -0.82326907 363 8694150 398 60 28 3312
2.8468168 -1.8164918 -0.90056533 367 8694150 449 61 64 3495
3.0540571 -1.7909495 -0.98158669 309 8694150 418 62 76 3674
3.305886 -1.7744628 -1.0823244 295 8694150 451 63 59 3905
1.5741705 -1.0919849 0.59800184 85 8792290 34 0 59 2007
0 -0 0 8 8792290 0 1 86 0
0 -0 0 3 8792290 0 2 28 0
0 -0 0 0 8792290 0 3 38 0
0 -0 0 2 8792290 0 4 52 0
0 -0 0 5 8792290 0 5 45 0
0 -0 0 5 8792290 0 6 66 0
0 -0 0 0 8792290 0 7 65 0
1.6606041 -1.1502267 0.46551272 62 8792290 27 8 72 2073
1.9448904 -1.242357 0.50766128 36 8792290 20 9 37 2363
2.4234579 -1.4256818 0.59026557 320 8792290 264 10 54 2873
0.97499096 -0.52639794 0.22180593 17 8792290 2 11 28 1130
0 -0 0 5 8792290 0 12 82 0
0 -0 0 5 8792290 0 13 52 0
0 -0 0 0 8792290 0 14 82 0
0.9075371 -0.49026603 0.16745393 19 8792290 2 15 50 1045
0 -0 0 5 8792290 0 16 36 0
0 -0 0 7 8792290 0 17 75 0
0.954593 -0.56251425 0.14917776 17 8792290 2 18 63 1118
0.90677667 -0.49057102 0.12890778 36 8792290 4 19 71 1039
2.2431228 -1.553306 0.3188279 345 8792290 261 20 86 2747
2.3752439 -1.5198278 0.30205396 327 8792290 263 21 92 2836
2.5382855 -1.4973508 0.28734854 315 8792290 277 22 70 2961
0.88025898 -0.47684065 0.088272981 31 8792290 3 23 126 1005
2.2680883 -1.5712383 0.2209312 366 8792290 281 24 73 2768
2.4270422 -1.5538672 0.20318632 302 8792290 252 25 85 2889
2.6083064 -1.5387793 0.18453416 346 8792290 318 26 116 3034
0 -0 0 0 8792290 0 27 74 0
2.2904923 -1.588416 0.12116297 441 8792290 343 28 56 2790
2.3873689 -1.5296425 0.09609022 26 8792290 21 29 51 2837
2.6169198 -1.5471874 0.07498803 347 8792290 321 30 34 3041
2.8171833 -1.5295819 0.04789592 385 8792290 396 31 76 3206
2.3368874 -1.6207713 0.019854706 316 8792290 256 32 88 2844
2.4933951 -1.5988652 -0.0074960068 350 8792290 307 33 84 2962
2.691359 -1.5916415 -0.037329402 308 8792290 301 34 86 3127
2.8492372 -1.5493686 -0.069578782 375 8792290 395 35 73 3244
2.4344721 -1.6902148 -0.088012144 221 8792290 194 36 118 2965
2.5374084 -1.6297144 -0.11795979 360 8792290 328 37 78 3018
2.7177842 -1.608806 -0.1537464 351 8792290 351 38 154 3162
2.8915937 -1.5723361 -0.19145457 420 8792290 456 39 48 3297
2.3944676 -1.6652288 -0.19356591 406 8792290 347 40 122 2923
2.5749676 -1.6554887 -0.23194788 403 8792290 380 41 99 3070
2.7672706 -1.6391435 -0.27460316 382 8792290 398 42 134 3228
1.205706 -0.65646148 -0.13027854 93 8792290 18 43 60 1379
2.4387221 -1.697269 -0.30673018 394 8792290 352 44 101 2987
2.6105769 -1.6798639 -0.34974608 368 8792290 360 45 73 3124
2.8242772 -1.6749086 -0.40125266 419 8792290 459 46 101 3308
3.0218115 -1.6462197 -0.45437777 394 8792290 475 47 110 3471
2.4727757 -1.7240459 -0.4230642 390 8792290 362 48 81 3044
2.6554801 -1.7103975 -0.47392261 321 8792290 327 49 57 3194
1.126727 -0.66899157 -0.20944123 80 8792290 14 50 52 1327
3.0773275 -1.6775783 -0.5948205 365 8792290 462 51 70 3555
2.5011308 -1.747126 -0.54378104 388 8792290 373 52 77 3099
2.7298324 -1.7602433 -0.6103971 373 8792290 408 53 85 3305
2.9357271 -1.7443289 -0.67541462 370 8792290 449 54 82 3481
3.1512563 -1.7178086 -0.74717712 384 8792290 517 55 64 3666
2.5787301 -1.8034756 -0.68266296 388 8792290 402 56 106 3220
1.1560992 -0.74633014 -0.31200454 100 8792290 20 57 48 1411
2.9835746 -1.7735337 -0.82240492 340 8792290 432 58 54 3567
3.1764011 -1.7318751 -0.89532995 354 8792290 492 59 75 3727
2.6077323 -1.8283033 -0.8173033 366 8792290 395 60 49 3288
2.7966733 -1.8087385 -0.88819712 341 8792290 405 61 40 3447
3.0430107 -1.8096551 -0.98158669 313 8792290 423 62 73 3674
3.26456 -1.7781686 -1.0723466 290 8792290 433 63 47 3869
1.5768123 -1.1082098 0.60157734 70 8888480 28 0 57 2019
0 -0 0 5 8888480 0 1 73 0
0 -0 0 4 8888480 0 2 30 0
0 -0 0 0 8888480 0 3 27 0
0 -0 0 6 8888480 0 4 66 0
0 -0 0 3 8888480 0 5 29 0
0 -0 0 0 8888480 0 6 79 0
0 -0 0 0 8888480 0 7 42 0
1.6535152 -1.1603943 0.46551272 54 8888480 23 8 83 2073
1.8585284 -1.2033111 0.48703688 203 8888480 105 9 59 2267
2.344065 -1.3984073 0.57300752 83 8888480 64 10 50 2789
2.5815678 -1.4143152 0.5892579 184 8888480 166 11 23 3002
0 -0 0 8 8888480 0 12 100 0
1.3615957 -0.8823123 0.29459 9 8888480 2 13 38 1649
0 -0 0 6 8888480 0 14 65 0
0.90451181 -0.49582532 0.16745393 23 8888480 2 15 42 1045
0 -0 0 8 8888480 0 16 39 0
1.310509 -0.84963042 0.22534107 12 8888480 3 17 60 1578
0 -0 0 7 8888480 0 18 41 0
0.91418737 -0.50185567 0.1303966 40 8888480 4 19 67 1051
2.2140353 -1.5533493 0.31604233 340 8888480 252 20 84 2723
2.3258307 -1.5084038 0.29694161 365 8888480 284 21 84 2788
2.5495491 -1.5251598 0.28967759 254 8888480 227 22 86 2985
0 -0 0 0 8888480 0 23 104 0
2.2290323 -1.5645096 0.21805783 346 8888480 259 24 59 2732
2.4174621 -1.5687301 0.20318632 327 8888480 273 25 89 2889
2.5988154 -1.5547546 0.18453416 107 8888480 98 26 113 3034
2.7742896 -1.5270827 0.16302803 151 8888480 151 27 49 3171
2.2708933 -1.595548 0.12064183 401 8888480 309 28 48 2778
2.5187538 -1.6357095 0.10178044 68 8888480 61 29 36 3005
2.5970883 -1.5570469 0.074692123 353 8888480 324 30 46 3029
2.744689 -1.5121002 0.046820275 416 8888480 409 31 81 3134
2.3367167 -1.6419789 0.01993848 312 8888480 255 32 88 2856
2.5237842 -1.6402918 -0.007617482 142 8888480 129 33 76 3010
2.6609612 -1.595783 -0.037042897 327 8888480 315 34 94 3103
2.8291724 -1.5610261 -0.069321401 395 8888480 413 35 78 3232
2.3848124 -1.6775165 -0.086587325 309 8888480 263 36 130 2917
2.4972134 -1.6256276 -0.11655272 392 8888480 349 37 63 2982
2.6975849 -1.619283 -0.15316291 385 8888480 382 38 141 3150
2.8714025 -1.5842617 -0.19075774 388 8888480 419 39 89 3285
2.3939929 -1.6867863 -0.19436057 393 8888480 339 40 110 2935
2.5447111 -1.658192 -0.23013462 339 8888480 315 41 89 3046
2.7059126 -1.6253099 -0.269499 388 8888480 389 42 159 3168
1.2121121 -0.66962391 -0.13141222 45 8888480 9 43 71 1391
2.4185064 -1.705322 -0.30549791 433 8888480 383 44 102 2975
2.5602682 -1.669794 -0.34437227 373 8888480 353 45 59 3076
2.8037393 -1.6860681 -0.39979711 384 8888480 418 46 90 3296
2.9804177 -1.6474642 -0.44966513 313 8888480 369 47 143 3435
2.4330318 -1.7186176 -0.41806084 413 8888480 374 48 75 3008
2.6548724 -1.7331461 -0.47570315 317 8888480 326 49 62 3206
2.8889844 -1.7393917 -0.53899157 88 8888480 102 50 43 3415
3.0359182 -1.6792499 -0.58879697 386 8888480 477 51 54 3519
2.4903636 -1.7624397 -0.54378104 423 8888480 406 52 97 3099
2.6696191 -1.7447006 -0.59931576 352 8888480 371 53 93 3245
2.8846359 -1.7380086 -0.66610122 313 8888480 369 54 93 3433
3.0892549 -1.7086815 -0.73494834 361 8888480 470 55 71 3606
2.5580468 -1.8124845 -0.68011886 351 8888480 361 56 110 3208
2.7673497 -1.8106399 -0.7498281 90 8888480 103 57 49 3391
2.9426351 -1.7737234 -0.8141048 350 8888480 437 58 58 3531
3.1555219 -1.7456936 -0.89244723 368 8888480 508 59 101 3715
2.6059411 -1.8510005 -0.82028615 385 8888480 419 60 38 3300
2.7952197 -1.8322208 -0.89128911 255 8888480 306 61 64 3459
3.0219469 -1.8223211 -0.97838062 304 8888480 408 62 67 3662
3.2334056 -1.7870117 -1.0656946 296 8888480 438 63 63 3845
1.5513202 -1.1045761 0.59442633 62 8986620 25 0 45 1995
0 -0 0 0 8986620 0 1 70 0
0 -0 0 3 8986620 0 2 25 0
0 -0 0 0 8986620 0 3 39 0
0 -0 0 0 8986620 0 4 79 0
0 -0 0 0 8986620 0 5 34 0
0 -0 0 3 8986620 0 6 72 0
0 -0 0 3 8986620 0 7 60 0
1.6558943 -1.177294 0.46820739 62 8986620 27 8 78 2085
1.7335273 -1.1375347 0.45610026 131 8986620 59 9 37 2123
2.1646159 -1.309428 0.53109521 17 8986620 11 10 52 2585
2.5214186 -1.4015453 0.57748061 377 8986620 326 11 49 2942
0 -0 0 4 8986620 0 12 90 0
1.3758942 -0.90361309 0.29887757 9 8986620 2 13 45 1673
1.0615727 -0.6424492 0.21308109 13 8986620 2 14 74 1259
0.87039763 -0.48409402 0.16168518 18 8986620 2 15 56 1009
1.6756103 -1.1909593 0.31677547 10 8986620 4 16 37 2080
1.7122377 -1.1250615 0.29559949 12 8986620 5 17 67 2070
0 -0 0 4 8986620 0 18 49 0
0.93189603 -0.51904356 0.13337427 36 8986620 4 19 63 1075
2.2044625 -1.566905 0.31604233 335 8986620 249 20 73 2723
2.3065608 -1.5160927 0.29566351 333 8986620 257 21 85 2776
2.5095079 -1.5221926 0.28618398 326 8986620 284 22 84 2949
0 -0 0 0 8986620 0 23 113 0
2.199894 -1.5642935 0.21614224 329 8986620 242 24 79 2708
2.3577852 -1.5506463 0.19896646 368 8986620 295 25 78 2829
2.4970591 -1.5147609 0.17796537 29 8986620 25 26 107 2926
2.7020888 -1.5090171 0.15932634 377 8986620 362 27 81 3099
2.2415266 -1.5955474 0.11959957 403 8986620 306 28 73 2754
2.4685981 -1.6247594 0.10015467 178 8986620 155 29 43 2957
2.5669839 -1.5604899 0.074100308 332 8986620 300 30 36 3005
2.7248857 -1.5230588 0.046641007 408 8986620 398 31 58 3122
2.3070464 -1.6423672 0.01977093 325 8986620 261 32 83 2832
2.4234805 -1.5963377 -0.0073441635 30 8986620 26 33 71 2902
2.640867 -1.6058459 -0.036899645 342 8986620 327 34 86 3091
2.7986038 -1.5666358 -0.068806633 392 8986620 404 35 82 3208
2.34517 -1.6712347 -0.08551871 326 8986620 271 36 123 2881
2.4771829 -1.6343163 -0.11608369 358 8986620 316 37 70 2970
2.6671214 -1.6233413 -0.15199597 370 8986620 361 38 137 3126
2.8616276 -1.6018504 -0.19075774 384 8986620 415 39 69 3285
2.3543613 -1.6805743 -0.19197659 415 8986620 349 40 106 2899
2.5045342 -1.6539929 -0.2274147 404 8986620 366 41 87 3010
2.6856773 -1.6356633 -0.26847818 393 8986620 391 42 148 3156
2.8962009 -1.623262 -0.31506816 367 8986620 409 43 61 3335
2.3982842 -1.7131913 -0.30426565 400 8986620 351 44 97 2963
2.579818 -1.705198 -0.34840262 350 8986620 339 45 81 3112
2.7526612 -1.6784352 -0.39397481 367 8986620 387 46 104 3248
2.970253 -1.6657207 -0.44966513 79 8986620 93 47 161 3435
2.4127767 -1.7265983 -0.41639301 400 8986620 359 48 80 2996
2.6243939 -1.7363075 -0.47214207 314 8986620 318 49 58 3182
2.8175738 -1.72004 -0.52762777 336 8986620 375 50 34 3343
2.9946055 -1.6804771 -0.58277351 376 8986620 457 51 78 3483
2.4506991 -1.7570363 -0.53746408 368 8986620 346 52 87 3063
2.6490312 -1.7545358 -0.59709948 350 8986620 366 53 73 3233
2.8839633 -1.7618127 -0.66842955 72 8986620 85 54 124 3445
3.0582221 -1.7161064 -0.73005688 397 8986620 509 55 57 3582
2.5278234 -1.8144695 -0.67503071 357 8986620 362 56 113 3184
2.6879127 -1.7823139 -0.73125374 333 8986620 364 57 57 3307
2.9117696 -1.7795674 -0.8085714 357 8986620 439 58 39 3507
3.1244352 -1.7536201 -0.88668174 384 8986620 524 59 81 3691
2.5567956 -1.8397998 -0.80835474 372 8986620 393 60 35 3252
1.132403 -0.75224566 -0.36254519 90 8986620 18 61 99 1407
2.981111 -1.8227324 -0.96876246 321 8986620 422 62 80 3626
3.1922092 -1.789901 -1.0557168 307 8986620 446 63 70 3809
1.5166426 -1.0939704 0.58369982 32 9084660 12 0 54 1959
0 -0 0 0 9084660 0 1 69 0
0 -0 0 3 9084660 0 2 35 0
0 -0 0 0 9084660 0 3 26 0
0 -0 0 4 9084660 0 4 80 0
0 -0 0 3 9084660 0 5 23 0
0 -0 0 4 9084660 0 6 75 0
0 -0 0 0 9084660 0 7 44 0
1.6296623 -1.173764 0.46281797 83 9084660 35 8 76 2061
1.6972381 -1.1286807 0.44836611 150 9084660 65 9 36 2087
1.9563202 -1.1998827 0.48178655 12 9084660 6 10 45 2345
2.5127714 -1.41699 0.57748061 390 9084660 337 11 36 2942
1.2967081 -0.93364441 0.30657074 10 9084660 3 12 98 1627
0 -0 0 9 9084660 0 13 47 0
0 -0 0 5 9084660 0 14 86 0
0.93962348 -0.53017062 0.17514558 18 9084660 2 15 43 1093
1.9185119 -1.3814009 0.36429179 11 9084660 6 16 34 2392
2.3182225 -1.5436848 0.40184394 12 9084660 10 17 66 2814
0 -0 0 7 9084660 0 18 41 0
0.84575915 -0.47789022 0.12146364 26 9084660 3 19 85 979
2.1754622 -1.5664725 0.3132568 302 9084660 220 20 87 2699
2.3170755 -1.5434465 0.29821971 324 9084660 254 21 83 2800
2.3983865 -1.474996 0.27453867 344 9084660 276 22 59 2829
0.93375665 -0.5282793 0.094597019 19 9084660 2 23 117 1077
2.2096655 -1.5917455 0.21805783 353 9084660 264 24 64 2732
2.3482261 -1.5650842 0.19896646 360 9084660 288 25 86 2829
2.5795407 -1.586529 0.18453416 44 9084660 41 26 101 3034
2.6823518 -1.5196611 0.15870939 395 9084660 377 27 87 3087
2.2122459 -1.5952469 0.1185573 375 9084660 280 28 66 2730
2.3987181 -1.5999465 0.097716004 276 9084660 229 29 47 2885
2.5675731 -1.5825056 0.074396215 336 9084660 305 30 47 3017
2.7050514 -1.5338314 0.046461731 367 9084660 355 31 59 3110
2.2482619 -1.621397 0.019352054 335 9084660 257 32 101 2772
2.2938726 -1.5312296 -0.0069797393 26 9084660 20 33 76 2758
2.5798938 -1.5905344 -0.03618338 321 9084660 295 34 75 3031
2.7576411 -1.5660051 -0.068034492 391 9084660 394 35 62 3172
2.3154209 -1.6715512 -0.084806308 332 9084660 271 36 127 2857
2.4372041 -1.6294916 -0.11467662 371 9084660 320 37 67 2934
2.6367106 -1.6270872 -0.15082902 348 9084660 335 38 126 3102
2.820493 -1.6016322 -0.18866724 345 9084660 364 39 99 3249
2.3245997 -1.6809565 -0.19038728 376 9084660 311 40 111 2875
2.4545615 -1.6427088 -0.22378814 375 9084660 329 41 98 2962
2.6552439 -1.6395479 -0.26643652 403 9084660 395 42 144 3132
2.8446457 -1.6173836 -0.31053343 410 9084660 442 43 51 3287
2.3587167 -1.7068812 -0.30056888 388 9084660 333 44 100 2927
2.5296772 -1.6944504 -0.34302881 344 9084660 323 45 66 3064
2.7220476 -1.6827668 -0.39106366 355 9084660 369 46 107 3224
1.1607244 -0.66032976 -0.17633156 79 9084660 14 47 140 1347
2.3925159 -1.7343956 -0.41472524 398 9084660 355 48 80 2984
2.5939772 -1.7391607 -0.46858096 359 9084660 358 49 66 3158
2.7565875 -1.706115 -0.51815796 364 9084660 393 50 68 3283
2.9842379 -1.69882 -0.58277351 399 9084660 485 51 65 3483
2.439872 -1.7720405 -0.53746408 386 9084660 362 52 102 3063
2.6088388 -1.7510394 -0.5904507 347 9084660 355 53 71 3197
1.1817651 -0.73193502 -0.27493897 105 9084660 21 54 103 1417
3.0272148 -1.7232152 -0.72516531 360 9084660 455 55 50 3558
2.4787033 -1.8023585 -0.66485435 390 9084660 384 56 111 3136
2.6769261 -1.7987731 -0.73125374 326 9084660 357 57 63 3307
2.8809443 -1.7850997 -0.80303794 360 9084660 436 58 45 3483
3.0933704 -1.7612312 -0.88091624 369 9084660 497 59 79 3667
2.5548518 -1.8623 -0.81133759 321 9084660 342 60 40 3264
1.0700551 -0.72033054 -0.34399277 135 9084660 24 61 33 1335
2.9305565 -1.8166193 -0.95593822 332 9084660 426 62 66 3578
3.1611223 -1.7980531 -1.0490648 339 9084660 485 63 41 3785
1.5838937 -1.1573204 0.61230379 28 9182860 12 0 69 2055
0 -0 0 0 9182860 0 1 72 0
0 -0 0 0 9182860 0 2 38 0
0 -0 0 0 9182860 0 3 36 0
0 -0 0 2 9182860 0 4 60 0
0 -0 0 0 9182860 0 5 31 0
0 -0 0 6 9182860 0 6 69 0
0 -0 0 0 9182860 0 7 52 0
1.4996256 -1.0941422 0.42778662 112 9182860 41 8 45 1905
1.6902807 -1.1390735 0.44836611 79 9182860 34 9 27 2087
1.5599679 -0.9700079 0.38563472 33 9182860 11 10 44 1877
2.4733889 -1.4148539 0.57041419 393 9182860 332 11 41 2906
0 -0 0 4 9182860 0 12 88 0
1.1395627 -0.7685833 0.2495708 9 9182860 2 13 43 1397
0 -0 0 9 9182860 0 14 75 0
0.97747338 -0.55946165 0.18283725 21 9182860 3 15 36 1141
2.1782939 -1.5888395 0.41546321 79 9182860 59 16 24 2728
2.2988617 -1.5512366 0.4001303 43 9182860 34 17 67 2802
2.161974 -1.3465415 0.34292206 52 9182860 34 18 39 2570
0.97710979 -0.56004626 0.14081843 20 9182860 3 19 72 1135
2.1369214 -1.5587198 0.30907851 320 9182860 227 20 99 2663
2.2976718 -1.5509591 0.29694161 327 9182860 254 21 88 2788
2.4095607 -1.5023222 0.27686775 343 9182860 280 22 72 2853
0 -0 0 8 9182860 0 23 104 0
2.180532 -1.5911719 0.21614224 346 9182860 254 24 94 2708
2.3385787 -1.5794632 0.19896646 379 9182860 304 25 72 2829
2.5087743 -1.564302 0.18015498 43 9182860 38 26 102 2962
2.6418052 -1.5181775 0.15685856 392 9182860 365 27 95 3051
2.1830542 -1.5946478 0.11751504 394 9182860 289 28 66 2706
2.3689833 -1.6012026 0.096903108 297 9182860 243 29 45 2861
2.5272939 -1.5791595 0.073508494 175 9182860 155 30 51 2981
2.6955891 -1.5504004 0.046461731 411 9182860 398 31 78 3110
2.238271 -1.6351615 0.019352054 338 9182860 260 32 82 2772
2.4235873 -1.6394042 -0.0074049006 32 9182860 27 33 56 2926
2.570086 -1.6063344 -0.03618338 315 9182860 290 34 97 3031
2.7479804 -1.5828962 -0.068034492 394 9182860 397 35 79 3172
2.2954388 -1.6786464 -0.084450096 310 9182860 251 36 122 2845
2.4073057 -1.630964 -0.11373857 374 9182860 316 37 53 2910
2.6063547 -1.6305215 -0.14966205 402 9182860 381 38 135 3078
2.77947 -1.6009703 -0.18657675 360 9182860 372 39 66 3213
2.2949228 -1.6810371 -0.18879795 391 9182860 318 40 96 2851
2.454339 -1.6644548 -0.22469479 370 9182860 327 41 113 2974
2.6451337 -1.6558093 -0.26643652 382 9182860 374 42 135 3132
2.8346682 -1.6348076 -0.31053343 427 9182860 462 43 58 3287
2.338572 -1.7142649 -0.29933661 389 9182860 331 44 99 2915
2.4994996 -1.6965466 -0.3403419 352 9182860 326 45 77 3040
2.6712985 -1.6741354 -0.38524139 395 9182860 399 46 111 3176
1.1772592 -0.67933142 -0.17947333 60 9182860 11 47 107 1371
2.3626719 -1.7349757 -0.41138962 404 9182860 354 48 104 2960
2.5538089 -1.7350373 -0.46323934 324 9182860 316 49 59 3122
2.7360296 -1.7166991 -0.51626396 349 9182860 374 50 58 3271
2.9225304 -1.6875192 -0.57273436 373 9182860 437 51 91 3423
2.4099209 -1.772976 -0.53325278 402 9182860 371 52 98 3039
2.6273007 -1.7869114 -0.59709948 380 9182860 397 53 83 3233
1.1274035 -0.7078737 -0.26329723 73 9182860 13 54 107 1357
2.9962363 -1.7300086 -0.72027385 384 9182860 480 55 65 3534
2.4675975 -1.8175336 -0.66485435 370 9182860 364 56 103 3136
2.6464918 -1.8019913 -0.72594684 337 9182860 364 57 79 3283
2.8501611 -1.7903211 -0.79750448 339 9182860 406 58 80 3459
3.0724185 -1.7743531 -0.87803352 346 9182860 463 59 86 3655
2.5246754 -1.8641329 -0.80537188 355 9182860 372 60 52 3240
1.0847723 -0.7399503 -0.35017693 76 9182860 14 61 41 1359
2.8997726 -1.822261 -0.94952613 333 9182860 420 62 49 3554
3.1300564 -1.8058918 -1.0424129 329 9182860 465 63 43 3761
1.5399332 -1.1397585 0.59800184 17 9279720 7 0 45 2007
0 -0 0 0 9279720 0 1 72 0
0 -0 0 3 9279720 0 2 33 0
0 -0 0 3 9279720 0 3 31 0
0 -0 0 8 9279720 0 4 74 0
0 -0 0 0 9279720 0 5 30 0
0 -0 0 5 9279720 0 6 92 0
0 -0 0 0 9279720 0 7 46 0
1.6715597 -1.2353745 0.47898629 126 9279720 58 8 70 2133
1.6929383 -1.1560326 0.45094419 70 9279720 31 9 48 2099
1.6533358 -1.0421866 0.41028902 28 9279720 11 10 43 1997
2.4341283 -1.4122887 0.56334782 263 9279720 216 11 49 2870
1.2188023 -0.90046591 0.29074287 11 9279720 3 12 87 1543
0 -0 0 7 9279720 0 13 47 0
0 -0 0 4 9279720 0 14 59 0
0 -0 0 0 9279720 0 15 44 0
2.0921929 -1.5457939 0.40084282 240 9279720 166 16 38 2632
2.1128232 -1.4446466 0.36928517 99 9279720 66 17 78 2586
2.0933347 -1.3216867 0.3333149 277 9279720 173 18 39 2498
2.5383658 -1.4756706 0.36712044 70 9279720 61 19 56 2959
2.136903 -1.5788852 0.31047127 326 9279720 234 20 83 2675
2.2684155 -1.551556 0.29438546 348 9279720 266 21 87 2764
