# .PCD v0.7 - Point Cloud Data file format
VERSION 0.7
FIELDS x y z intensity t reflectivity ring noise range
SIZE 4 4 4 4 4 2 1 2 4
TYPE F F F F U U U U U
COUNT 1 1 1 1 1 1 1 1 1
WIDTH 769
HEIGHT 1
VIEWPOINT 0 0 0 1 0 0 0
POINTS 769
DATA ascii
-0.2449237 -1.3702489 0.0097179152 293 26940660 57 32 27 1392
-0.19826247 -1.4000269 -0.0035784449 358 26940660 72 33 24 1414
-0.12595262 -1.2003238 -0.014408886 224 26940660 33 34 44 1207
-0.076690912 -1.117113 -0.024022266 237 26940660 30 35 39 1120
-0.2456674 -1.3705425 -0.041349381 308 26940660 60 36 58 1393
-0.19688374 -1.3829879 -0.054641418 309 26940660 60 37 15 1398
-0.13123347 -1.2456228 -0.060973428 209 26940660 33 38 63 1254
-0.077721722 -1.1324174 -0.066024825 233 26940660 30 39 45 1137
-0.24312791 -1.3502678 -0.091054782 365 26940660 69 40 3 1375
-0.20104496 -1.4076397 -0.10773866 334 26940660 68 41 20 1426
-0.14696048 -1.3911698 -0.11943706 351 26940660 69 42 103 1404
-0.097215429 -1.4053128 -0.13367958 182 26940660 36 43 38 1415
-0.25626719 -1.4203968 -0.14900084 293 26940660 62 44 14 1451
-0.20176217 -1.4086213 -0.16031894 393 26940660 81 45 10 1432
-0.1492276 -1.4055861 -0.17272787 325 26940660 66 46 85 1424
-0.094132774 -1.3559386 -0.17947333 421 26940660 79 47 116 1371
-0.25366366 -1.3992566 -0.19957958 324 26940660 67 48 6 1436
-0.20618466 -1.4350357 -0.21752365 324 26940660 70 49 10 1466
-0.15662383 -1.4679301 -0.2359568 265 26940660 59 50 69 1495
-0.099746421 -1.4310164 -0.24344975 248 26940660 53 51 71 1455
-0.25041351 -1.3743571 -0.24899168 331 26940660 67 52 34 1419
-0.20604846 -1.4289497 -0.27130812 332 26940660 72 53 31 1469
-0.1516715 -1.4172945 -0.28192401 236 26940660 50 54 96 1453
-0.096778341 -1.3887842 -0.28982157 247 26940660 50 55 63 1422
-0.26427558 -1.4458574 -0.31885871 119 26940660 27 56 55 1504
-0.20381083 -1.4082116 -0.32261845 156 26940660 33 57 37 1459
-0.15590048 -1.4541736 -0.34653059 259 26940660 59 58 78 1503
-0.10263257 -1.4709423 -0.3649064 230 26940660 53 59 56 1519
-0.25449657 -1.3832093 -0.36092588 396 26940660 84 60 1 1452
-0.20922077 -1.4370973 -0.38728175 351 26940660 79 61 1 1503
-0.15086189 -1.4046314 -0.39167285 236 26940660 51 62 65 1466
-0.096855141 -1.3965641 -0.40382755 268 26940660 57 63 63 1457
-0.25914729 -1.3994859 0.44425547 188 27038130 42 0 11 1491
-0.20290661 -1.3893782 0.42144209 245 27038130 53 1 23 1466
-0.15226071 -1.411492 0.41108534 356 27038130 78 2 26 1478
-0.096112579 -1.3748834 0.38499269 374 27038130 77 3 13 1431
-0.2655744 -1.4382603 0.39509833 210 27038130 48 4 13 1515
-0.19767374 -1.3494288 0.35390431 377 27038130 75 5 1 1409
-0.15143807 -1.3988287 0.35049209 372 27038130 78 6 40 1450
-0.098049968 -1.3824791 0.33130521 404 27038130 82 7 29 1425
-0.26672885 -1.4460671 0.3388609 206 27038130 47 8 9 1509
-0.20147057 -1.3790401 0.30657327 380 27038130 77 9 1 1427
-0.15042996 -1.382526 0.29194829 422 27038130 85 10 14 1421
-0.10126133 -1.4103171 0.28304791 422 27038130 88 11 1 1442
-0.2660957 -1.4439059 0.28169838 197 27038130 44 12 27 1495
-0.21462581 -1.4651529 0.26886475 263 27038130 60 13 1 1505
-0.15624437 -1.4334042 0.24760734 396 27038130 85 14 48 1463
-0.093700066 -1.3005586 0.21168099 257 27038130 45 15 29 1321
-0.26727644 -1.4501711 0.22722548 240 27038130 53 16 1 1492
-0.20775679 -1.4160208 0.20649125 250 27038130 52 17 10 1446
-0.1310204 -1.1959891 0.1619873 290 27038130 43 18 44 1214
-0.085931383 -1.1826493 0.14826256 252 27038130 36 19 49 1195
-0.26556805 -1.4407606 0.17119443 189 27038130 41 20 27 1475
-0.20691463 -1.4087402 0.15251808 350 27038130 72 21 9 1432
-0.1302941 -1.1842039 0.11616217 316 27038130 45 22 53 1197
-0.09054447 -1.2368786 0.1093531 247 27038130 38 23 90 1245
-0.26842752 -1.4547073 0.11844722 203 27038130 45 24 1 1484
-0.19996597 -1.3589568 0.096845821 349 27038130 66 25 1 1377
-0.14523454 -1.3195693 0.080893353 222 27038130 39 26 84 1330
-0.086660191 -1.1742474 0.060614958 248 27038130 34 27 57 1179
-0.25411296 -1.3733699 0.060711768 345 27038130 67 28 1 1398
-0.2054895 -1.3931179 0.047723342 317 27038130 63 29 1 1409
-0.148801 -1.3403555 0.033264998 197 27038130 36 30 20 1349
-0.0880097 -1.186608 0.017777961 250 27038130 35 31 50 1190
-0.24895906 -1.3451216 0.0095503647 290 27038130 54 32 21 1368
-0.20684913 -1.398784 -0.0035784449 312 27038130 62 33 3 1414
-0.13596614 -1.22338 -0.014695394 192 27038130 29 34 46 1231
-0.086229287 -1.1525128 -0.024794411 228 27038130 30 35 48 1156
-0.25626099 -1.3808028 -0.041705586 293 27038130 58 36 64 1405
-0.20360307 -1.3698932 -0.054172389 316 27038130 61 37 1 1386
-0.15083443 -1.3520013 -0.066224732 243 27038130 45 38 81 1362
-0.090923838 -1.2155439 -0.070902653 236 27038130 35 39 37 1221
-0.25360253 -1.3605214 -0.091849439 350 27038130 67 40 31 1387
-0.20438486 -1.370875 -0.10501875 365 27038130 70 41 31 1390
-0.15416478 -1.3783596 -0.11841623 363 27038130 70 42 111 1392
-0.10404133 -1.3808647 -0.13141222 266 27038130 51 43 37 1391
-0.271552 -1.4539987 -0.15269762 269 27038130 59 44 17 1487
-0.21216467 -1.4191504 -0.1616624 415 27038130 87 45 1 1444
-0.15385874 -1.3691334 -0.16836116 328 27038130 63 46 87 1388
-0.10245088 -1.3553355 -0.17947333 421 27038130 79 47 87 1371
-0.26881894 -1.432713 -0.20458296 289 27038130 63 48 27 1472
-0.21674575 -1.4454795 -0.21930419 348 27038130 76 49 16 1478
-0.16296901 -1.4433918 -0.23216885 286 27038130 62 50 79 1471
-0.10942015 -1.4421744 -0.24545759 257 27038130 55 51 74 1467
-0.25884169 -1.3727946 -0.24899168 351 27038130 71 52 9 1419
-0.20954815 -1.3926716 -0.26465932 399 27038130 82 53 18 1433
-0.16566268 -1.4631261 -0.29123738 161 27038130 36 54 85 1501
-0.1097409 -1.4467366 -0.30205032 125 27038130 27 55 46 1482
-0.29057685 -1.5363921 -0.33921137 138 27038130 35 56 53 1600
-0.22293165 -1.476365 -0.3385393 89 27038130 21 57 13 1531
-0.15955648 -1.4067804 -0.33546373 355 27038130 75 58 91 1455
-0.10812786 -1.4238242 -0.35337546 382 27038130 83 59 93 1471
-0.26515239 -1.3930402 -0.36390877 351 27038130 75 60 1 1464
-0.21107152 -1.389933 -0.37491345 360 27038130 76 61 1 1455
-0.169921 -1.4955982 -0.41732126 127 27038130 31 62 50 1562
-0.1132369 -1.4994178 -0.43376127 125 27038130 31 63 35 1565
-0.27419379 -1.431621 0.45498195 192 27136020 45 0 2 1527
-0.22008109 -1.444919 0.43869072 215 27136020 50 1 1 1526
-0.16222511 -1.4219835 0.41442302 341 27136020 76 2 11 1490
-0.1045469 -1.3742678 0.38499269 339 27136020 69 3 13 1431
-0.26787412 -1.4024667 0.38570985 219 27136020 48 4 20 1479
-0.20770398 -1.3596727 0.35691842 334 27136020 67 5 1 1421
-0.16001828 -1.3978733 0.35049209 357 27136020 75 6 63 1450
-0.10653085 -1.3818514 0.33130521 375 27136020 76 7 15 1425
-0.27559671 -1.4444033 0.3388609 179 27136020 41 8 22 1509
-0.21169373 -1.389364 0.30915132 375 27136020 78 9 1 1439
-0.16293602 -1.4165782 0.29934457 384 27136020 82 10 16 1457
-0.10808363 -1.3862073 0.278337 406 27136020 82 11 7 1418
-0.27274334 -1.4306694 0.27943724 226 27136020 50 12 31 1483
-0.22182882 -1.4521368 0.26672098 207 27136020 46 13 1 1493
-0.16368295 -1.4206693 0.2455764 392 27136020 83 14 66 1451
-0.095212832 -1.2172972 0.19822058 232 27136020 35 15 35 1237
-0.26950589 -1.4135534 0.22174282 236 27136020 50 16 1 1456
-0.21644141 -1.4147193 0.20649125 204 27136020 43 17 14 1446
-0.13288595 -1.1479074 0.15558252 271 27136020 37 18 37 1166
-0.095993653 -1.2177111 0.15272905 260 27136020 39 19 43 1231
-0.28110069 -1.4742279 0.17537273 200 27136020 46 20 8 1511
-0.21555461 -1.407444 0.15251808 357 27136020 73 21 15 1432
-0.13204169 -1.1359283 0.11150404 303 27136020 40 22 34 1149
-0.096240409 -1.2124676 0.10724509 252 27136020 38 23 62 1221
-0.27510568 -1.4412832 0.11748943 180 27136020 39 24 22 1472
-0.21011586 -1.3695362 0.097689785 328 27136020 63 25 1 1389
-0.16024561 -1.3781415 0.084542684 268 27136020 52 26 56 1390
-0.094818965 -1.1856396 0.061231907 229 27136020 32 27 50 1191
-0.26929557 -1.4071097 0.062275156 326 27136020 67 28 1 1434
-0.21585652 -1.4036847 0.04812979 286 27136020 58 29 1 1421
-0.15841925 -1.3513319 0.033560906 267 27136020 49 30 35 1361
-0.093367137 -1.1621252 0.017419413 227 27136020 31 31 41 1166
-0.2617203 -1.3671402 0.0097179152 264 27136020 51 32 22 1392
-0.21359979 -1.3856287 -0.0035480761 300 27136020 59 33 1 1402
-0.14906438 -1.270192 -0.015268407 183 27136020 30 34 59 1279
-0.093299352 -1.151962 -0.024794411 248 27136020 33 35 36 1156
-0.26472861 -1.3792044 -0.041705586 276 27136020 55 36 66 1405
-0.21384029 -1.3804677 -0.054641418 324 27136020 63 37 7 1398
-0.16193132 -1.3748573 -0.067391686 314 27136020 60 38 96 1386
-0.09644679 -1.1910816 -0.069508985 222 27136020 32 39 28 1197
-0.26421204 -1.370697 -0.092644103 325 27136020 64 40 18 1399
-0.21646665 -1.3932427 -0.10683202 353 27136020 71 41 22 1414
-0.1654231 -1.4011357 -0.12045789 350 27136020 70 42 124 1416
-0.11251219 -1.3802003 -0.13141222 356 27136020 69 43 43 1391
-0.28046846 -1.4523051 -0.15269762 298 27136020 66 44 27 1487
-0.22086841 -1.4178219 -0.1616624 344 27136020 72 45 2 1444
-0.16786788 -1.4154776 -0.17418344 331 27136020 68 46 111 1436
-0.10979564 -1.3428242 -0.17790245 315 27136020 58 47 83 1359
-0.28213102 -1.4543686 -0.20791854 269 27136020 60 48 9 1496
-0.23293798 -1.4910221 -0.22642639 366 27136020 85 49 1 1526
-0.17182243 -1.4423647 -0.23216885 328 27136020 71 50 79 1471
-0.12116936 -1.4768494 -0.25148106 234 27136020 53 51 52 1503
-0.27856079 -1.4291587 -0.25951988 248 27136020 54 52 37 1479
-0.21991576 -1.403011 -0.26687559 321 27136020 67 53 27 1445
-0.17324096 -1.4503932 -0.28890905 244 27136020 54 54 94 1489
-0.12437855 -1.5162888 -0.31672481 96 27136020 23 55 34 1554
-0.26849866 -1.3734493 -0.3035942 252 27136020 52 56 40 1432
-0.22834964 -1.4518478 -0.33323237 147 27136020 33 57 21 1507
-0.1709595 -1.4289629 -0.34099716 294 27136020 64 58 74 1479
-0.11590892 -1.4115244 -0.35049275 378 27136020 81 59 64 1459
-0.28715533 -1.4598157 -0.3818059 265 27136020 63 60 1 1536
-0.21959601 -1.3886118 -0.37491345 339 27136020 72 61 1 1455
-0.17496695 -1.4600824 -0.4077031 236 27136020 55 62 88 1526
-0.11680223 -1.4297452 -0.41380545 77 27136020 17 63 36 1493
-0.28519663 -1.4411485 0.45855746 184 27233100 44 0 5 1539
-0.22534214 -1.4208384 0.43179128 207 27233100 47 1 13 1502
-0.16681691 -1.3866293 0.40441009 387 27233100 82 2 15 1454
-0.11297727 -1.3736004 0.38499269 380 27233100 78 3 1 1431
-0.28320408 -1.434893 0.39509833 182 27233100 42 4 1 1515
-0.21786729 -1.3698437 0.35993251 344 27233100 71 5 1 1433
-0.16859245 -1.396865 0.35049209 366 27233100 77 6 54 1450
-0.11403925 -1.3695408 0.32851529 397 27233100 79 7 28 1413
-0.28219217 -1.4312124 0.3361662 194 27233100 43 8 14 1497
-0.21654195 -1.3648889 0.30399522 362 27233100 73 9 1 1415
-0.17021139 -1.4038931 0.29687914 380 27233100 79 10 28 1445
-0.11658721 -1.3855181 0.278337 398 27233100 80 11 9 1418
-0.28151664 -1.428969 0.27943724 224 27233100 49 12 20 1483
-0.22702572 -1.4274275 0.26243344 220 27233100 47 13 12 1469
-0.16669394 -1.3726758 0.23745257 375 27233100 74 14 48 1403
-0.10268024 -1.2166901 0.19822058 249 27233100 38 15 22 1237
-0.28505215 -1.446782 0.22722548 197 27233100 44 16 1 1492
-0.23072249 -1.4485521 0.2116321 209 27233100 46 17 33 1482
-0.14712723 -1.2060964 0.16358849 273 27233100 41 18 32 1226
-0.10245501 -1.2052346 0.15124023 269 27233100 40 19 46 1219
-0.2832284 -1.4373932 0.17119443 198 27233100 43 20 16 1475
-0.22794378 -1.4296608 0.15507425 322 27233100 68 21 1 1456
-0.14481629 -1.1825159 0.11616217 287 27233100 41 22 45 1197
-0.10265921 -1.1999441 0.10619108 257 27233100 38 23 80 1209
-0.28625882 -1.4513037 0.11844722 188 27233100 41 24 1 1484
-0.22417869 -1.4036826 0.10022171 339 27233100 69 25 15 1425
-0.16869871 -1.3771324 0.084542684 345 27233100 67 26 91 1390
-0.10209213 -1.1850355 0.061231907 266 27233100 38 27 51 1191
-0.28722727 -1.4524747 0.06435968 263 27233100 58 28 1 1482
-0.2244653 -1.4023339 0.04812979 312 27233100 63 29 1 1421
-0.17699699 -1.4336762 0.03563226 310 27233100 65 30 7 1445
-0.10049605 -1.1615305 0.017419413 231 27233100 31 31 45 1166
-0.27941793 -1.412595 0.010053015 272 27233100 56 32 17 1440
-0.21829584 -1.360595 -0.0034873388 298 27233100 57 33 3 1378
-0.17010035 -1.3764305 -0.016557686 258 27233100 50 34 45 1387
-0.09932404 -1.139416 -0.024537031 230 27233100 30 35 43 1144
-0.27551952 -1.3893197 -0.042061791 309 27233100 62 36 39 1417
-0.22612306 -1.4028056 -0.055579465 323 27233100 65 37 17 1422
-0.17183925 -1.3857327 -0.067975163 331 27233100 65 38 95 1398
-0.10479346 -1.2024021 -0.070205823 214 27233100 31 39 37 1209
-0.27729431 -1.3925363 -0.094233423 338 27233100 68 40 18 1423
-0.22501135 -1.3918883 -0.10683202 337 27233100 67 41 23 1414
-0.16959304 -1.3644987 -0.11739541 335 27233100 64 42 112 1380
-0.11993516 -1.3675834 -0.13027854 387 27233100 73 43 57 1379
-0.27302772 -1.3686155 -0.1440718 269 27233100 53 44 50 1403
-0.2276561 -1.4046689 -0.16031894 304 27233100 62 45 13 1432
-0.17802526 -1.4262406 -0.17563902 443 27233100 93 46 82 1448
-0.12011746 -1.3658272 -0.18104421 342 27233100 65 47 85 1383
-0.29104954 -1.4526101 -0.20791854 292 27233100 65 48 18 1496
-0.23066038 -1.419284 -0.21574311 350 27233100 74 49 16 1454
-0.18361709 -1.4647985 -0.2359568 364 27233100 81 50 75 1495
-0.1291891 -1.4642931 -0.24947324 246 27233100 55 51 71 1491
-0.2756685 -1.3695149 -0.24899168 314 27233100 63 52 23 1419
-0.23231584 -1.424915 -0.27130812 249 27233100 54 53 13 1469
-0.1762657 -1.4025826 -0.27959567 236 27233100 49 54 85 1441
-0.12955087 -1.4686863 -0.30694181 156 27233100 35 55 47 1506
-0.30012658 -1.4867294 -0.32903504 129 27233100 31 56 39 1552
-0.23725371 -1.4504193 -0.33323237 259 27233100 59 57 2 1507
-0.18847349 -1.4973989 -0.35759744 236 27233100 57 58 59 1551
-0.12456769 -1.4107866 -0.35049275 332 27233100 71 59 109 1459
-0.2776005 -1.3668997 -0.35794306 389 27233100 81 60 1 1440
-0.23940027 -1.4558851 -0.39346591 225 27233100 52 61 1 1527
-0.16945945 -1.3442515 -0.37564257 268 27233100 53 62 72 1406
-0.12759137 -1.4519728 -0.42045739 115 27233100 26 63 45 1517
-0.28486332 -1.3944788 0.44425547 178 27330160 40 0 6 1491
-0.2377959 -1.4421095 0.43869072 200 27330160 47 1 13 1526
-0.17532197 -1.3855797 0.40441009 353 27330160 75 2 25 1454
-0.1214034 -1.3728813 0.38499269 331 27330160 68 3 17 1431
-0.29200307 -1.4331284 0.39509833 164 27330160 38 4 6 1515
-0.23763707 -1.4372394 0.37801704 239 27330160 54 5 1 1505
-0.17716028 -1.3958043 0.35049209 369 27330160 78 6 62 1450
-0.12244044 -1.3688153 0.32851529 385 27330160 77 7 38 1413
-0.28630379 -1.4065369 0.33077675 205 27330160 44 8 30 1473
-0.2344496 -1.4213521 0.31688547 373 27330160 81 9 1 1475
-0.17882231 -1.4028224 0.29687914 377 27330160 79 10 1 1445
-0.12508638 -1.3847766 0.278337 396 27330160 80 11 1 1418
-0.2926282 -1.4387634 0.28169838 208 27330160 46 12 27 1495
-0.24155812 -1.4609541 0.26886475 222 27330160 50 13 4 1505
-0.17810889 -1.3950903 0.24151447 328 27330160 67 14 50 1427
-0.11121226 -1.2278337 0.2001435 201 27330160 31 15 32 1249
-0.28919607 -1.4217616 0.22357036 194 27330160 42 16 1 1468
-0.23960629 -1.4471092 0.2116321 203 27330160 45 17 14 1482
-0.15452492 -1.205171 0.16358849 211 27330160 32 18 45 1226
-0.10876688 -1.1927252 0.14975139 253 27330160 37 19 51 1207
-0.29204273 -1.4356283 0.17119443 195 27330160 42 20 32 1475
-0.23671173 -1.4282352 0.15507425 241 27330160 51 21 18 1456
-0.15969187 -1.2408334 0.12198484 256 27330160 40 22 56 1257
-0.11002 -1.1992916 0.10619108 275 27330160 40 23 72 1209
-0.29754516 -1.4612411 0.11940502 202 27330160 45 24 5 1496
-0.2347476 -1.4140892 0.10106567 357 27330160 74 25 10 1437
-0.18326272 -1.4235903 0.087462142 344 27330160 71 26 99 1438
-0.11046332 -1.1963201 0.061848853 252 27330160 36 27 51 1203
-0.29373622 -1.4389384 0.063838549 202 27330160 44 28 18 1470
-0.23306563 -1.4009302 0.04812979 283 27330160 57 29 1 1421
-0.18116184 -1.396873 0.034744535 319 27330160 63 30 11 1409
-0.11315914 -1.2206292 0.018315783 228 27330160 34 31 24 1226
-0.29048085 -1.422611 0.01013679 256 27330160 54 32 12 1452
-0.2305875 -1.3829031 -0.0035480761 321 27330160 63 33 3 1402
-0.18008746 -1.3872602 -0.016700938 323 27330160 63 34 54 1399
-0.1107742 -1.1865662 -0.025566556 215 27330160 30 35 40 1192
-0.2744174 -1.3405987 -0.040636975 282 27330160 53 36 63 1369
-0.22878383 -1.3659134 -0.054172389 319 27330160 61 37 5 1386
-0.18188669 -1.3965375 -0.068558641 351 27330160 70 38 98 1410
-0.11328262 -1.2136643 -0.070902653 221 27330160 33 39 40 1221
-0.27619192 -1.3438945 -0.091054782 330 27330160 62 40 36 1375
-0.23156556 -1.3786811 -0.10592538 363 27330160 71 41 28 1402
-0.17950974 -1.3752884 -0.11841623 359 27330160 70 42 118 1392
-0.1294409 -1.3787158 -0.13141222 354 27330160 68 43 31 1391
-0.30067635 -1.4604453 -0.15392987 284 27330160 64 44 17 1499
-0.24815024 -1.4737998 -0.16837968 274 27330160 62 45 8 1504
-0.18522532 -1.413311 -0.17418344 475 27330160 98 46 100 1436
-0.13184054 -1.4005976 -0.18575685 298 27330160 60 47 71 1419
-0.29755104 -1.4391595 -0.20625076 251 27330160 55 48 15 1484
-0.24726659 -1.4646482 -0.2228653 239 27330160 54 49 7 1502
-0.19260146 -1.4636443 -0.2359568 372 27330160 83 50 77 1495
-0.13705938 -1.4516945 -0.24746542 264 27330160 58 51 63 1479
-0.28887102 -1.3909317 -0.25320297 308 27330160 64 52 29 1443
-0.25877675 -1.5281147 -0.29125452 174 27330160 43 53 31 1577
-0.18794747 -1.4248163 -0.28425235 98 27330160 21 54 73 1465
-0.13414386 -1.4210793 -0.29715881 279 27330160 59 55 57 1458
-0.30446124 -1.4618981 -0.32394689 90 27330160 21 56 63 1528
-0.23634863 -1.391248 -0.31996498 336 27330160 70 57 8 1447
-0.18542367 -1.4036051 -0.33546373 372 27330160 79 58 94 1455
-0.13650894 -1.4447867 -0.35914096 179 27330160 40 59 54 1495
-0.29313198 -1.3993 -0.36689162 413 27330160 90 60 1 1476
-0.24637741 -1.4429594 -0.39037383 142 27330160 33 61 7 1515
-0.19438793 -1.4692894 -0.41090918 123 27330160 29 62 53 1538
-0.13325886 -1.416725 -0.41047952 244 27330160 54 63 64 1481
-0.30522177 -1.4487492 0.46213296 171 27428720 41 0 1 1551
-0.24664004 -1.4406232 0.43869072 164 27428720 38 1 20 1526
-0.18533751 -1.3959041 0.40774772 347 27428720 75 2 27 1466
-0.13091363 -1.3836167 0.38822111 370 27428720 77 3 18 1443
-0.30079108 -1.4313097 0.39509833 193 27428720 44 4 9 1515
-0.25038144 -1.4586499 0.38404521 199 27428720 46 5 5 1529
-0.18111043 -1.3600641 0.3417902 363 27428720 73 6 50 1414
-0.13417046 -1.4028927 0.33688509 377 27428720 79 7 21 1449
-0.3093448 -1.4734179 0.34694505 184 27428720 44 8 8 1545
-0.23327492 -1.3621289 0.30399522 324 27428720 65 9 1 1415
-0.18742651 -1.4016987 0.29687914 375 27428720 78 10 28 1445
-0.13245042 -1.3722708 0.27598155 407 27428720 80 11 24 1406
-0.29177207 -1.3908048 0.27265388 199 27428720 42 12 43 1447
-0.25051782 -1.4594444 0.26886475 201 27428720 46 13 6 1505
-0.19451424 -1.4525826 0.25166926 276 27428720 61 14 57 1487
-0.12102572 -1.2507079 0.20398931 213 27428720 34 15 31 1273
-0.30522019 -1.4547822 0.22905302 193 27428720 44 16 1 1504
-0.24848108 -1.4456117 0.2116321 194 27428720 43 17 17 1482
-0.17934993 -1.333853 0.18120161 235 27428720 43 18 37 1358
-0.11492916 -1.1801841 0.14826256 283 27428720 40 19 57 1195
-0.30818877 -1.468804 0.17537273 185 27428720 42 20 33 1511
-0.2555863 -1.4855508 0.16146466 210 27428720 48 21 17 1516
-0.17848259 -1.3226827 0.13013656 228 27428720 41 22 44 1341
-0.11504658 -1.1748005 0.10408307 252 27428720 35 23 62 1185
-0.30650559 -1.4593879 0.11940502 182 27428720 41 24 2 1496
-0.24341987 -1.4126222 0.10106567 354 27428720 73 25 20 1437
-0.18878989 -1.3986987 0.086002409 337 27428720 67 26 60 1414
-0.12132697 -1.2313989 0.063699692 241 27428720 37 27 67 1239
-0.30255985 -1.437109 0.063838549 212 27428720 46 28 8 1470
-0.2416572 -1.3994737 0.04812979 288 27428720 58 29 1 1421
-0.19296122 -1.4195093 0.035336353 323 27428720 66 30 22 1433
-0.12064666 -1.2199119 0.018315783 241 27428720 36 31 48 1226
-0.29920435 -1.4208019 0.01013679 254 27428720 53 32 27 1452
-0.23702225 -1.3696381 -0.0035177076 312 27428720 60 33 2 1390
-0.19183153 -1.4099083 -0.016987447 334 27428720 68 34 51 1423
-0.11924121 -1.1978025 -0.025823938 228 27428720 33 35 32 1204
-0.28759292 -1.3623618 -0.041349381 265 27428720 51 36 51 1393
-0.24537396 -1.4117388 -0.05604849 324 27428720 67 37 2 1434
-0.19045225 -1.3953953 -0.068558641 355 27428720 71 38 96 1410
-0.13021947 -1.3083131 -0.076477304 218 27428720 38 39 33 1317
-0.28691503 -1.353888 -0.091849439 339 27428720 65 40 19 1387
-0.24207503 -1.3890222 -0.10683202 339 27428720 68 41 30 1414
-0.1911854 -1.3978534 -0.12045789 364 27428720 73 42 98 1416
-0.1378981 -1.3778955 -0.13141222 378 27428720 73 43 40 1391
-0.30715314 -1.4468966 -0.15269762 284 27428720 63 44 26 1487
-0.25718862 -1.4722495 -0.16837968 265 27428720 60 45 24 1504
-0.19389375 -1.4121479 -0.17418344 387 27428720 80 46 91 1436
-0.13686921 -1.3642503 -0.18104421 343 27428720 66 47 87 1383
-0.30142108 -1.4140618 -0.20291516 267 27428720 57 48 36 1460
-0.26853243 -1.533239 -0.2335486 116 27428720 29 49 3 1574
-0.20157859 -1.4624349 -0.2359568 371 27428720 83 50 74 1495
-0.14596422 -1.4508262 -0.24746542 295 27428720 65 51 59 1479
-0.30481973 -1.4237891 -0.25951988 282 27428720 62 52 38 1479
-0.24978425 -1.4219568 -0.27130812 295 27428720 64 53 43 1469
-0.19507536 -1.4119751 -0.28192401 107 27428720 22 54 51 1453
-0.14638835 -1.4552969 -0.30449608 207 27428720 46 55 56 1494
-0.32573283 -1.5173323 -0.3366673 143 27428720 36 56 54 1588
-0.25503471 -1.4473987 -0.33323237 264 27428720 60 57 1 1507
-0.19403253 -1.4024409 -0.33546373 355 27428720 75 58 103 1455
-0.14187084 -1.4091518 -0.35049275 229 27428720 49 59 91 1459
-0.29435354 -1.3633902 -0.35794306 368 27428720 76 60 1 1440
-0.24916181 -1.4071689 -0.38109761 329 27428720 72 61 1 1479
-0.20339966 -1.468069 -0.41090918 103 27428720 24 62 51 1538
-0.14079906 -1.4044083 -0.40715355 226 27428720 49 63 64 1469
-0.31410536 -1.4468491 0.46213296 160 27526760 38 0 19 1551
-0.2554749 -1.4390827 0.43869072 180 27526760 42 1 16 1526
-0.19231196 -1.3833239 0.40441009 334 27526760 71 2 27 1454
-0.13708235 -1.3597888 0.3817642 389 27526760 78 3 5 1419
-0.31447181 -1.4520816 0.40135729 181 27526760 43 4 30 1539
-0.25322104 -1.4227793 0.37500292 200 27526760 45 5 1 1493
-0.19266781 -1.3819926 0.34759146 380 27526760 79 6 49 1438
-0.14041109 -1.3788208 0.33130521 411 27526760 83 7 24 1425
-0.31096116 -1.4372048 0.3388609 190 27526760 43 8 10 1509
-0.24572667 -1.3837503 0.30915132 286 27526760 59 9 1 1439
-0.19765151 -1.4121529 0.29934457 405 27526760 86 10 29 1457
-0.14327259 -1.3948423 0.28069246 399 27526760 82 11 1 1430
-0.31026199 -1.4350641 0.28169838 189 27526760 42 12 31 1495
-0.25739923 -1.4462554 0.26672098 223 27526760 50 13 1 1493
-0.20014024 -1.4279369 0.24760734 214 27526760 46 14 72 1463
-0.13597669 -1.3206376 0.21552682 229 27526760 41 15 32 1345
-0.30662149 -1.4181057 0.22357036 208 27526760 45 16 1 1468
-0.25943029 -1.4557526 0.21334572 188 27526760 42 17 18 1494
-0.19747366 -1.4033874 0.19080876 260 27526760 53 18 41 1430
-0.12584886 -1.2149885 0.15272905 267 27526760 40 19 44 1231
-0.30963811 -1.4319364 0.17119443 189 27526760 41 20 27 1475
-0.25631577 -1.4369692 0.15635233 227 27526760 49 21 23 1468
-0.19494383 -1.380693 0.13595922 280 27526760 55 22 48 1401
-0.12349086 -1.1859617 0.10513707 275 27526760 39 23 66 1197
-0.32051522 -1.4808618 0.12132061 179 27526760 41 24 13 1520
-0.24997792 -1.3993183 0.10022171 286 27526760 58 25 4 1425
-0.19736859 -1.397514 0.086002409 317 27526760 63 26 80 1414
-0.13012864 -1.2425503 0.064316638 217 27526760 34 27 53 1251
-0.30883029 -1.4235094 0.063317418 192 27526760 41 28 14 1458
-0.24812643 -1.3861591 0.047723342 289 27526760 57 29 1 1409
-0.2033563 -1.4301754 0.03563226 297 27526760 62 30 14 1445
-0.1268755 -1.2072158 0.018136509 190 27526760 28 31 40 1214
-0.32827473 -1.5127535 0.010806992 172 27526760 41 32 29 1548
-0.24754047 -1.3799694 -0.0035480761 289 27526760 57 33 17 1402
-0.19709772 -1.3849458 -0.016700938 321 27526760 63 34 47 1399
-0.12658854 -1.1970483 -0.025823938 223 27526760 32 35 29 1204
-0.3035951 -1.3957335 -0.042417992 272 27526760 55 36 35 1429
-0.25190583 -1.3984057 -0.055579465 326 27526760 66 37 1 1422
-0.19562323 -1.3704692 -0.067391686 335 27526760 64 38 97 1386
-0.13446578 -1.2717494 -0.074386805 211 27526760 35 39 49 1281
-0.30543351 -1.3988943 -0.09502808 330 27526760 68 40 26 1435
-0.25059333 -1.3875108 -0.10683202 322 27526760 64 41 32 1414
-0.198066 -1.384818 -0.11943706 341 27526760 67 42 118 1404
-0.14635012 -1.3770235 -0.13141222 366 27526760 71 43 73 1391
-0.31092471 -1.4216628 -0.15023309 268 27526760 57 44 30 1463
-0.26621735 -1.4706436 -0.16837968 277 27526760 63 45 10 1504
-0.20594019 -1.4345125 -0.17709458 286 27526760 61 46 96 1460
-0.14775792 -1.3870444 -0.18418598 405 27526760 80 47 114 1407
-0.31773803 -1.4470068 -0.20791854 263 27526760 59 48 18 1496
-0.27369723 -1.5082095 -0.22998749 167 27526760 40 49 27 1550
-0.21054812 -1.4611706 -0.2359568 388 27526760 87 50 81 1495
-0.15109408 -1.4146115 -0.24144192 328 27526760 68 51 78 1443
-0.30846214 -1.3988187 -0.2553086 301 27526760 64 52 19 1455
-0.25639281 -1.4087943 -0.26909184 248 27526760 53 53 38 1457
-0.21046582 -1.4573559 -0.29123738 172 27526760 39 54 85 1501
-0.15781015 -1.4777347 -0.30938759 166 27526760 38 55 51 1518
-0.3097192 -1.4007984 -0.31122646 310 27526760 67 56 49 1468
-0.26391101 -1.4458065 -0.33323237 265 27526760 60 57 26 1507
-0.2009629 -1.3896675 -0.33269703 295 27526760 61 58 84 1443
-0.1492766 -1.3966721 -0.34761 313 27526760 66 59 82 1447
-0.31532669 -1.4182901 -0.37285736 165 27526760 37 60 1 1500
-0.25360811 -1.3828044 -0.37491345 244 27526760 52 61 1 1455
-0.20908923 -1.4439044 -0.40449706 161 27526760 37 62 57 1514
-0.15673691 -1.4723086 -0.42710933 141 27526760 33 63 50 1541
-0.31797943 -1.4225364 0.45498195 174 27625970 41 0 1 1527
-0.26430014 -1.4374881 0.43869072 208 27625970 48 1 19 1526
-0.20245343 -1.3935245 0.40774772 260 27625970 56 2 12 1466
-0.14788288 -1.381906 0.38822111 402 27625970 84 3 7 1443
-0.31581134 -1.4162036 0.39196882 181 27625970 41 4 14 1503
-0.26615709 -1.4440446 0.38103113 198 27625970 46 5 1 1517
-0.19946541 -1.3692619 0.34469086 355 27625970 72 6 51 1426
-0.14886874 -1.3779333 0.33130521 400 27625970 81 7 38 1425
-0.32231674 -1.4466834 0.34155563 175 27625970 40 8 12 1521
-0.26693204 -1.4513754 0.32461962 178 27625970 41 9 1 1511
-0.20971103 -1.4341544 0.30427542 359 27625970 79 10 8 1481
-0.15182848 -1.3939369 0.28069246 392 27625970 80 11 1 1430
-0.31906155 -1.4331334 0.28169838 179 27625970 40 12 30 1495
-0.27268884 -1.4794829 0.27315229 175 27625970 41 13 11 1529
-0.21232502 -1.4500862 0.25166926 226 27625970 50 14 49 1487
-0.15564646 -1.4257532 0.23283306 331 27625970 70 15 20 1453
-0.31789458 -1.4277741 0.22539791 204 27625970 45 16 1 1480
-0.27266869 -1.477493 0.21677297 191 27625970 44 17 30 1518
-0.20608096 -1.4021493 0.19080876 286 27625970 58 18 51 1430
-0.13070263 -1.190521 0.14975139 280 27625970 41 19 37 1207
-0.32359955 -1.4532775 0.17397998 181 27625970 41 20 9 1499
-0.27379704 -1.4823024 0.16146466 190 27625970 44 21 16 1516
-0.21038109 -1.4267333 0.14061737 406 27625970 85 22 68 1449
-0.1320764 -1.1970633 0.10619108 254 27625970 37 23 75 1209
-0.32439142 -1.4555167 0.11940502 177 27625970 40 24 12 1496
-0.27597797 -1.4919229 0.10697348 226 27625970 52 25 2 1521
-0.2076876 -1.4081264 0.086732276 316 27625970 64 26 88 1426
-0.14832111 -1.3370169 0.069252208 214 27625970 39 27 48 1347
-0.32539994 -1.4566885 0.064880811 212 27625970 47 28 1 1494
-0.26755512 -1.4435719 0.049755566 296 27625970 64 29 1 1469
-0.21036625 -1.4170345 0.035336353 302 27625970 62 30 25 1433
-0.144899 -1.3018147 0.019570697 225 27625970 39 31 46 1310
-0.32708395 -1.4638671 0.010471892 177 27625970 40 32 28 1500
-0.25381199 -1.3666263 -0.0035177076 308 27625970 60 33 2 1390
-0.20382841 -1.3718414 -0.016557686 295 27625970 57 34 46 1387
-0.13393112 -1.1962491 -0.025823938 206 27625970 30 35 38 1204
-0.31477475 -1.4055492 -0.0427742 295 27625970 61 36 50 1441
-0.25608525 -1.3732586 -0.054641418 315 27625970 62 37 5 1398
-0.20932804 -1.4048079 -0.069142118 335 27625970 68 38 76 1422
-0.1515955 -1.3542382 -0.079264633 316 27625970 59 39 36 1365
-0.30875945 -1.3736295 -0.093438759 384 27625970 76 40 18 1411
-0.25910223 -1.385947 -0.10683202 332 27625970 66 41 25 1414
-0.2083248 -1.395402 -0.12045789 359 27625970 72 42 105 1416
-0.15479663 -1.3760996 -0.13141222 359 27625970 69 43 50 1391
-0.33275107 -1.4779537 -0.15639441 280 27625970 65 44 9 1523
-0.26425588 -1.4103795 -0.1616624 252 27625970 52 45 27 1444
-0.21826826 -1.4567817 -0.18000573 285 27625970 63 46 90 1484
-0.16026415 -1.4215772 -0.18889862 411 27625970 86 47 102 1443
-0.3187511 -1.4102565 -0.20291516 258 27625970 55 48 17 1460
-0.27418408 -1.4598488 -0.2228653 266 27625970 60 49 17 1502
-0.22127168 -1.4715689 -0.23785076 354 27625970 80 50 95 1507
-0.1637571 -1.4489257 -0.24746542 335 27625970 73 51 72 1479
-0.31703934 -1.3968997 -0.2553086 270 27625970 57 52 23 1455
-0.27594635 -1.4651436 -0.28017321 105 27625970 24 53 33 1517
-0.21063372 -1.3978344 -0.27959567 300 27625970 62 54 134 1441
-0.15895939 -1.4066956 -0.29471308 348 27625970 73 55 81 1446
-0.3131046 -1.376002 -0.30613831 292 27625970 61 56 38 1444
-0.26626107 -1.4096611 -0.32527193 361 27625970 78 57 6 1471
-0.21819638 -1.4461383 -0.34653059 192 27625970 43 58 57 1503
-0.1656976 -1.4651787 -0.3649064 194 27625970 45 59 54 1519
-0.34735286 -1.5183042 -0.39970306 277 27625970 72 60 1 1608
-0.28802669 -1.5179206 -0.41201833 107 27625970 27 61 1 1599
-0.2075803 -1.3739901 -0.38526073 300 27625970 62 62 74 1442
-0.16447701 -1.4598616 -0.42378336 266 27625970 62 63 61 1529
-0.33440417 -1.4540491 0.46570846 179 27723710 44 0 3 1563
-0.27096772 -1.4245483 0.43524101 197 27723710 45 1 8 1514
-0.22481732 -1.4834269 0.43444878 160 27723710 39 2 32 1562
-0.15375873 -1.3580042 0.3817642 396 27723710 80 3 16 1419
-0.32967663 -1.4368219 0.39822781 189 27723710 44 4 29 1527
-0.277188 -1.4537941 0.38404521 194 27723710 45 5 1 1529
-0.21136168 -1.3910362 0.35049209 347 27723710 73 6 41 1450
-0.15599598 -1.3653982 0.32851529 384 27723710 77 7 29 1413
-0.33902612 -1.4788721 0.34963977 180 27723710 44 8 9 1557
-0.27364191 -1.438197 0.32204157 165 27723710 37 9 1 1499
-0.21319544 -1.3980113 0.29687914 350 27723710 73 10 28 1445
-0.16037866 -1.392979 0.28069246 380 27723710 78 11 2 1430
-0.3199544 -1.3966862 0.27491501 206 27723710 44 12 35 1459
-0.27955031 -1.4661839 0.27100852 188 27723710 43 13 5 1517
-0.22657426 -1.4838302 0.25776213 204 27723710 47 14 62 1523
-0.1576034 -1.3659369 0.22321847 389 27723710 75 15 27 1393
-0.33194625 -1.4489177 0.22905302 202 27723710 46 16 1 1504
-0.27282083 -1.4291267 0.20991847 148 27723710 32 17 32 1470
-0.22008505 -1.4361248 0.19561234 243 27723710 52 18 50 1466
-0.13800506 -1.1896967 0.14975139 295 27723710 43 19 42 1207
-0.32984874 -1.4396467 0.17258722 176 27723710 39 20 39 1487
-0.27616948 -1.4454353 0.15763041 190 27723710 42 21 35 1480
-0.21731664 -1.4136108 0.13945283 395 27723710 82 22 55 1437
-0.14495419 -1.2437234 0.11040711 274 27723710 43 23 86 1257
-0.33331621 -1.4534988 0.11940502 176 27723710 39 24 12 1496
-0.28512704 -1.4902015 0.10697348 194 27723710 45 25 16 1521
-0.21268299 -1.3831481 0.085272543 306 27723710 60 26 98 1402
-0.1607053 -1.3717898 0.071103044 303 27723710 58 27 58 1383
-0.33701727 -1.4663485 0.065401942 206 27723710 47 28 8 1506
-0.27189183 -1.4183457 0.048942674 298 27723710 62 29 1 1445
-0.21722266 -1.4038618 0.035040446 292 27723710 59 30 30 1421
-0.15988639 -1.3604844 0.020467065 241 27723710 45 31 26 1370
-0.33068296 -1.4384432 0.010304341 168 27723710 37 32 48 1476
-0.26898324 -1.4003968 -0.0036088137 285 27723710 58 33 1 1426
-0.2195871 -1.4179962 -0.017130699 351 27723710 72 34 45 1435
-0.15957253 -1.350291 -0.029169895 205 27723710 38 35 40 1360
-0.33685848 -1.4620336 -0.044555221 214 27723710 48 36 61 1501
-0.26904744 -1.3952092 -0.055579465 275 27723710 56 37 4 1422
-0.21610466 -1.3916532 -0.068558641 368 27723710 73 38 90 1410
-0.16552505 -1.4008706 -0.082051963 342 27723710 68 39 31 1413
-0.32797211 -1.4183725 -0.096617401 388 27723710 83 40 9 1459
-0.26533034 -1.3725829 -0.10592538 333 27723710 65 41 21 1402
-0.20953095 -1.3468399 -0.11637457 347 27723710 65 42 94 1368
-0.16464554 -1.386987 -0.1325459 361 27723710 71 43 49 1403
-0.33642691 -1.4526265 -0.15392987 286 27723710 64 44 30 1499
-0.28197646 -1.4555591 -0.16703622 255 27723710 57 45 15 1492
-0.23087724 -1.4789528 -0.18291686 288 27723710 66 46 85 1508
-0.16476795 -1.3851268 -0.18418598 345 27723710 68 47 98 1407
-0.32470733 -1.3966993 -0.20124736 279 27723710 58 48 25 1448
-0.29218468 -1.5047373 -0.22998749 248 27723710 60 49 1 1550
-0.22479545 -1.435063 -0.23216885 366 27723710 79 50 96 1471
-0.1712437 -1.436146 -0.24545759 360 27723710 78 51 75 1467
-0.32291919 -1.3834236 -0.25320297 295 27723710 61 52 39 1443
-0.29394671 -1.5097276 -0.28903827 133 27723710 33 53 29 1565
-0.22468308 -1.4314044 -0.28658071 210 27723710 46 54 81 1477
-0.16758773 -1.4056938 -0.29471308 357 27723710 75 55 70 1446
-0.32955793 -1.4083109 -0.31377053 289 27723710 63 56 49 1480
-0.27490559 -1.4080008 -0.32527193 381 27723710 82 57 1 1471
-0.22525272 -1.4332372 -0.34376386 246 27723710 55 58 74 1491
-0.18572465 -1.5566671 -0.38796833 87 27723710 23 59 53 1615
-0.45248228 -1.9234668 -0.50708604 329 27723710 137 60 5 2040
-0.29287222 -1.4933685 -0.40583417 94 27723710 23 61 8 1575
-0.22679241 -1.4412298 -0.40449706 200 27723710 46 62 65 1514
-0.1679869 -1.413028 -0.41047952 340 27723710 75 63 84 1481
-0.3354122 -1.4185271 0.45498195 166 27821440 39 0 11 1527
-0.28857124 -1.4679693 0.44903994 187 27821440 46 1 6 1562
-0.23211819 -1.4706341 0.43111116 158 27821440 38 2 28 1550
-0.16345914 -1.3685113 0.38499269 363 27821440 74 3 9 1431
-0.33316657 -1.4122216 0.39196882 170 27821440 38 4 20 1503
-0.2861031 -1.4520659 0.38404521 160 27821440 37 5 9 1529
-0.22171274 -1.4012141 0.35339269 306 27821440 65 6 51 1462
-0.16716282 -1.3875901 0.33409515 396 27821440 82 7 27 1437
-0.3319971 -1.4084743 0.33347145 174 27821440 38 8 18 1485
-0.28246137 -1.4364909 0.32204157 188 27821440 42 9 5 1499
-0.22361115 -1.4082755 0.29934457 367 27821440 78 10 21 1457
-0.17034033 -1.4036496 0.28304791 367 27821440 76 11 2 1442
-0.32851827 -1.3946967 0.27491501 179 27821440 38 12 45 1459
-0.28625894 -1.4528568 0.26886475 168 27821440 38 13 25 1505
-0.2356746 -1.4824121 0.25776213 201 27821440 47 14 68 1523
-0.17027122 -1.4002191 0.22898722 391 27821440 80 15 32 1429
-0.33267224 -1.4122216 0.22357036 196 27821440 42 16 2 1468
-0.29077929 -1.4740357 0.21677297 190 27821440 44 17 22 1518
-0.22889282 -1.4347475 0.19561234 238 27821440 51 18 50 1466
-0.15108071 -1.2361048 0.15570672 260 27821440 41 19 41 1255
-0.34687531 -1.4723997 0.17676552 176 27821440 41 20 24 1523
-0.28965548 -1.4671252 0.16018659 175 27821440 40 21 24 1504
-0.2259863 -1.4122508 0.13945283 356 27821440 74 22 80 1437
-0.14966953 -1.2190814 0.10829909 226 27821440 34 23 78 1233
-0.34222844 -1.4514263 0.11940502 166 27821440 37 24 18 1496
-0.28962216 -1.4649379 0.10528554 217 27821440 49 25 39 1497
-0.22495183 -1.4054717 0.086732276 286 27821440 58 26 80 1426
-0.16765201 -1.358884 0.070486099 375 27821440 70 27 76 1371
-0.34325123 -1.4525857 0.064880811 198 27821440 44 28 17 1494
-0.28524983 -1.4401799 0.049755566 229 27821440 49 29 1 1469
-0.22773959 -1.4143462 0.035336353 328 27821440 67 30 22 1433
-0.17117825 -1.3832934 0.020825611 327 27821440 63 31 38 1394
-0.35606396 -1.5064547 0.010806992 155 27821440 37 32 28 1548
-0.27757087 -1.39872 -0.0036088137 273 27821440 56 33 13 1426
-0.22064766 -1.3692369 -0.016557686 305 27821440 59 34 67 1387
-0.1708169 -1.3730974 -0.029684659 270 27821440 52 35 35 1384
-0.35688198 -1.5066261 -0.045980036 169 27821440 40 36 51 1549
-0.2752606 -1.3817723 -0.05511044 309 27821440 61 37 2 1410
-0.2169923 -1.3429717 -0.066224732 343 27821440 64 38 94 1362
-0.17263879 -1.3879403 -0.081355125 313 27821440 61 39 44 1401
-0.33666891 -1.4163334 -0.096617401 324 27821440 69 40 16 1459
-0.28077656 -1.4061311 -0.1086453 316 27821440 65 41 7 1438
-0.22161198 -1.3691348 -0.11841623 359 27821440 70 42 131 1392
-0.17167182 -1.3740963 -0.13141222 374 27821440 72 43 39 1391
-0.34533373 -1.4505348 -0.15392987 276 27821440 62 44 25 1499
-0.29324198 -1.4654943 -0.16837968 240 27821440 54 45 9 1504
-0.23230998 -1.4304788 -0.17709458 267 27821440 57 46 64 1460
-0.1762193 -1.407699 -0.18732774 287 27821440 59 47 83 1431
-0.34155697 -1.429355 -0.20625076 265 27821440 58 48 20 1484
-0.29674503 -1.4796451 -0.22642639 219 27821440 51 49 13 1526
-0.23359659 -1.4336567 -0.23216885 310 27821440 67 50 78 1471
-0.17857967 -1.4233295 -0.24344975 346 27821440 73 51 89 1455
-0.33691353 -1.4043919 -0.25741425 270 27821440 58 52 32 1467
-0.30552959 -1.5194577 -0.29125452 194 27821440 48 53 36 1577
-0.24673922 -1.5113257 -0.30287912 164 27821440 40 54 65 1561
-0.17767206 -1.4162956 -0.29715881 335 27821440 71 55 76 1458
-0.33819297 -1.4062623 -0.31377053 273 27821440 60 56 45 1480
-0.27660063 -1.3718712 -0.3173115 299 27821440 62 57 27 1435
-0.22462444 -1.3742093 -0.32993034 321 27821440 66 58 99 1431
-0.18366513 -1.4630351 -0.3649064 132 27821440 31 59 58 1519
-0.48885518 -2.0223358 -0.53393167 419 27821440 193 60 24 2148
-0.29742751 -1.4688152 -0.39965004 218 27821440 52 61 1 1551
-0.24123423 -1.4740471 -0.41411522 154 27821440 37 62 75 1550
-0.17379119 -1.3890892 -0.40382755 328 27821440 70 63 79 1457
-0.35492662 -1.4609671 0.46928394 161 27919680 40 0 15 1575
-0.29300091 -1.4436435 0.44214049 162 27919680 38 1 20 1538
-0.23740372 -1.4464334 0.42443588 134 27919680 31 2 33 1526
-0.1732942 -1.3789499 0.38822111 365 27919680 76 3 1 1443
-0.34728381 -1.4326681 0.39822781 196 27919680 46 4 8 1527
-0.29732272 -1.4616654 0.3870593 149 27919680 35 5 1 1541
-0.23408693 -1.4228067 0.35919395 284 27919680 63 6 44 1486
-0.17273977 -1.363381 0.32851529 414 27919680 83 7 28 1413
-0.34613827 -1.4291406 0.3388609 185 27919680 42 8 37 1509
-0.30059704 -1.4806727 0.33235377 162 27919680 39 9 3 1547
-0.24372485 -1.4764 0.31413716 266 27919680 62 10 27 1529
-0.17746058 -1.3909061 0.28069246 345 27919680 71 11 1 1430
-0.35093144 -1.4499263 0.28622061 176 27919680 41 12 34 1519
-0.3022286 -1.4857831 0.27529606 175 27919680 42 13 6 1541
-0.2389804 -1.4459323 0.25166926 201 27919680 44 14 47 1487
-0.17885959 -1.399148 0.22898722 372 27919680 76 15 30 1429
-0.34970173 -1.4447352 0.22905302 179 27919680 41 16 1 1504
-0.2950781 -1.4489474 0.21334572 187 27919680 42 17 18 1494
-0.24547449 -1.4802458 0.20201711 232 27919680 53 18 37 1514
-0.15562828 -1.2115341 0.15272905 199 27919680 30 19 34 1231
-0.35309902 -1.4586592 0.17537273 159 27919680 36 20 25 1511
-0.31056646 -1.5237772 0.16657701 186 27919680 45 21 16 1564
-0.24052589 -1.4461821 0.14294642 316 27919680 68 22 56 1473
-0.17244095 -1.3366939 0.11883915 204 27919680 37 23 61 1353
-0.36239392 -1.4958006 0.12323619 183 27919680 44 24 12 1544
-0.31536081 -1.545233 0.11119334 206 27919680 51 25 4 1581
-0.23946801 -1.4395111 0.088921867 270 27919680 58 26 67 1462
-0.18060791 -1.3934839 0.072336935 323 27919680 64 27 70 1407
-0.35498625 -1.4621024 0.065401942 204 27919680 46 28 3 1506
-0.29408124 -1.4384025 0.049755566 210 27919680 45 29 1 1469
-0.23641357 -1.4129223 0.035336353 293 27919680 60 30 23 1433
-0.17966276 -1.3822169 0.020825611 336 27919680 65 31 32 1394
-0.34830996 -1.4342769 0.010304341 144 27919680 31 32 30 1476
-0.28614804 -1.3969905 -0.0036088137 283 27919680 58 33 15 1426
-0.23300827 -1.391526 -0.016844191 308 27919680 61 34 63 1411
-0.17768477 -1.3601273 -0.029427277 347 27919680 65 35 31 1372
-0.36611971 -1.504408 -0.045980036 163 27919680 39 36 53 1549
-0.29097807 -1.4152929 -0.056517515 278 27919680 58 37 1 1446
-0.23515049 -1.4007169 -0.069142118 354 27919680 72 38 104 1422
-0.17649692 -1.3512183 -0.079264633 323 27919680 60 39 57 1365
-0.35387444 -1.4491366 -0.099001385 288 27919680 64 40 14 1495
-0.28698412 -1.3926625 -0.10773866 312 27919680 63 41 30 1426
-0.23000865 -1.3677492 -0.11841623 349 27919680 68 42 125 1392
-0.18009989 -1.3730171 -0.13141222 348 27919680 67 43 49 1391
-0.35139185 -1.4367938 -0.15269762 247 27919680 55 44 28 1487
-0.29981717 -1.4519893 -0.16703622 251 27919680 56 45 18 1492
-0.24504587 -1.4525174 -0.18000573 278 27919680 61 46 92 1484
-0.19105399 -1.4537724 -0.19361128 261 27919680 57 47 68 1479
-0.35598642 -1.4503142 -0.20958634 277 27919680 63 48 1 1508
-0.31303298 -1.5126593 -0.23176803 238 27919680 58 49 5 1562
-0.24436627 -1.4438798 -0.23406282 154 27919680 34 50 32 1483
-0.18885452 -1.4339365 -0.24545759 284 27919680 61 51 64 1467
-0.34835073 -1.4137689 -0.25951988 270 27919680 59 52 22 1479
-0.29088914 -1.4020778 -0.26909184 315 27919680 67 53 41 1457
-0.2501038 -1.4749644 -0.29589409 342 27919680 80 54 124 1525
-0.19249421 -1.4617691 -0.30694181 290 27919680 66 55 62 1506
-0.36649939 -1.4838564 -0.33157915 238 27919680 58 56 19 1564
-0.30884692 -1.4847251 -0.34384626 179 27919680 43 57 28 1555
-0.23891516 -1.4073411 -0.33823046 165 27919680 36 58 65 1467
-0.19263868 -1.4618806 -0.3649064 264 27919680 61 59 68 1519
-0.49565423 -1.9967362 -0.52796596 404 27919680 182 60 29 2124
-0.29458004 -1.4102135 -0.3841897 341 27919680 76 61 1 1491
-0.23671103 -1.392737 -0.39167285 312 27919680 67 62 83 1466
-0.18531428 -1.4108602 -0.41047952 267 27919680 59 63 77 1481
-0.35556689 -1.4254186 0.45855746 158 28015990 37 0 30 1539
-0.30420858 -1.453068 0.4455902 188 28015990 45 1 19 1550
-0.24433777 -1.433587 0.42109826 119 28015990 27 2 37 1514
-0.18024057 -1.3664023 0.38499269 384 28015990 79 3 1 1431
-0.34767345 -1.396785 0.38883933 157 28015990 35 4 23 1491
-0.30867082 -1.4711813 0.39007339 200 28015990 48 5 1 1553
-0.24673432 -1.4442995 0.36499521 164 28015990 37 6 55 1510
-0.18110207 -1.3622955 0.32851529 400 28015990 80 7 23 1413
-0.36054534 -1.4496856 0.34425035 181 28015990 42 8 22 1533
-0.30006805 -1.4329165 0.32204157 182 28015990 41 9 2 1499
-0.2428599 -1.4170008 0.30181003 147 28015990 32 10 37 1469
-0.18599169 -1.389791 0.28069246 342 28015990 70 11 3 1430
-0.36550656 -1.4706199 0.29074287 186 28015990 44 12 17 1543
-0.31376395 -1.495456 0.27743983 187 28015990 45 13 1 1553
-0.25184819 -1.4677517 0.25573117 192 28015990 44 14 70 1511
-0.18586721 -1.3862844 0.22706431 301 28015990 60 15 45 1417
-0.36714241 -1.4770917 0.23453568 193 28015990 46 16 1 1540
-0.30396312 -1.4471096 0.21334572 182 28015990 41 17 18 1494
-0.2525349 -1.4669914 0.20041592 215 28015990 48 18 48 1502
-0.17895447 -1.3285635 0.16761735 216 28015990 39 19 36 1351
-0.37066829 -1.4911659 0.17955105 150 28015990 36 20 17 1547
-0.30272844 -1.440107 0.15763041 176 28015990 39 21 22 1480
-0.24736324 -1.4329098 0.1417819 250 28015990 53 22 71 1461
-0.19185437 -1.4185311 0.12621719 212 28015990 44 23 67 1437
-0.37156513 -1.4935489 0.12323619 187 28015990 45 24 5 1544
-0.31497404 -1.4964144 0.10781746 198 28015990 46 25 14 1533
-0.24829617 -1.4380146 0.088921867 322 28015990 69 26 72 1462
-0.18915477 -1.3923495 0.072336935 328 28015990 65 27 37 1407
-0.36685088 -1.4715295 0.06592308 188 28015990 43 28 3 1518
-0.31774768 -1.5069816 0.05219423 169 28015990 40 29 1 1541
-0.24918324 -1.435084 0.035928167 289 28015990 61 30 16 1457
-0.18652093 -1.3691998 0.020646339 348 28015990 66 31 36 1382
-0.37162036 -1.4903286 0.010723216 171 28015990 40 32 36 1536
-0.3021546 -1.430431 -0.0036999197 297 28015990 64 33 1 1462
-0.2394879 -1.3782481 -0.016700938 302 28015990 59 34 59 1399
-0.18928112 -1.3827842 -0.029942039 302 28015990 59 35 46 1396
-0.3695282 -1.4788594 -0.04526763 165 28015990 38 36 81 1525
-0.28970957 -1.3665603 -0.054641418 283 28015990 55 37 10 1398
-0.24991135 -1.4346716 -0.07089255 308 28015990 66 38 79 1458
-0.18965796 -1.3857173 -0.081355125 345 28015990 68 39 35 1401
-0.35402417 -1.4120953 -0.096617401 264 28015990 56 40 27 1459
-0.29552394 -1.3908753 -0.10773866 322 28015990 65 41 11 1426
-0.24250695 -1.3898692 -0.12045789 335 28015990 67 42 115 1416
-0.18852118 -1.3718861 -0.13141222 369 28015990 71 43 48 1391
-0.36601481 -1.4577651 -0.15516213 248 28015990 57 44 36 1511
-0.30623776 -1.438459 -0.16569276 239 28015990 52 45 26 1480
-0.25806078 -1.4744525 -0.18291686 266 28015990 61 46 95 1508
-0.19997057 -1.4525728 -0.19361128 274 28015990 60 47 87 1479
-0.35616809 -1.4135326 -0.20458296 265 28015990 57 48 32 1472
-0.30992797 -1.4526802 -0.2228653 246 28015990 55 49 14 1502
-0.25527015 -1.4540244 -0.2359568 75 28015990 17 50 42 1495
-0.19764943 -1.4327507 -0.24545759 118 28015990 25 51 53 1467
-0.35701892 -1.4116049 -0.25951988 272 28015990 59 52 38 1479
-0.30441985 -1.4233321 -0.2735244 292 28015990 64 53 20 1481
-0.25099248 -1.4270262 -0.28658071 372 28015990 81 54 134 1477
-0.20145984 -1.4605604 -0.30694181 286 28015990 65 55 49 1506
-0.34966087 -1.379271 -0.30868238 283 28015990 60 56 55 1456
-0.30077571 -1.4027022 -0.32527193 334 28015990 72 57 7 1471
-0.26577017 -1.5093467 -0.36313084 78 28015990 19 58 46 1575
-0.19523433 -1.4145143 -0.35337546 258 28015990 56 59 77 1471
-0.51363558 -2.0161843 -0.53393167 430 28015990 198 60 22 2148
-0.38620311 -1.7937709 -0.48932004 288 28015990 104 61 1 1899
-0.24123718 -1.368482 -0.38526073 368 28015990 77 62 96 1442
-0.19868262 -1.4439633 -0.42045739 247 28015990 57 63 62 1517
-0.37566882 -1.4675988 0.47285947 159 28115350 40 0 18 1587
-0.30584627 -1.4174694 0.43524101 163 28115350 37 1 26 1514
-0.25914842 -1.4661124 0.43111116 140 28115350 34 2 31 1550
-0.19020298 -1.3767195 0.38822111 361 28115350 75 3 14 1443
-0.36197162 -1.4170742 0.39509833 179 28115350 41 4 25 1515
-0.31278241 -1.4465537 0.38404521 176 28115350 41 5 1 1529
-0.25559172 -1.4427583 0.36499521 168 28115350 38 6 59 1510
-0.1926755 -1.3842781 0.33409515 391 28115350 81 7 27 1437
-0.38100106 -1.4927671 0.35502923 196 28115350 49 8 18 1581
-0.31627208 -1.4654164 0.32977575 163 28115350 38 9 1 1535
-0.26182422 -1.4732981 0.31413716 171 28115350 40 10 27 1529
-0.19288348 -1.3769709 0.278337 312 28115350 63 11 7 1418
-0.36578518 -1.4340912 0.28395951 181 28115350 41 12 18 1507
-0.31045744 -1.4358013 0.26672098 175 28115350 39 13 10 1493
-0.25877783 -1.4545348 0.2537002 178 28115350 40 14 68 1499
-0.20424603 -1.4554979 0.23860182 222 28115350 49 15 35 1489
-0.37326735 -1.4633191 0.23270813 180 28115350 42 16 1 1528
-0.33042592 -1.5264745 0.22534107 136 28115350 34 17 33 1578
-0.26362091 -1.4771219 0.20201711 193 28115350 44 18 45 1514
-0.19707446 -1.3981849 0.17655033 208 28115350 42 19 35 1423
-0.37981096 -1.4888633 0.17955105 147 28115350 35 20 39 1547
-0.32671601 -1.50819 0.16529892 187 28115350 45 21 20 1552
-0.26877421 -1.5019046 0.1487691 194 28115350 46 22 45 1533
-0.19720516 -1.3936558 0.12410919 276 28115350 55 23 85 1413
-0.38368139 -1.502831 0.12419399 166 28115350 40 24 10 1556
-0.32161254 -1.4827553 0.10697348 195 28115350 45 25 33 1521
-0.25711498 -1.436464 0.088921867 321 28115350 69 26 76 1462
-0.19769451 -1.3911626 0.072336935 297 28115350 59 27 51 1407
-0.37884444 -1.4808654 0.066444203 183 28115350 43 28 10 1530
-0.32189575 -1.4815642 0.051381342 173 28115350 40 29 9 1517
-0.2537345 -1.4099147 0.035336353 283 28115350 58 30 21 1433
-0.19999616 -1.4036655 0.021184159 331 28115350 67 31 35 1418
-0.38075787 -1.4880203 0.010723216 156 28115350 37 32 37 1536
