# .PCD v0.7 - Point Cloud Data file format
VERSION 0.7
FIELDS x y z intensity t reflectivity ring noise range
SIZE 4 4 4 4 4 2 1 2 4
TYPE F F F F U U U U U
COUNT 1 1 1 1 1 1 1 1 1
WIDTH 822
HEIGHT 1
VIEWPOINT 0 0 0 1 0 0 0
POINTS 822
DATA ascii
2.2959588 -2.2688999 -0.21422707 433 11515710 453 40 81 3235
2.5095387 -2.306134 -0.25824034 384 11515710 449 41 66 3418
2.71912 -2.3209839 -0.30522802 396 11515710 510 42 124 3588
2.9666305 -2.3521972 -0.3592816 398 11515710 576 43 60 3803
2.3163469 -2.2906466 -0.33630443 436 11515710 468 44 69 3275
2.5043759 -2.3032446 -0.38333246 378 11515710 443 45 46 3424
2.7589667 -2.3574944 -0.44346425 409 11515710 547 46 88 3656
2.9848101 -2.3677995 -0.50307512 368 11515710 543 47 127 3843
2.2935925 -2.2719483 -0.45308456 431 11515710 458 48 56 3260
2.5160604 -2.3160179 -0.51309466 358 11515710 428 49 43 3458
1.1938697 -1.0212252 -0.25110853 96 11515710 24 50 42 1591
2.9954174 -2.3775773 -0.649032 374 11515710 563 51 65 3879
2.3165596 -2.2987874 -0.58168244 426 11515710 469 52 78 3315
2.5708427 -2.3688498 -0.65693873 404 11515710 512 53 67 3557
2.7642145 -2.365988 -0.71965319 271 11515710 373 54 103 3709
2.9952209 -2.377336 -0.79609215 352 11515710 536 55 51 3906
2.3405948 -2.3252344 -0.71573603 405 11515710 462 56 88 3376
2.5512929 -2.3533072 -0.78697675 406 11515710 514 57 50 3559
2.7783539 -2.3790145 -0.86667228 350 11515710 494 58 39 3759
3.0433888 -2.4160004 -0.96163291 389 11515710 623 59 51 4003
2.3473704 -2.3374255 -0.8501147 401 11515710 469 60 35 3420
2.5569847 -2.362525 -0.92839396 101 11515710 131 61 49 3603
2.794215 -2.3935258 -1.0200592 324 11515710 473 62 63 3818
3.0570326 -2.4247446 -1.125562 301 11515710 496 63 51 4061
1.5425075 -1.5394919 0.68023825 74 11611800 39 0 65 2283
1.59624 -1.476166 0.65257406 163 11611800 84 1 59 2270
0 -0 0 3 11611800 0 2 24 0
0 -0 0 4 11611800 0 3 16 0
0 -0 0 6 11611800 0 4 52 0
1.0264671 -0.95008433 0.36294657 11 11611800 2 5 18 1445
0 -0 0 6 11611800 0 6 55 0
1.0388439 -0.82662797 0.31735551 82 11611800 15 7 39 1365
1.7538028 -1.7479317 0.57060671 252 11611800 163 8 66 2541
1.8147348 -1.6784012 0.54375398 262 11611800 168 9 48 2531
1.8923107 -1.6255155 0.52369887 75 11611800 49 10 31 2549
0.99523443 -0.79334646 0.25478241 68 11611800 11 11 15 1298
2.2005394 -2.1924839 0.59599465 339 11611800 339 12 104 3163
2.4817851 -2.2971075 0.61401206 38 11611800 45 13 32 3437
1.0038786 -0.86267763 0.22729778 14 11611800 3 14 71 1343
1.07498 -0.85734499 0.22321847 51 11611800 10 15 28 1393
1.2798313 -1.2751907 0.27839687 11 11611800 4 16 25 1828
0 -0 0 8 11611800 0 17 63 0
2.6520867 -2.2815521 0.47101745 164 11611800 204 18 48 3530
1.2057246 -0.96282524 0.19292744 19 11611800 5 19 40 1555
1.9580916 -1.9510598 0.32300621 302 11611800 234 20 75 2783
2.427613 -2.2486978 0.35445541 321 11611800 356 21 76 3328
2.6404335 -2.2736931 0.33975253 330 11611800 404 22 51 3501
2.8547266 -2.2821581 0.32226226 326 11611800 439 23 89 3669
2.0727646 -2.0661142 0.23434032 342 11611800 295 24 65 2936
2.4034038 -2.227442 0.23103739 53 11611800 58 25 65 3285
2.6487205 -2.2809901 0.21299888 356 11611800 437 26 98 3502
2.8746886 -2.3009138 0.18955672 281 11611800 382 27 71 3687
2.2277718 -2.2227955 0.13679689 399 11611800 396 28 60 3150
2.4394512 -2.2624338 0.11275444 108 11611800 119 29 37 3329
2.692302 -2.3229437 0.087712079 301 11611800 380 30 36 3557
2.8952789 -2.3191357 0.055425409 428 11611800 590 31 71 3710
2.2849164 -2.2800512 0.022535508 263 11611800 274 32 74 3228
2.4524741 -2.2761846 -0.0084678056 342 11611800 384 33 60 3346
2.6669071 -2.3016012 -0.042056762 311 11611800 387 34 70 3523
2.9137151 -2.3369937 -0.080131419 387 11611800 541 35 72 3736
2.2580991 -2.2554944 -0.09478002 370 11611800 377 36 97 3193
2.4547954 -2.2816906 -0.13109249 385 11611800 433 37 57 3354
2.671294 -2.3073401 -0.1718342 387 11611800 483 38 132 3534
1.277972 -1.0249821 -0.095291764 68 11611800 18 39 58 1641
2.2481341 -2.2490711 -0.21104842 440 11611800 447 40 83 3187
2.4602983 -2.2888873 -0.25461379 360 11611800 409 41 71 3370
2.6595964 -2.2985337 -0.3001239 384 11611800 478 42 109 3528
2.9241962 -2.3479173 -0.35588056 295 11611800 419 43 70 3767
2.2769411 -2.2794809 -0.33260766 415 11611800 436 44 75 3239
2.4901962 -2.3185678 -0.38333246 409 11611800 479 45 54 3424
2.7084174 -2.3432052 -0.43764198 401 11611800 522 46 90 3608
2.9331264 -2.3562667 -0.49679157 408 11611800 588 47 101 3795
2.2628264 -2.2691493 -0.44974893 426 11611800 446 48 80 3236
2.4931204 -2.3233221 -0.51131409 383 11611800 454 49 46 3446
2.7282269 -2.3628423 -0.57687098 218 11611800 291 50 50 3655
2.9715512 -2.3885002 -0.64702415 367 11611800 548 51 49 3867
2.2774072 -2.2878401 -0.57536554 464 11611800 498 52 46 3279
2.4958923 -2.3282666 -0.64142483 379 11611800 458 53 74 3473
1.1394458 -0.98746938 -0.29822242 95 11611800 22 54 108 1537
2.9988914 -2.4103897 -0.80098367 342 11611800 527 55 57 3930
2.309746 -2.3229203 -0.71064788 400 11611800 450 56 101 3352
2.5111451 -2.3449552 -0.77901632 368 11611800 456 57 54 3523
2.7548816 -2.3883686 -0.86390561 372 11611800 523 58 58 3747
2.9921923 -2.4054351 -0.95010197 393 11611800 615 59 71 3955
2.3247981 -2.343533 -0.84713191 397 11611800 461 60 50 3408
2.5424404 -2.3781698 -0.92839396 354 11611800 459 61 22 3603
2.7445326 -2.3803194 -1.0072352 297 11611800 421 62 50 3770
3.0151291 -2.4217956 -1.115584 301 11611800 487 63 47 4025
1.5008005 -1.5163615 0.66593629 37 11710960 18 0 44 2235
1.6039327 -1.5016428 0.65947354 225 11710960 118 1 55 2294
0 -0 0 7 11710960 0 2 23 0
0 -0 0 3 11710960 0 3 19 0
0 -0 0 7 11710960 0 4 53 0
0 -0 0 6 11710960 0 5 12 0
0 -0 0 5 11710960 0 6 62 0
1.0428402 -0.84030968 0.32014546 91 11710960 17 7 27 1377
1.7265815 -1.7420493 0.56521732 223 11710960 142 8 68 2517
1.8044022 -1.6895046 0.54375398 262 11710960 168 9 49 2531
1.8645785 -1.6216819 0.51876807 238 11710960 152 10 27 2525
1.1002169 -0.88812774 0.28304791 49 11710960 10 11 7 1442
2.1787479 -2.197576 0.59373355 325 11710960 323 12 86 3151
2.3814878 -2.2315602 0.59257436 231 11710960 254 13 25 3317
0 -0 0 0 11710960 0 14 66 0
1.106559 -0.89369398 0.23091015 54 11710960 11 15 26 1441
1.3471327 -1.3588216 0.29484484 14 11710960 5 16 24 1936
0 -0 0 8 11710960 0 17 53 0
2.6290696 -2.2899709 0.46941623 154 11710960 190 18 57 3518
1.1442409 -0.9252826 0.18399446 18 11710960 4 19 45 1483
1.9964309 -2.013824 0.33136278 46 11710960 38 20 72 2855
2.3789556 -2.2309036 0.34934309 326 11710960 351 21 77 3280
2.5814211 -2.2506084 0.33392987 343 11710960 406 22 55 3441
2.8313789 -2.29211 0.32120824 352 11710960 471 23 98 3657
1.9505906 -1.96834 0.221889 360 11710960 278 24 47 2780
2.3984206 -2.2503376 0.23188138 125 11710960 136 25 62 3297
2.5985627 -2.265713 0.21007943 353 11710960 421 26 104 3454
2.8512063 -2.3109632 0.18893977 346 11710960 468 27 64 3675
2.1887872 -2.2108641 0.13523349 375 11710960 363 28 52 3114
2.2594013 -2.1213851 0.10503199 41 11710960 39 29 45 3101
2.6599288 -2.3236351 0.087120265 310 11710960 387 30 27 3533
2.8530385 -2.3141816 0.054887589 408 11710960 551 31 70 3674
2.2371154 -2.2599163 0.022200407 334 11710960 338 32 73 3180
2.412226 -2.2665386 -0.0083766989 378 11710960 414 33 45 3310
2.6346631 -2.3021312 -0.041770253 293 11710960 359 34 85 3499
2.8527577 -2.3170097 -0.07884451 388 11710960 525 35 80 3676
2.2442172 -2.2693074 -0.09478002 357 11710960 364 36 109 3193
2.4232838 -2.2802756 -0.13015445 383 11710960 424 37 51 3330
2.6570861 -2.3236876 -0.1718342 385 11710960 481 38 140 3534
2.8897109 -2.3469391 -0.21654052 304 11710960 422 39 50 3729
2.2427046 -2.2713432 -0.21184309 436 11710960 446 40 88 3199
2.4287865 -2.2875326 -0.25280052 384 11710960 430 41 70 3346
2.6634393 -2.3305564 -0.30216557 366 11710960 462 42 122 3552
1.2505602 -1.0167921 -0.15295212 69 11710960 18 43 66 1619
2.2461441 -2.2764156 -0.33014312 424 11710960 438 44 103 3215
2.4325364 -2.2929075 -0.37661517 394 11710960 445 45 57 3364
2.6581485 -2.3283856 -0.43181968 414 11710960 525 46 61 3560
2.9001558 -2.359205 -0.49364984 382 11710960 543 47 112 3771
2.2405214 -2.2745252 -0.44808117 425 11710960 442 48 71 3224
2.4529219 -2.3141448 -0.50597245 392 11710960 455 49 37 3410
2.6691301 -2.3404758 -0.56740111 369 11710960 476 50 46 3595
2.9109616 -2.3693464 -0.636985 399 11710960 578 51 42 3807
2.2550435 -2.2933474 -0.57325995 425 11710960 454 52 81 3267
2.472985 -2.3354399 -0.63920861 355 11710960 426 53 80 3461
1.1333654 -0.99444228 -0.29822242 87 11710960 21 54 78 1537
2.9475987 -2.399081 -0.79120064 387 11710960 584 55 59 3882
2.2707965 -2.3119493 -0.70301563 443 11710960 487 56 104 3316
2.4797008 -2.3442397 -0.77370936 398 11710960 487 57 52 3499
2.6875215 -2.35901 -0.84730536 250 11710960 338 58 87 3675
2.9412415 -2.3943336 -0.93857104 411 11710960 628 59 74 3907
2.2778342 -2.3245456 -0.83520043 390 11710960 440 60 31 3360
2.4941244 -2.3618355 -0.9160257 397 11710960 501 61 22 3555
2.7385645 -2.4047446 -1.0104411 323 11710960 461 62 50 3782
2.9733784 -2.4184246 -1.1056062 288 11710960 458 63 35 3989
1.563539 -1.5992591 0.69811577 61 11808440 33 0 37 2343
1.578005 -1.4956431 0.65257406 215 11808440 111 1 58 2270
0 -0 0 7 11808440 0 2 27 0
0 -0 0 0 11808440 0 3 15 0
0 -0 0 6 11808440 0 4 43 0
1.1074259 -1.050543 0.39610156 8 11808440 2 5 25 1577
0 -0 0 5 11808440 0 6 53 0
1.11905 -0.91309983 0.3452549 72 11808440 16 7 46 1485
1.7731234 -1.8111005 0.58408034 242 11808440 163 8 56 2601
1.8110131 -1.7166697 0.54891008 238 11808440 155 9 51 2555
1.8457789 -1.6253309 0.51630259 238 11808440 150 10 37 2513
1.1038569 -0.9023087 0.2854034 34 11808440 7 11 16 1454
2.1652229 -2.2109032 0.59373355 300 11808440 298 12 84 3151
2.3506186 -2.2298791 0.58828682 322 11808440 349 13 38 3293
1.2683294 -1.1172807 0.29025739 11 11808440 3 14 52 1715
1.0827163 -0.8854695 0.22706431 35 11808440 7 15 36 1417
1.3802606 -1.4094296 0.30398259 14 11808440 5 16 24 1996
0 -0 0 7 11808440 0 17 36 0
2.5971296 -2.2903273 0.46621385 129 11808440 157 18 55 3494
1.1753929 -0.96246123 0.18994978 21 11808440 5 19 53 1531
1.8506094 -1.8897843 0.30907851 61 11808440 43 20 56 2663
2.3652222 -2.2454586 0.34934309 313 11808440 337 21 58 3280
2.5765169 -2.2743089 0.33509436 290 11808440 346 22 75 3453
2.7617946 -2.2639711 0.31488425 326 11808440 419 23 112 3585
1.9552114 -1.9973675 0.22380459 232 11808440 182 24 50 2804
2.3758886 -2.2567677 0.23103739 288 11808440 311 25 75 3285
2.5846117 -2.2816148 0.21007943 335 11808440 400 26 76 3454
2.8184457 -2.3132083 0.18770587 340 11808440 454 27 74 3651
2.158416 -2.2071099 0.13419124 438 11808440 418 28 48 3090
2.3158841 -2.2013102 0.10828356 37 11808440 37 29 36 3197
2.6096771 -2.3081217 0.085936628 312 11808440 379 30 34 3485
2.8016973 -2.3011813 0.054170493 394 11808440 519 31 66 3626
2.2148173 -2.2650211 0.022116635 332 11808440 334 32 77 3168
2.3982732 -2.281297 -0.0083766989 259 11808440 283 33 55 3310
2.6025136 -2.3023527 -0.041483749 302 11808440 365 34 91 3475
2.8384871 -2.33447 -0.07884451 390 11808440 528 35 59 3676
2.1883419 -2.2401342 -0.092999004 356 11808440 349 36 114 3133
2.3832009 -2.2702897 -0.12874737 368 11808440 399 37 47 3294
2.6248307 -2.3240564 -0.17066726 373 11808440 459 38 124 3510
2.8567507 -2.3494072 -0.21514685 386 11808440 529 39 54 3705
2.2036448 -2.2593465 -0.2094591 437 11808440 437 40 90 3163
2.3973849 -2.2858777 -0.25098726 398 11808440 440 41 75 3322
2.6222401 -2.3230696 -0.29910308 376 11808440 465 42 112 3516
1.2535204 -1.0320394 -0.15408579 81 11808440 21 43 49 1631
2.2321341 -2.2901549 -0.33014312 418 11808440 432 44 89 3215
2.4184215 -2.30779 -0.37661517 358 11808440 405 45 47 3364
2.6259885 -2.3288453 -0.42890856 426 11808440 533 46 81 3536
2.8672605 -2.3618279 -0.49050808 201 11808440 282 47 111 3747
2.2099483 -2.2711959 -0.44474554 409 11808440 419 48 71 3200
2.4215126 -2.3127594 -0.50241137 379 11808440 435 49 61 3386
2.6458576 -2.3489423 -0.56550711 383 11808440 491 50 40 3583
2.8872392 -2.3796384 -0.63497716 390 11808440 561 51 48 3795
2.2162359 -2.2817178 -0.56694305 453 11808440 473 52 70 3231
2.4245105 -2.3179703 -0.6303435 368 11808440 429 53 71 3413
2.676192 -2.3773763 -0.70801145 241 11808440 320 54 57 3649
2.878427 -2.3722913 -0.77652615 399 11808440 578 55 55 3810
2.2484016 -2.3174224 -0.70047152 402 11808440 439 56 96 3304
2.4399056 -2.3351355 -0.76574892 356 11808440 426 57 54 3463
1.1106572 -0.98702615 -0.35206401 130 11808440 30 58 96 1527
2.8905408 -2.3826985 -0.92704004 358 11808440 534 59 58 3859
2.2311921 -2.3050718 -0.82326907 412 11808440 452 60 23 3312
2.4544756 -2.3530228 -0.90674949 383 11808440 474 61 33 3519
2.6805465 -2.3830867 -0.99441087 320 11808440 443 62 55 3722
2.9139836 -2.3999734 -1.0889764 299 11808440 461 63 51 3929
1.5536968 -1.6088228 0.69811577 193 11906650 106 0 52 2343
1.5853845 -1.5212125 0.65947354 228 11906650 120 1 62 2294
0 -0 0 7 11906650 0 2 21 0
0 -0 0 6 11906650 0 3 32 0
0 -0 0 4 11906650 0 4 54 0
0 -0 0 6 11906650 0 5 23 0
0 -0 0 4 11906650 0 6 52 0
1.6622666 -1.3734188 0.51544112 53 11906650 26 7 44 2217
1.7701064 -1.8303519 0.58677506 252 11906650 172 8 70 2613
1.817358 -1.743979 0.55406624 249 11906650 165 9 46 2579
1.8796021 -1.6757019 0.52862978 250 11906650 165 10 35 2573
1.0711066 -0.88655704 0.278337 36 11906650 7 11 29 1418
2.0778699 -2.1479149 0.57338339 259 11906650 240 12 104 3043
2.3283763 -2.2360818 0.58614302 298 11906650 320 13 55 3281
0 -0 0 5 11906650 0 14 64 0
1.1867378 -0.98275387 0.25013933 28 11906650 7 15 44 1561
1.4375545 -1.4860663 0.31860298 10 11906650 4 16 23 2092
1.2975243 -1.2466578 0.25961345 15 11906650 5 17 63 1818
2.565285 -2.2903788 0.46301147 115 11906650 138 18 52 3470
1.1328001 -0.93925452 0.18399446 11 11906650 2 19 50 1483
1.8555527 -1.9182373 0.31186402 80 11906650 58 20 67 2687
2.3341944 -2.2433929 0.34678689 171 11906650 182 21 63 3256
2.571419 -2.298034 0.33625892 205 11906650 247 22 67 3465
2.7754447 -2.3037786 0.31804624 355 11906650 466 23 103 3621
1.9678637 -2.0351241 0.22667797 153 11906650 124 24 59 2840
2.318855 -2.2298186 0.22681755 352 11906650 366 25 52 3225
2.5348403 -2.2655034 0.20715997 363 11906650 421 26 90 3406
2.7581151 -2.29216 0.18462113 373 11906650 481 27 86 3591
2.1531622 -2.2289348 0.13471237 291 11906650 280 28 47 3102
2.3714683 -2.2820053 0.11153511 83 11906650 90 29 37 3293
2.5507805 -2.2840779 0.084457092 289 11906650 339 30 41 3425
2.7690744 -2.3029842 0.053811949 381 11906650 495 31 59 3602
2.1508579 -2.2267826 0.021613983 367 11906650 352 32 80 3096
2.3755865 -2.2876458 -0.0083463304 96 11906650 105 33 62 3298
2.5793996 -2.3102725 -0.041340493 316 11906650 379 34 82 3463
2.7872336 -2.3211334 -0.077814989 376 11906650 495 35 75 3628
2.1745553 -2.2535195 -0.092999004 369 11906650 362 36 110 3133
2.3605945 -2.2765462 -0.12827834 365 11906650 393 37 50 3282
2.5658967 -2.3001163 -0.16774985 341 11906650 406 38 113 3450
2.8238697 -2.3515594 -0.21375321 388 11906650 526 39 69 3681
2.173125 -2.2555797 -0.20786978 395 11906650 389 40 88 3139
2.3574862 -2.2756143 -0.24826735 372 11906650 402 41 77 3286
2.5634325 -2.2991986 -0.29399893 386 11906650 461 42 121 3456
2.8162515 -2.3477972 -0.3479448 374 11906650 507 43 54 3683
2.2014823 -2.2866099 -0.32767862 396 11906650 404 44 83 3191
2.3784869 -2.2977304 -0.37258479 416 11906650 460 45 56 3328
2.5939231 -2.3289983 -0.42599738 422 11906650 521 46 84 3512
1.2265073 -1.0229986 -0.21089098 91 11906650 24 47 91 1611
2.187736 -2.2761455 -0.44307777 431 11906650 438 48 65 3188
2.4072762 -2.327574 -0.50241137 342 11906650 392 49 41 3386
2.5873303 -2.325527 -0.55603731 406 11906650 504 50 32 3523
2.8362508 -2.3669879 -0.62694585 402 11906650 564 51 47 3747
2.1940148 -2.2867486 -0.5648374 437 11906650 453 52 72 3219
2.384819 -2.308197 -0.62369472 379 11906650 433 53 70 3377
2.6177907 -2.3543923 -0.69636977 398 11906650 513 54 63 3589
2.8367572 -2.3673265 -0.76918888 389 11906650 553 55 50 3774
2.2097969 -2.3057745 -0.69283926 412 11906650 440 56 84 3268
2.4003167 -2.3256321 -0.75778848 376 11906650 441 57 55 3427
1.1132604 -1.0016325 -0.35483071 110 11906650 26 58 63 1539
2.8490381 -2.3779969 -0.91839182 399 11906650 584 59 61 3823
2.2170064 -2.3187187 -0.82326907 407 11906650 446 60 28 3312
2.4233506 -2.3518884 -0.90056533 400 11906650 488 61 39 3495
2.6572788 -2.3917534 -0.99120486 250 11906650 345 62 72 3710
2.8903482 -2.4104238 -1.0856504 319 11906650 489 63 38 3917
1.5517026 -1.6266142 0.70169121 189 12003760 105 0 47 2355
1.551288 -1.5068867 0.64912432 215 12003760 110 1 63 2258
0 -0 0 3 12003760 0 2 29 0
0 -0 0 0 12003760 0 3 18 0
1.0980821 -1.1499283 0.42952272 9 12003760 3 4 61 1647
0 -0 0 3 12003760 0 5 15 0
0 -0 0 5 12003760 0 6 51 0
1.7791308 -1.4884385 0.55450034 198 12003760 112 7 27 2385
1.7669197 -1.8496342 0.58946979 249 12003760 172 8 67 2625
1.815029 -1.7632636 0.55664426 248 12003760 167 9 59 2591
1.8692847 -1.6872033 0.52862978 253 12003760 167 10 39 2573
1.0205557 -0.85532212 0.26655969 36 12003760 7 11 16 1358
1.6412724 -1.7175647 0.45580494 124 12003760 73 12 82 2419
2.2892156 -2.2256353 0.57971168 328 12003760 345 13 57 3245
0 -0 0 8 12003760 0 14 61 0
1.0173105 -0.85302556 0.21552682 31 12003760 6 15 30 1345
1.2645382 -1.3233647 0.28205201 12 12003760 4 16 28 1852
1.2302535 -1.1966277 0.24761812 15 12003760 4 17 56 1734
2.4894254 -2.2502515 0.45180312 96 12003760 109 18 55 3386
2.732044 -2.2936916 0.44602841 145 12003760 187 19 49 3595
1.8519818 -1.9382042 0.3132568 76 12003760 55 20 49 2699
0 -0 0 8 12003760 0 21 62 0
2.5307012 -2.2897296 0.33276531 105 12003760 123 22 45 3429
2.697201 -2.266928 0.3106682 397 12003760 497 23 92 3537
1.9388155 -2.0298605 0.2247624 158 12003760 125 24 51 2816
2.2965522 -2.2356548 0.22597356 343 12003760 354 25 70 3213
2.5297735 -2.2890508 0.20788984 181 12003760 211 26 106 3418
2.6981509 -2.2704599 0.18153641 348 12003760 434 27 82 3531
2.1063397 -2.2074103 0.13262784 405 12003760 377 28 45 3054
2.3316495 -2.2714074 0.11031578 230 12003760 244 29 25 3257
2.5544932 -2.3158007 0.085048907 328 12003760 390 30 36 3449
2.7181799 -2.2890162 0.053094853 394 12003760 497 31 53 3554
2.1288705 -2.231256 0.021530207 335 12003760 319 32 71 3084
2.3786902 -2.3189325 -0.0084070684 89 12003760 99 33 61 3322
2.5385089 -2.3018751 -0.040910732 314 12003760 369 34 69 3427
2.7454236 -2.3149903 -0.07704284 407 12003760 526 35 58 3592
2.1524112 -2.2581375 -0.092642799 378 12003760 368 36 97 3121
2.329422 -2.2742345 -0.12734029 366 12003760 388 37 51 3258
2.5517352 -2.3158169 -0.16774985 359 12003760 427 38 138 3450
2.7361193 -2.3070631 -0.20817855 403 12003760 518 39 46 3585
2.1344805 -2.2428505 -0.20548581 441 12003760 425 40 79 3103
2.3263626 -2.2733107 -0.24645406 390 12003760 415 41 74 3262
2.5404251 -2.3068466 -0.29297811 417 12003760 495 42 113 3444
2.7652774 -2.3342102 -0.3434101 414 12003760 546 43 46 3635
2.1545067 -2.2654765 -0.32274956 416 12003760 411 44 97 3143
2.3302424 -2.2789314 -0.36721098 427 12003760 459 45 49 3280
2.5619557 -2.3288465 -0.42308626 402 12003760 490 46 76 3488
1.2383854 -1.0458571 -0.21403275 59 12003760 16 47 108 1635
2.1737287 -2.2895265 -0.44307777 422 12003760 429 48 81 3188
2.3675075 -2.3173976 -0.49706975 380 12003760 426 49 49 3350
2.5730124 -2.3413587 -0.55603731 412 12003760 511 50 45 3523
2.8126371 -2.3767102 -0.62493801 143 12003760 200 51 87 3735
2.1799421 -2.3001678 -0.5648374 364 12003760 378 52 81 3219
2.3621874 -2.3145328 -0.6214785 409 12003760 464 53 59 3365
2.5771825 -2.3466337 -0.6893847 403 12003760 509 54 62 3553
2.8042312 -2.369523 -0.76429737 396 12003760 556 55 55 3750
2.1875453 -2.3107736 -0.69029516 431 12003760 457 56 93 3256
2.3860018 -2.3403165 -0.75778848 378 12003760 443 57 50 3427
2.6091154 -2.3766263 -0.83623844 241 12003760 317 58 39 3627
2.7988057 -2.3653574 -0.90686089 421 12003760 601 59 67 3775
2.1787946 -2.3069274 -0.81432045 401 12003760 430 60 35 3276
2.3840616 -2.3423355 -0.89128911 393 12003760 470 61 34 3459
1.1296737 -1.0294094 -0.42373338 162 12003760 41 62 108 1586
2.8490758 -2.405797 -1.0756725 314 12003760 472 63 53 3881
1.5259812 -1.619431 0.69454026 234 12101330 127 0 61 2331
1.5747924 -1.5486115 0.66292322 215 12101330 115 1 67 2306
0 -0 0 4 12101330 0 2 33 0
0 -0 0 6 12101330 0 3 20 0
0 -0 0 5 12101330 0 4 42 0
0 -0 0 4 12101330 0 5 27 0
0 -0 0 4 12101330 0 6 55 0
1.7877753 -1.5144145 0.56008017 252 12101330 146 7 47 2409
1.7715878 -1.8774506 0.59485918 257 12101330 181 8 67 2649
1.7874639 -1.7579316 0.55148816 252 12101330 166 9 61 2567
1.8675666 -1.7065634 0.53109521 279 12101330 186 10 37 2585
1.0870614 -0.92247427 0.2854034 26 12101330 5 11 19 1454
1.5983448 -1.6933223 0.44676042 145 12101330 82 12 73 2371
2.2418568 -2.206511 0.57113665 314 12101330 321 13 51 3197
1.3784872 -1.2601333 0.32072175 15 12101330 6 14 72 1895
1.2468245 -1.0585724 0.26552263 11 12101330 3 15 30 1657
1.4110693 -1.4949707 0.31677547 15 12101330 6 16 21 2080
0 -0 0 6 12101330 0 17 42 0
2.4580245 -2.2494264 0.44860074 78 12101330 88 18 50 3362
2.6634848 -2.2641394 0.43709543 323 12101330 401 19 65 3523
1.8564163 -1.9668667 0.31604233 166 12101330 123 20 69 2723
2.0004683 -1.970441 0.30077586 15 12101330 12 21 66 2824
2.472569 -2.2648783 0.32694265 138 12101330 156 22 45 3369
2.6650338 -2.267941 0.30856019 360 12101330 444 23 121 3513
1.991994 -2.1113226 0.23242474 145 12101330 123 24 40 2912
2.248688 -2.2160952 0.22259769 384 12101330 385 25 73 3165
2.4096951 -2.2074404 0.19913146 50 12101330 54 26 89 3274
2.6841688 -2.2869728 0.18153641 383 12101330 478 27 63 3531
2.0845325 -2.2115688 0.13210671 408 12101330 377 28 50 3042
2.2835119 -2.2519863 0.10868999 277 12101330 285 29 30 3209
2.4872065 -2.2827611 0.083273456 330 12101330 376 30 34 3377
2.6949532 -2.2978666 0.052915577 383 12101330 480 31 56 3542
2.0986795 -2.2268114 0.021362659 309 12101330 290 32 75 3060
2.3131711 -2.2829089 -0.0082248561 201 12101330 212 33 40 3250
2.5066586 -2.3011785 -0.040624227 295 12101330 342 34 76 3403
2.6946704 -2.3006325 -0.076013319 396 12101330 498 35 60 3544
2.1302927 -2.262569 -0.092286594 371 12101330 359 36 112 3109
2.298367 -2.2716267 -0.12640224 375 12101330 392 37 44 3234
2.5109997 -2.3071027 -0.16599944 375 12101330 437 38 118 3414
2.7219119 -2.3238082 -0.20817855 398 12101330 512 39 64 3585
2.1206784 -2.2559052 -0.20548581 409 12101330 394 40 90 3103
2.3038638 -2.2791271 -0.24554744 381 12101330 403 41 78 3250
2.5174205 -2.3142991 -0.29195726 385 12101330 453 42 105 3432
2.7236588 -2.3278487 -0.34000906 426 12101330 551 43 42 3599
2.1323926 -2.2699537 -0.32151729 411 12101330 403 44 87 3131
2.3246891 -2.3015761 -0.36855444 397 12101330 431 45 60 3292
2.5213237 -2.3203244 -0.41871953 394 12101330 470 46 105 3452
2.7419248 -2.3446198 -0.47637013 345 12101330 457 47 102 3639
2.1271229 -2.2681487 -0.43640658 411 12101330 406 48 81 3140
2.311096 -2.2901158 -0.48816699 389 12101330 421 49 39 3290
2.5324526 -2.3330162 -0.55035543 401 12101330 487 50 47 3487
1.1798799 -1.0094857 -0.26352808 101 12101330 25 51 61 1575
2.1657877 -2.3135004 -0.5648374 97 12101330 101 52 84 3219
2.3395681 -2.3206778 -0.61926222 367 12101330 413 53 74 3353
2.5367689 -2.3384664 -0.68239969 392 12101330 484 54 53 3517
2.7985659 -2.3943222 -0.76674312 319 12101330 451 55 56 3762
2.1573057 -2.3070214 -0.68520701 269 12101330 281 56 85 3232
2.3549883 -2.3384209 -0.75248158 363 12101330 421 57 65 3403
2.5687318 -2.3688431 -0.82793832 357 12101330 460 58 40 3591
2.7842395 -2.3824861 -0.90686089 412 12101330 587 59 48 3775
2.1566694 -2.3117537 -0.81133759 403 12101330 429 60 35 3264
2.3532028 -2.3405664 -0.88510501 374 12101330 441 61 38 3435
1.0638404 -0.9814344 -0.40129101 129 12101330 29 62 77 1502
2.8079698 -2.4007554 -1.0656946 314 12101330 465 63 74 3845
1.5238203 -1.6371487 0.69811577 208 12200310 114 0 48 2343
1.573406 -1.566354 0.66637295 241 12200310 130 1 63 2318
0 -0 0 4 12200310 0 2 27 0
1.0207213 -0.87366915 0.37530732 9 12200310 2 3 20 1395
0 -0 0 5 12200310 0 4 52 0
0 -0 0 7 12200310 0 5 27 0
0 -0 0 8 12200310 0 6 43 0
1.7873083 -1.5329537 0.56287009 252 12200310 148 7 67 2421
1.7520616 -1.8797315 0.59216446 225 12200310 157 8 78 2637
1.8015597 -1.793673 0.55922234 240 12200310 162 9 57 2603
1.8484395 -1.7100153 0.52862978 272 12200310 180 10 30 2573
1.1974024 -1.0288132 0.31602439 32 12200310 8 11 15 1610
1.5718513 -1.6858585 0.44223818 131 12200310 72 12 82 2347
2.2282758 -2.2202253 0.57113665 329 12200310 337 13 58 3197
1.4488499 -1.3408661 0.33900034 9 12200310 4 14 58 2003
0 -0 0 8 12200310 0 15 31 0
1.3533435 -1.451553 0.30581015 9 12200310 4 16 20 2008
1.3164157 -1.3122549 0.26818156 20 12200310 7 17 45 1878
2.4616239 -2.2806313 0.45180312 56 12200310 64 18 41 3386
2.6134427 -2.2493691 0.43114009 339 12200310 410 19 88 3475
1.8036745 -1.9346313 0.30907851 307 12200310 218 20 74 2663
2.0390344 -2.0332284 0.30844438 18 12200310 15 21 50 2896
2.4936545 -2.3124914 0.33160079 80 12200310 94 22 60 3417
2.632956 -2.268645 0.30645218 335 12200310 408 23 133 3489
1.9382256 -2.079752 0.22763577 171 12200310 139 24 70 2852
2.2265739 -2.2213969 0.2217537 452 12200310 450 25 70 3153
2.422452 -2.246619 0.20132105 38 12200310 42 26 85 3310
2.6519372 -2.2877433 0.18030252 402 12200310 495 27 76 3507
2.0709233 -2.2243176 0.13210671 384 12200310 355 28 48 3042
2.2526765 -2.2490082 0.10787711 274 12200310 278 29 34 3185
2.4555767 -2.2816479 0.082681641 234 12200310 263 30 34 3353
2.6535563 -2.2908368 0.05237776 380 12200310 468 31 61 3506
2.0931528 -2.2484295 0.021446431 339 12200310 320 32 77 3072
2.2821417 -2.2800963 -0.008164118 214 12200310 222 33 55 3226
2.4749131 -2.3001783 -0.040337723 334 12200310 382 34 63 3379
2.6623511 -2.3014319 -0.075498551 353 12200310 438 35 61 3520
2.0918636 -2.2492478 -0.091217987 351 12200310 332 36 98 3073
2.2759089 -2.2772052 -0.12593322 365 12200310 379 37 46 3222
2.479244 -2.3061397 -0.16483247 384 12200310 441 38 112 3390
2.6894758 -2.3247974 -0.20678487 400 12200310 507 39 56 3561
2.0823543 -2.2425523 -0.20310183 421 12200310 396 40 86 3067
2.2560167 -2.2593513 -0.24192089 350 12200310 359 41 76 3202
2.4506588 -2.2808273 -0.28583229 408 12200310 461 42 112 3360
2.6822233 -2.3210652 -0.33660802 420 12200310 533 43 49 3563
2.1103053 -2.2742453 -0.32028505 437 12200310 425 44 82 3119
2.2936785 -2.2989137 -0.36586753 365 12200310 389 45 44 3268
2.4721787 -2.3032727 -0.41289723 374 12200310 434 46 91 3404
2.7005043 -2.3380389 -0.47165748 406 12200310 527 47 93 3603
2.0970142 -2.2637222 -0.43307099 401 12200310 390 48 68 3116
2.2970004 -2.3042533 -0.48816699 379 12200310 410 49 56 3290
2.4660959 -2.3000185 -0.53899157 381 12200310 445 50 59 3415
2.7385485 -2.3723149 -0.61489886 63 12200310 86 51 68 3675
2.0713446 -2.2400081 -0.54378104 27 12200310 26 52 93 3099
2.291997 -2.3015625 -0.6103971 369 12200310 403 53 79 3305
2.5051599 -2.337924 -0.67774296 395 12200310 481 54 56 3493
2.7483027 -2.3806808 -0.75696015 103 12200310 142 55 104 3714
2.1908522 -2.3719029 -0.70047152 40 12200310 44 56 98 3304
2.2910738 -2.303046 -0.7365607 385 12200310 427 57 56 3331
2.5200078 -2.3526862 -0.81687152 362 12200310 454 58 51 3543
2.7431567 -2.376642 -0.89821267 403 12200310 564 59 71 3739
2.1424441 -2.3249433 -0.81133759 404 12200310 430 60 36 3264
2.3142858 -2.3302805 -0.8758288 390 12200310 450 61 38 3399
2.5620975 -2.3929019 -0.97196853 209 12200310 276 62 49 3638
2.7757514 -2.4028471 -1.0590427 330 12200310 482 63 66 3821
1.5525105 -1.6886309 0.71599323 167 12298800 97 0 65 2403
1.5556699 -1.5678201 0.66292322 226 12298800 120 1 65 2306
0 -0 0 7 12298800 0 2 27 0
0 -0 0 3 12298800 0 3 17 0
0 -0 0 7 12298800 0 4 51 0
0 -0 0 7 12298800 0 5 27 0
0 -0 0 5 12298800 0 6 58 0
1.7954932 -1.5591967 0.56845003 268 12298800 160 7 64 2445
1.6771321 -1.8216249 0.57060671 181 12298800 117 8 58 2541
1.7740113 -1.788054 0.55406624 271 12298800 180 9 44 2579
1.8550555 -1.7373807 0.53356063 252 12298800 170 10 39 2597
1.910146 -1.6616868 0.50681674 92 12298800 61 11 20 2582
1.5934123 -1.7301466 0.45128271 89 12298800 51 12 86 2395
2.1896729 -2.2087016 0.56470531 318 12298800 317 13 56 3161
0 -0 0 8 12298800 0 14 57 0
0 -0 0 5 12298800 0 15 38 0
1.5613383 -1.6953797 0.35515401 12 12298800 6 16 22 2332
1.5424187 -1.5565287 0.31616291 11 12298800 5 17 48 2214
2.3695157 -2.2224691 0.43739238 50 12298800 53 18 34 3278
2.6085687 -2.2731855 0.43262893 338 12298800 411 19 70 3487
1.7998439 -1.9544296 0.31047127 319 12298800 229 20 68 2675
1.9593428 -1.9778882 0.29821971 135 12298800 106 21 63 2800
1.8611965 -1.7473444 0.24891894 20 12298800 13 22 37 2565
2.600971 -2.2690415 0.30434418 352 12298800 423 23 98 3465
1.9578334 -2.1268079 0.23146693 158 12298800 132 24 57 2900
2.1876354 -2.2094982 0.21922179 333 12298800 324 25 70 3117
2.4435501 -2.294235 0.20424052 91 12298800 103 26 80 3358
2.6017461 -2.272438 0.17783472 377 12298800 451 27 75 3459
2.0410056 -2.2193339 0.13106444 407 12298800 370 28 38 3018
2.1882234 -2.2116356 0.10543844 229 12298800 222 29 31 3113
2.3628888 -2.2226963 0.080018468 50 12298800 52 30 29 3245
2.6213818 -2.2912827 0.052019212 384 12298800 465 31 56 3482
2.046828 -2.225899 0.021111332 361 12298800 330 32 76 3024
2.2427979 -2.2684562 -0.0080730123 324 12298800 330 33 60 3190
2.434536 -2.2906532 -0.039907962 307 12298800 344 34 77 3343
2.6391516 -2.309823 -0.075241171 384 12298800 473 35 59 3508
2.0536792 -2.2355413 -0.090149373 365 12298800 337 36 98 3037
2.2450452 -2.274061 -0.12499517 336 12298800 343 37 56 3198
2.421418 -2.2802236 -0.16191508 343 12298800 380 38 117 3330
2.6300862 -2.3018076 -0.20330071 364 12298800 446 39 49 3501
2.0685549 -2.2552872 -0.20310183 403 12298800 379 40 78 3067
2.2505138 -2.2816703 -0.24282752 338 12298800 349 41 82 3214
2.4192133 -2.2794225 -0.28379062 390 12298800 434 42 106 3336
2.6409748 -2.3138616 -0.33320698 409 12298800 508 43 55 3527
2.0640497 -2.2519526 -0.31535599 423 12298800 399 44 77 3071
2.2376778 -2.270479 -0.35915026 370 12298800 381 45 70 3208
2.4666648 -2.3265712 -0.4143528 403 12298800 471 46 81 3416
2.6771612 -2.3467228 -0.47008657 406 12298800 524 47 95 3591
2.0590184 -2.2502451 -0.42806759 407 12298800 386 48 75 3080
2.2578394 -2.2929366 -0.48282537 381 12298800 403 49 52 3254
2.4691684 -2.331377 -0.54277951 410 12298800 484 50 50 3439
2.6705737 -2.3422673 -0.60285187 353 12298800 458 51 43 3603
2.1770709 -2.383518 -0.57536554 27 12298800 30 52 62 3279
2.2695613 -2.3071754 -0.60818088 415 12298800 450 53 65 3293
2.4565399 -2.3209136 -0.66842955 365 12298800 434 54 66 3445
1.1438023 -1.0031539 -0.31672481 122 12298800 30 55 64 1554
1.1487266 -1.2590693 -0.36974043 47 12298800 14 56 92 1744
2.2851021 -2.3254077 -0.73921418 389 12298800 435 57 59 3343
2.4800663 -2.3440423 -0.8085714 376 12298800 462 58 55 3507
2.7110083 -2.3780661 -0.89244723 360 12298800 497 59 84 3715
2.1203141 -2.3294494 -0.80835474 336 12298800 355 60 45 3252
2.2593448 -2.3030524 -0.86036849 392 12298800 437 61 24 3339
2.5221591 -2.3847435 -0.96235037 365 12298800 473 62 53 3602
2.743614 -2.4046345 -1.0523907 316 12298800 455 63 52 3797
1.5498211 -1.7066052 0.71956873 46 12396540 27 0 56 2415
1.5460207 -1.577336 0.66292322 227 12396540 120 1 57 2306
0 -0 0 0 12396540 0 2 30 0
0 -0 0 3 12396540 0 3 23 0
1.2020044 -1.3222572 0.48272407 12 12396540 4 4 41 1851
0 -0 0 5 12396540 0 5 22 0
0 -0 0 3 12396540 0 6 68 0
1.7858924 -1.5701844 0.56845003 265 12396540 158 7 48 2445
1.5321774 -1.6848117 0.52479649 144 12396540 78 8 48 2337
1.8286322 -1.8658674 0.57469064 263 12396540 188 9 46 2675
1.8614047 -1.7648911 0.53849149 248 12396540 170 10 41 2621
1.9440641 -1.7122617 0.51859409 215 12396540 150 11 31 2642
1.5669055 -1.7224557 0.44676042 54 12396540 31 12 86 2371
2.1678185 -2.2136598 0.56256151 274 12396540 271 13 42 3149
1.5438374 -1.4643526 0.36540279 16 12396540 7 14 56 2159
1.2804496 -1.1283296 0.27706012 9 12396540 3 15 38 1729
1.375332 -1.5119174 0.3149479 8 12396540 3 16 25 2068
0 -0 0 5 12396540 0 17 58 0
2.3558342 -2.2369661 0.43739238 36 12396540 38 18 54 3278
2.5320697 -2.234004 0.42220712 347 12396540 402 19 68 3403
1.7958379 -1.9742533 0.31186402 263 12396540 190 20 82 2687
1.9137897 -1.9557611 0.29310736 334 12396540 253 21 58 2752
2.0062666 -1.9068353 0.26988053 25 12396540 19 22 41 2781
2.5601215 -2.2612183 0.30118215 231 12396540 272 23 93 3429
1.9769357 -2.1741815 0.23529813 135 12396540 117 24 55 2948
2.174037 -2.2228796 0.21922179 333 12396540 323 25 52 3117
2.3773367 -2.2596731 0.19986133 211 12396540 228 26 84 3286
2.5877535 -2.2883592 0.17783472 369 12396540 442 27 60 3459
2.0112276 -2.2140675 0.1300222 408 12396540 365 28 51 2994
2.19976 -2.2507515 0.10665777 339 12396540 336 29 44 3149
2.3057694 -2.1957881 0.078538924 38 12396540 38 30 51 3185
2.5533607 -2.2596138 0.050943568 386 12396540 449 31 68 3410
2.0331316 -2.2384162 0.021111332 360 12396540 330 32 73 3024
2.1869149 -2.2392502 -0.0079211686 349 12396540 342 33 66 3130
2.3943698 -2.2807202 -0.039478201 291 12396540 319 34 70 3307
2.6069708 -2.31006 -0.07472641 373 12396540 453 35 70 3484
2.0399234 -2.2481003 -0.090149373 337 12396540 311 36 113 3037
2.1975627 -2.2534552 -0.12311906 353 12396540 351 37 73 3150
2.4073813 -2.2950382 -0.16191508 354 12396540 392 38 120 3330
2.5890141 -2.2940676 -0.20121022 381 12396540 458 39 69 3465
2.0385995 -2.25019 -0.20151252 426 12396540 395 40 82 3043
2.2114208 -2.2697251 -0.24010761 367 12396540 371 41 87 3178
2.4051816 -2.2942235 -0.28379062 402 12396540 447 42 118 3336
2.6267273 -2.3300228 -0.33320698 394 12396540 491 43 58 3527
2.042182 -2.2557263 -0.31412375 418 12396540 392 44 79 3059
2.2320223 -2.2927105 -0.36049372 380 12396540 394 45 55 3220
2.4264984 -2.3169847 -0.40998611 420 12396540 480 46 71 3380
2.62712 -2.3315184 -0.46380308 387 12396540 486 47 86 3543
2.037204 -2.2540202 -0.4263998 425 12396540 400 48 63 3068
2.2354534 -2.2982404 -0.4810448 358 12396540 376 49 46 3242
2.4291196 -2.3219204 -0.53709763 411 12396540 476 50 42 3403
2.6207657 -2.3271875 -0.5948205 406 12396540 514 51 71 3555
2.0832684 -2.3091156 -0.55430919 96 12396540 95 52 48 3159
2.2307057 -2.2956831 -0.60153204 393 12396540 417 53 64 3257
2.4422529 -2.3359427 -0.66842955 351 12396540 417 54 59 3445
2.7013116 -2.3986266 -0.75206858 98 12396540 134 55 69 3690
1.2430395 -1.3793457 -0.40281352 37 12396540 13 56 95 1900
2.2381856 -2.3057952 -0.72860026 412 12396540 448 57 61 3295
2.4487634 -2.3430703 -0.80303794 374 12396540 453 58 49 3483
2.6876559 -2.3869205 -0.88956445 113 12396540 155 59 117 3703
2.1292944 -2.3683465 -0.8173033 107 12396540 115 60 49 3288
2.237102 -2.3085454 -0.85727638 384 12396540 425 61 33 3327
2.4657109 -2.3601933 -0.94632006 364 12396540 456 62 39 3542
2.6856873 -2.3831606 -1.0357609 337 12396540 470 63 40 3737
1.5316715 -1.7075554 0.71599323 32 12493080 18 0 56 2403
1.5523027 -1.6033074 0.66982269 229 12493080 125 1 59 2330
0 -0 0 5 12493080 0 2 24 0
0 -0 0 7 12493080 0 3 35 0
1.0622915 -1.1830707 0.42952272 20 12493080 5 4 38 1647
0 -0 0 4 12493080 0 5 24 0
0 -0 0 3 12493080 0 6 72 0
1.7762243 -1.5811129 0.56845003 272 12493080 163 7 58 2445
1.5296249 -1.7028806 0.52749127 106 12493080 59 8 73 2349
1.792694 -1.8517913 0.56695646 255 12493080 177 9 42 2639
1.8505405 -1.7762793 0.53849149 255 12493080 175 10 40 2621
1.9071751 -1.7006645 0.51152772 200 12493080 136 11 34 2606
1.564184 -1.7408038 0.44902158 75 12493080 43 12 85 2383
2.1213586 -2.1929748 0.55398643 162 12493080 155 13 55 3101
1.2959623 -1.2444342 0.30853602 14 12493080 4 14 57 1823
1.3530501 -1.2071344 0.29436639 10 12493080 3 15 31 1837
1.3422492 -1.4938617 0.30946526 13 12493080 5 16 25 2032
1.4158758 -1.4643399 0.29388586 12 12493080 5 17 57 2058
2.2306054 -2.1442361 0.41657689 20 12493080 19 18 45 3122
2.5271947 -2.257431 0.42369595 323 12493080 376 19 55 3415
1.7358952 -1.9320395 0.30350742 264 12493080 180 20 52 2615
1.9183384 -1.9846251 0.29566351 364 12493080 281 21 73 2776
2.0978053 -2.018481 0.28385493 23 12493080 19 22 55 2925
2.1184909 -1.8944156 0.25058988 30 12493080 25 23 101 2853
1.9875363 -2.2129688 0.2381715 118 12493080 105 24 46 2984
2.1437228 -2.2189596 0.21753386 345 12493080 330 25 62 3093
2.3547959 -2.2659125 0.19913146 288 12493080 309 26 73 3274
2.5379496 -2.2722194 0.17536695 364 12493080 424 27 70 3411
1.9655787 -2.1906731 0.12793766 391 12493080 339 28 47 2946
2.1775782 -2.2555783 0.10625133 331 12493080 325 29 36 3137
2.3613443 -2.2765038 0.08090619 53 12493080 57 30 33 3281
2.5305116 -2.2672317 0.050764296 355 12493080 410 31 73 3398
2.0193586 -2.250849 0.021111332 310 12493080 284 32 80 3024
2.156471 -2.2353542 -0.0078604314 354 12493080 342 33 68 3106
2.3716929 -2.2870398 -0.039334949 277 12493080 301 34 66 3295
2.5659566 -2.3019779 -0.073954262 341 12493080 406 35 78 3448
2.0100799 -2.2427106 -0.089436963 354 12493080 321 36 107 3013
2.1587379 -2.2409894 -0.12171199 368 12493080 357 37 38 3114
2.3587563 -2.2764723 -0.15958117 359 12493080 387 38 114 3282
2.5748892 -2.3099103 -0.20121022 388 12493080 466 39 67 3465
2.008785 -2.2448106 -0.19992319 401 12493080 366 40 75 3019
2.1642623 -2.2487655 -0.23648106 371 12493080 364 41 72 3130
2.3652563 -2.2840219 -0.28072813 396 12493080 431 42 87 3300
2.5590522 -2.2982032 -0.32640493 439 12493080 523 43 54 3455
2.0044324 -2.2415209 -0.31042698 363 12493080 332 44 83 3023
2.1848505 -2.2719822 -0.35511991 371 12493080 374 45 69 3172
2.3865435 -2.3069937 -0.40561938 369 12493080 413 46 94 3344
2.5773673 -2.3157892 -0.45751953 390 12493080 477 47 97 3495
2.0075073 -2.2487481 -0.4230642 443 12493080 411 48 72 3044
2.2295315 -2.320471 -0.48282537 361 12493080 382 49 45 3254
2.3977959 -2.3203011 -0.5333097 399 12493080 455 50 40 3379
2.6152351 -2.3511341 -0.59682834 409 12493080 520 51 56 3567
2.0297625 -2.2777553 -0.54378104 310 12493080 297 52 55 3099
2.1920776 -2.283802 -0.59488326 402 12493080 417 53 74 3221
2.4109597 -2.3345065 -0.66377288 375 12493080 439 54 71 3421
2.6428595 -2.3758855 -0.73983985 362 12493080 478 55 59 3630
1.8583266 -2.0877199 -0.60634035 34 12493080 28 56 94 2860
2.1996968 -2.2941432 -0.72063982 374 12493080 397 57 49 3259
2.4007921 -2.3255546 -0.79197109 357 12493080 421 58 57 3435
1.0791452 -0.97030342 -0.35914096 144 12493080 32 59 72 1495
1.111387 -1.2515213 -0.42953166 58 12493080 17 60 46 1728
2.2228949 -2.3222287 -0.85727638 392 12493080 434 61 32 3327
2.4345739 -2.3591838 -0.93990797 350 12493080 433 62 44 3518
2.6624367 -2.3918893 -1.0324349 324 12493080 450 63 64 3725
1.3616424 -1.5368696 0.64090776 32 12590210 15 0 45 2151
1.5662675 -1.6377208 0.68017191 211 12590210 118 1 74 2366
0.92805618 -0.90015221 0.37437138 8 12590210 1 2 25 1346
0.97319299 -0.87526977 0.36562198 10 12590210 2 3 30 1359
0.99351805 -1.1202292 0.40448681 13 12590210 3 4 49 1551
0 -0 0 6 12590210 0 5 25 0
0 -0 0 0 12590210 0 6 62 0
1.7404796 -1.5685415 0.56008017 274 12590210 159 7 49 2409
1.55019 -1.7472222 0.53827012 68 12590210 39 8 63 2397
1.7731979 -1.8542857 0.56437838 249 12590210 172 9 50 2627
1.8396066 -1.7876005 0.53849149 257 12590210 176 10 38 2621
1.9141717 -1.7281045 0.51623857 216 12590210 149 11 39 2630
1.490891 -1.6798545 0.43093258 63 12590210 33 12 88 2287
1.9039419 -1.9925398 0.50039214 18 12590210 14 13 50 2801
1.3137432 -1.2770939 0.31462887 10 12590210 4 14 77 1859
1.3719881 -1.2392324 0.30013514 17 12590210 6 15 42 1873
1.4511436 -1.6351268 0.33687851 14 12590210 7 16 29 2212
1.4560839 -1.5245335 0.3041676 16 12590210 7 17 48 2130
1.8679626 -1.817819 0.35092801 23 12590210 16 18 61 2630
2.4868014 -2.2489347 0.41922948 332 12590210 380 19 58 3379
1.7635643 -1.9872278 0.31047127 139 12590210 100 20 74 2675
1.8814058 -1.9704692 0.29182929 343 12590210 258 21 67 2740
2.282155 -2.2229877 0.3106392 207 12590210 213 22 67 3201
2.1422732 -1.9394692 0.25480589 22 12590210 19 23 86 2901
1.9580442 -2.2072258 0.2362559 82 12590210 71 24 54 2960
2.113539 -2.214752 0.21584591 341 12590210 321 25 57 3069
2.315109 -2.255245 0.19694187 324 12590210 340 26 94 3238
2.5062008 -2.2716525 0.17413305 321 12590210 369 27 70 3387
1.9600515 -2.2116649 0.1284588 377 12590210 330 28 46 2958
2.122313 -2.2255011 0.10421911 315 12590210 298 29 28 3077
2.3301611 -2.2741919 0.080314375 186 12590210 197 30 19 3257
2.4898911 -2.2585318 0.050226476 417 12590210 471 31 49 3362
1.9816346 -2.2362545 0.020860007 337 12590210 301 32 74 2988
2.1427145 -2.248544 -0.0078604314 343 12590210 331 33 53 3106
2.3232708 -2.2680213 -0.038761936 247 12590210 261 34 78 3247
2.525141 -2.2934804 -0.073182121 359 12590210 418 35 80 3412
1.9803796 -2.2370396 -0.088724554 333 12590210 298 36 106 2989
2.1614783 -2.2715664 -0.12265005 326 12590210 322 37 58 3138
2.3190246 -2.2657738 -0.15783073 365 12590210 384 38 129 3246
2.5429313 -2.3095577 -0.19981657 354 12590210 419 39 57 3441
1.9791139 -2.239151 -0.19833386 391 12590210 351 40 88 2995
2.1586678 -2.2706752 -0.2373877 381 12590210 377 41 67 3142
2.3340979 -2.2817755 -0.27868649 386 12590210 414 42 121 3276
2.5449026 -2.3138621 -0.32640493 416 12590210 497 43 68 3455
1.9906411 -2.2537775 -0.31042698 385 12590210 352 44 81 3023
2.1544435 -2.2680542 -0.352433 385 12590210 381 45 52 3148
2.3468034 -2.2966006 -0.40125266 376 12590210 412 46 75 3308
2.5631092 -2.3315601 -0.45751953 376 12590210 459 47 94 3495
1.9779528 -2.2431967 -0.41972864 399 12590210 363 48 56 3020
2.158066 -2.2738538 -0.4703615 378 12590210 379 49 42 3170
2.3496549 -2.3018007 -0.52573383 384 12590210 426 50 49 3331
2.5657618 -2.3352828 -0.58879697 405 12590210 501 51 47 3519
2.0001373 -2.2724307 -0.53956974 401 12590210 379 52 80 3075
2.1861374 -2.3057675 -0.59709948 383 12590210 401 53 77 3233
2.3881834 -2.3410153 -0.66144454 376 12590210 437 54 68 3409
2.5847898 -2.352519 -0.72761112 428 12590210 545 55 38 3570
2.0468068 -2.328074 -0.6724866 128 12590210 129 56 72 3172
2.1855788 -2.3075972 -0.72063982 385 12590210 408 57 54 3259
2.3864777 -2.3402419 -0.79197109 345 12590210 407 58 45 3435
2.6237063 -2.3883569 -0.87803352 90 12590210 121 59 84 3655
1.1650029 -1.3282237 -0.45339453 56 12590210 19 60 31 1824
2.192672 -2.3189743 -0.85109228 413 12590210 450 61 28 3303
2.387033 -2.3416855 -0.92708379 352 12590210 423 62 44 3470
2.6391807 -2.4004226 -1.029109 116 12590210 160 63 87 3713
1.4804275 -1.6917413 0.70169121 53 12687790 29 0 35 2355
1.5561891 -1.6473004 0.68017191 205 12687790 115 1 75 2366
0 -0 0 5 12687790 0 2 31 0
0 -0 0 4 12687790 0 3 17 0
0 -0 0 8 12687790 0 4 41 0
0 -0 0 5 12687790 0 5 20 0
0 -0 0 0 12687790 0 6 53 0
1.7739314 -1.6185236 0.57402986 299 12687790 183 7 63 2469
1.3159419 -1.5016606 0.46012324 14 12687790 6 8 58 2049
1.7456914 -1.8480914 0.55922234 211 12687790 143 9 53 2603
1.8453478 -1.8153263 0.5434224 262 12687790 183 10 41 2645
1.9295882 -1.7636321 0.523305 253 12687790 180 11 27 2666
1.4261756 -1.626936 0.41510469 123 12687790 60 12 80 2203
1.5594034 -1.6521465 0.41249746 14 12687790 7 13 43 2309
1.3648894 -1.3432002 0.32884556 9 12687790 4 14 60 1943
1.4168057 -1.2955875 0.3116726 17 12687790 6 15 40 1945
1.3863585 -1.5815697 0.32408565 12 12687790 5 16 29 2128
1.3081447 -1.3865746 0.27503607 19 12687790 7 17 47 1926
1.8313576 -1.8042073 0.34612441 20 12687790 13 18 45 2594
2.4641731 -2.2561102 0.41774064 376 12687790 427 19 65 3367
1.7591941 -2.0069742 0.31186402 142 12687790 102 20 55 2687
1.82016 -1.9298952 0.28416079 324 12687790 231 21 70 2668
2.0303569 -2.0021427 0.27803227 330 12687790 271 22 68 2865
2.2096417 -2.025269 0.26429194 36 12687790 33 23 80 3009
1.9523472 -2.2281954 0.2372137 158 12687790 139 24 49 2972
2.0752773 -2.2015476 0.213314 384 12687790 354 25 62 3033
2.2500575 -2.2189453 0.19256267 342 12687790 343 26 99 3166
2.4392362 -2.2383711 0.17043138 57 12687790 63 27 64 3315
1.9859257 -2.2687542 0.13106444 241 12687790 220 28 58 3018
2.1168413 -2.2472115 0.10462555 305 12687790 291 29 29 3089
2.3076293 -2.2800152 0.080018468 279 12687790 293 30 38 3245
2.4936609 -2.2899985 0.050585024 395 12687790 453 31 77 3386
1.9520698 -2.2303123 0.020692457 333 12687790 292 32 57 2964
2.1042027 -2.2354355 -0.0077693253 342 12687790 323 33 68 3070
2.3093107 -2.282234 -0.038761936 242 12687790 256 34 75 3247
2.5110209 -2.3089314 -0.073182121 365 12687790 424 35 44 3412
1.9587207 -2.2401192 -0.088368349 335 12687790 297 36 113 2977
2.0982261 -2.2323627 -0.1198359 379 12687790 356 37 51 3066
2.3221216 -2.296818 -0.1589977 382 12687790 408 38 123 3270
2.4846194 -2.2845745 -0.1963324 370 12687790 423 39 69 3381
1.9495887 -2.2332125 -0.19674455 381 12687790 336 40 90 2971
2.1119301 -2.2489872 -0.23376115 369 12687790 354 41 72 3094
2.3115547 -2.2876437 -0.27766564 398 12687790 424 42 116 3264
2.4954987 -2.297071 -0.32187021 392 12687790 455 43 69 3407
1.9610807 -2.2479599 -0.30796245 388 12687790 349 44 87 2999
2.1404865 -2.2812309 -0.352433 396 12687790 392 45 57 3148
2.3157439 -2.2941909 -0.39834154 384 12687790 415 46 73 3284
2.5487549 -2.3472431 -0.45751953 381 12687790 465 47 130 3495
1.9485424 -2.2373681 -0.41639301 414 12687790 372 48 68 2996
2.1278405 -2.2697375 -0.46680042 343 12687790 339 49 45 3146
2.3270736 -2.3078308 -0.52383989 413 12687790 455 50 41 3319
2.5339837 -2.3349481 -0.58478135 396 12687790 484 51 64 3495
1.955153 -2.2489974 -0.53114718 404 12687790 370 52 86 3027
2.188072 -2.3363543 -0.60153204 101 12687790 107 53 82 3257
2.3152828 -2.2975807 -0.64514607 391 12687790 433 54 59 3325
2.5530269 -2.3524132 -0.72271961 429 12687790 539 55 36 3546
2.0017271 -2.3051703 -0.66231024 280 12687790 274 56 79 3124
2.1473927 -2.295326 -0.71267939 363 12687790 377 57 66 3223
2.3472133 -2.3301613 -0.78367096 365 12687790 421 58 48 3399
2.5661731 -2.3649404 -0.86361986 382 12687790 494 59 72 3595
1.7733004 -2.0469463 -0.69500613 28 12687790 22 60 42 2796
2.1625731 -2.3154371 -0.84490806 400 12687790 430 61 25 3279
2.3562095 -2.3399909 -0.92067164 383 12687790 454 62 51 3446
1.0976831 -1.0107555 -0.4304353 155 12687790 37 63 64 1553
1.4625288 -1.6921269 0.69811577 36 12785260 20 0 45 2343
1.5617348 -1.6736242 0.68707132 247 12785260 141 1 49 2390
0 -0 0 4 12785260 0 2 22 0
0 -0 0 0 12785260 0 3 29 0
0 -0 0 7 12785260 0 4 63 0
0 -0 0 4 12785260 0 5 34 0
0 -0 0 0 12785260 0 6 53 0
1.7553935 -1.6214585 0.57123989 292 12785260 176 7 53 2457
0 -0 0 6 12785260 0 8 62 0
1.5744123 -1.6873871 0.50766128 149 12785260 83 9 36 2363
1.8175315 -1.8100407 0.53849149 257 12785260 176 10 35 2621
1.9187304 -1.7754385 0.523305 221 12785260 157 11 29 2666
1.4161661 -1.6356562 0.41510469 125 12785260 61 12 78 2203
1.4928765 -1.6012326 0.39749107 13 12785260 6 13 32 2225
0 -0 0 8 12785260 0 14 68 0
1.2262974 -1.1352731 0.27129138 11 12785260 3 15 33 1693
1.4076799 -1.6259122 0.33139586 11 12785260 5 16 26 2176
1.3481959 -1.4467088 0.28531778 11 12785260 4 17 49 1998
1.7192055 -1.7146319 0.32691011 10 12785260 6 18 45 2450
2.4328179 -2.2549987 0.41476297 338 12785260 377 19 51 3343
1.7312438 -1.9997087 0.30907851 133 12785260 95 20 66 2663
1.8164173 -1.9497572 0.28543884 312 12785260 224 21 70 2680
1.9842237 -1.9808111 0.27337414 351 12785260 278 22 52 2817
2.4337583 -2.2583199 0.29275012 42 12785260 47 23 95 3333
1.8838452 -2.1768184 0.23050916 325 12785260 272 24 59 2888
2.0698869 -2.2230003 0.21415795 320 12785260 297 25 72 3045
2.2363999 -2.2327094 0.19256267 427 12785260 428 26 101 3166
2.2586372 -2.0983181 0.15870939 33 12785260 32 27 66 3087
1.948445 -2.2536895 0.12950106 160 12785260 142 28 50 2982
2.0785036 -2.2338173 0.10340622 304 12785260 283 29 57 3053
