# .PCD v0.7 - Point Cloud Data file format
VERSION 0.7
FIELDS x y z intensity t reflectivity ring noise range
SIZE 4 4 4 4 4 2 1 2 4
TYPE F F F F U U U U U
COUNT 1 1 1 1 1 1 1 1 1
WIDTH 764
HEIGHT 1
VIEWPOINT 0 0 0 1 0 0 0
POINTS 764
DATA ascii
-0.048801821 5.8587189 1.2888108 762 74525950 2742 9 124 5999
-0.2639389 5.8592105 1.2312781 834 74525950 2997 10 78 5993
-0.48041055 5.8655977 1.1781232 870 74525950 3135 11 72 6002
0.16981012 5.8851638 1.12962 857 74525950 3080 12 129 5995
-0.046382468 5.8373723 1.0599166 850 74525950 2994 13 79 5933
-0.26228395 5.8474436 1.0051538 809 74525950 2853 14 103 5939
-0.47630334 5.8329692 0.95008069 808 74525950 2841 15 73 5929
0.16885455 5.848506 0.90159166 887 74525950 3111 16 58 5920
-0.045057986 5.8373795 0.84224433 834 74525950 2902 17 109 5898
-0.25858769 5.8355689 0.78645229 818 74525950 2843 18 68 5894
-0.47186217 5.8224254 0.73039472 865 74525950 2999 19 88 5887
0.16896369 5.8487473 0.68373317 845 74525950 2933 20 110 5891
-0.044239189 5.8503647 0.62668741 857 74525950 2968 21 81 5884
-0.2561866 5.8436484 0.57033008 800 74525950 2765 22 61 5877
-0.46781835 5.8115807 0.51409131 823 74525950 2818 23 159 5853
0.1702629 5.8547783 0.46899992 848 74525950 2929 24 90 5876
-0.042707164 5.8503208 0.41249144 854 74525950 2938 25 93 5865
-0.25519153 5.8255982 0.35532254 849 74525950 2897 26 110 5842
-0.46412307 5.8087716 0.29999009 893 74525950 3040 27 96 5835
0.17274655 5.841928 0.25405139 792 74525950 2712 28 72 5850
-0.040548064 5.8335104 0.19770131 781 74525950 2660 29 40 5837
-0.25038767 5.8418584 0.14423051 858 74525950 2934 30 39 5849
-0.46247488 5.8149872 0.087156825 916 74525950 3119 31 87 5834
0.17409989 5.8772788 0.041049812 403 74525950 1394 32 83 5880
-0.038464818 5.841855 -0.014784495 552 74525950 1885 33 83 5842
-0.24981748 5.8452473 -0.069847889 635 74525950 2175 34 80 5851
-0.45787913 5.8046293 -0.12491579 805 74525950 2731 35 84 5824
0.18089966 6.007628 -0.17848805 248 74525950 896 36 128 6013
-0.034904871 5.9653363 -0.23333995 183 74525950 654 37 61 5970
-0.25110596 5.9336562 -0.28911322 331 74525950 1170 38 110 5946
-0.45770544 5.801136 -0.33848614 481 74525950 1636 39 65 5829
0.18436773 5.9670196 -0.39620417 377 74525950 1350 40 93 5983
-0.032151937 5.9568386 -0.45135397 365 74525950 1303 41 105 5974
-0.24959235 5.9371371 -0.50735229 321 74525950 1141 42 132 5964
-0.4646523 5.9301004 -0.56447738 238 74525950 851 43 60 5975
0.18674281 5.9763064 -0.6172598 470 74525950 1699 44 93 6011
-0.029807316 5.9661803 -0.67217523 198 74525950 712 45 53 6004
-0.24835351 5.9823079 -0.73166746 158 74525950 576 46 85 6032
-0.46714771 5.9807129 -0.79211748 225 74525950 824 47 119 6051
0.18699141 5.827857 -0.81833184 910 74525950 3155 48 110 5888
-0.026793573 5.8761649 -0.88166821 814 74525950 2876 49 58 5942
-0.24148189 5.8912139 -0.94240665 730 74525950 2604 50 67 5971
-0.46106306 5.9241214 -1.0084342 586 74525950 2130 51 83 6027
0.19166781 5.8121924 -1.0365002 955 74525950 3333 52 87 5907
-0.023683595 5.8426805 -1.0979761 893 74525950 3157 53 91 5945
-0.23734325 5.835043 -1.155054 919 74525950 3258 54 91 5953
-0.45269948 5.8153477 -1.2143157 908 74525950 3225 55 64 5958
0.19626932 5.8525004 -1.2703466 750 74525950 2692 56 133 5992
-0.020596724 5.8348603 -1.3229789 855 74525950 3061 57 91 5983
-0.23580734 5.824821 -1.3812805 855 74525950 3070 58 72 5991
-0.45295182 5.8251586 -1.4459326 886 74525950 3211 59 77 6019
0.2035988 5.8662663 -1.5063437 901 74525950 3307 60 56 6060
-0.015740218 5.8466506 -1.5591762 905 74525950 3312 61 42 6051
-0.23657073 5.8715687 -1.6292095 832 74525950 3095 62 68 6098
-0.45689118 5.8441472 -1.690976 809 74525950 3010 63 37 6101
0.21270216 5.9327154 1.8530012 793 74622450 3068 0 85 6219
-0.013272956 5.9095335 1.7737365 833 74622450 3172 1 94 6170
-0.23584671 5.9218473 1.7161005 751 74622450 2861 2 59 6170
-0.45461199 5.8565102 1.6408597 861 74622450 3201 3 49 6099
0.20839247 5.8958488 1.5936936 886 74622450 3309 4 92 6111
-0.010707973 5.9170198 1.5354273 824 74622450 3077 5 57 6113
-0.23167388 5.8737912 1.4643317 832 74622450 3055 6 72 6058
-0.44819087 5.8505397 1.4026417 865 74622450 3149 7 86 6033
0.20776887 5.9103489 1.3628541 810 74622450 2984 8 94 6069
-0.012903896 5.8823476 1.2939669 805 74622450 2921 9 113 6023
-0.22798249 5.8607197 1.2312781 840 74622450 3019 10 72 5993
-0.44174528 5.8332362 1.1710567 852 74622450 3034 11 70 5966
0.20509325 5.860455 1.1250976 872 74622450 3109 12 120 5971
-0.010606886 5.8611612 1.0642042 850 74622450 3018 13 92 5957
-0.22731467 5.8725791 1.0092157 800 74622450 2845 14 91 5963
-0.44050395 5.8357816 0.95008069 787 74622450 2768 15 62 5929
0.20515214 5.8592124 0.9034192 888 74622450 3126 16 72 5932
-0.0092584481 5.8494234 0.84395796 790 74622450 2760 17 83 5910
-0.22232288 5.8251619 0.78485119 795 74622450 2751 18 80 5882
-0.43701655 5.8370852 0.73188359 842 74622450 2930 19 104 5899
0.20526503 5.8595119 0.68512595 846 74622450 2949 20 80 5903
-0.0083241817 5.838594 0.62540931 851 74622450 2936 21 58 5872
-0.21987595 5.8331752 0.56916553 858 74622450 2953 22 71 5865
-0.43215036 5.8143415 0.51409131 859 74622450 2943 23 125 5853
0.20618394 5.8536234 0.46899992 854 74622450 2950 24 87 5876
-0.0067955321 5.8385024 0.41164747 862 74622450 2954 25 63 5853
-0.21899077 5.8150849 0.35459268 818 74622450 2780 26 104 5830
-0.4275912 5.7995582 0.29937312 892 74622450 3025 27 88 5823
0.20816082 5.8287768 0.25353023 750 74622450 2558 28 62 5838
-0.0047535538 5.8336492 0.19770131 719 74622450 2451 29 73 5837
-0.21497811 5.8552728 0.14452642 829 74622450 2847 30 42 5861
-0.42678609 5.8177156 0.087156825 939 74622450 3197 31 89 5834
0.21187451 5.9240685 0.041384913 372 74622450 1308 32 79 5928
-0.0026245238 5.8539805 -0.014814863 507 74622450 1738 33 91 5854
-0.21350822 5.8346791 -0.069704629 598 74622450 2040 34 96 5839
-0.42312399 5.8192954 -0.12517317 753 74622450 2565 35 100 5836
0.21775837 6.0064049 -0.17848805 275 74622450 995 36 105 6013
0.0017052288 5.9894199 -0.23427801 186 74622450 670 37 58 5994
-0.21555959 5.9590416 -0.29028019 284 74622450 1013 38 102 5970
-0.42557758 5.8516278 -0.34127346 390 74622450 1348 39 73 5877
0.22186363 5.989707 -0.3977935 306 74622450 1105 40 99 6007
0.0043991441 5.956924 -0.45135397 384 74622450 1371 41 80 5974
-0.21401586 5.9624543 -0.50939399 356 74622450 1276 42 130 5988
-0.42739704 5.9209247 -0.5633437 267 74622450 951 43 63 5963
0.22340922 5.9750481 -0.6172598 570 74622450 2060 44 94 6011
0.006814634 5.9781756 -0.67351872 310 74622450 1120 45 49 6016
-0.21122105 5.9718156 -0.73021197 133 74622450 483 46 93 6020
-0.4312956 5.9953327 -0.79368836 193 74622450 710 47 95 6063
0.22410884 5.8622241 -0.82333523 942 74622450 3306 48 110 5924
0.0092249885 5.8524842 -0.87810707 833 74622450 2919 49 68 5918
-0.20574218 5.9044271 -0.94430065 757 74622450 2711 50 65 5983
-0.42301342 5.9032378 -1.0044184 693 74622450 2499 51 77 6003
0.22825077 5.8345165 -1.0407115 923 74622450 3247 52 122 5931
0.012117748 5.819129 -1.0935435 900 74622450 3156 53 94 5921
-0.20072313 5.81286 -1.1503974 895 74622450 3146 54 109 5929
-0.41784856 5.8297338 -1.2167615 918 74622450 3273 55 64 5970
0.23450077 5.9097767 -1.2830671 329 74622450 1205 56 121 6052
0.015266689 5.858283 -1.3282859 557 74622450 2011 57 76 6007
-0.20046321 5.8378282 -1.3840473 845 74622450 3046 58 75 6003
-0.4172008 5.8278284 -1.4459326 894 74622450 3239 59 106 6019
0.23864082 5.8416791 -1.5003779 907 74622450 3303 60 45 6036
0.020134453 5.8466372 -1.5591762 900 74622450 3297 61 60 6051
-0.20014438 5.8613529 -1.6260034 858 74622450 3176 62 55 6086
-0.42102358 5.8468404 -1.690976 828 74622450 3080 63 53 6101
0.24861994 5.9198537 1.8494257 767 74719660 2956 0 82 6207
0.022942802 5.8980107 1.7702868 849 74719660 3221 1 84 6158
-0.19873047 5.9001436 1.7094253 768 74719660 2899 2 57 6146
-0.4178448 5.8476615 1.6376313 885 74719660 3281 3 59 6087
0.24504505 5.906034 1.5968231 838 74719660 3142 4 100 6123
0.025497878 5.8937435 1.5293992 856 74719660 3172 5 42 6089
-0.19601613 5.8867402 1.4672323 818 74719660 3015 6 86 6070
-0.41310421 5.8648214 1.4054315 820 74719660 2997 7 96 6045
0.24451269 5.9206467 1.3655488 837 74719660 3096 8 89 6081
0.023235956 5.8940358 1.296545 799 74719660 2910 9 125 6035
-0.1920175 5.8620081 1.2312781 873 74719660 3137 10 75 5993
-0.40676144 5.8475752 1.1734123 857 74719660 3061 11 55 5978
0.24153291 5.8708615 1.1273588 863 74719660 3089 12 122 5983
0.025356721 5.8611159 1.0642042 867 74719660 3078 13 92 5957
-0.19127692 5.8738632 1.0092157 825 74719660 2933 14 101 5963
-0.40386891 5.8265581 0.94815779 828 74719660 2900 15 66 5917
0.24158747 5.8696938 0.90524679 870 74719660 3075 16 74 5944
0.026633112 5.84937 0.84395796 826 74719660 2886 17 88 5910
-0.18771809 5.8620758 0.78965473 816 74719660 2859 18 61 5918
-0.40119264 5.8396568 0.73188359 827 74719660 2878 19 102 5899
0.24121445 5.8581424 0.68512595 829 74719660 2889 20 110 5903
0.027613318 5.8623986 0.62796551 864 74719660 3004 21 99 5896
-0.18445675 5.8463521 0.57033008 842 74719660 2910 22 69 5877
-0.39727896 5.8288097 0.5151453 862 74719660 2965 23 116 5865
0.24259163 5.8641996 0.46995771 839 74719660 2910 24 69 5888
0.029028973 5.8384342 0.41164747 843 74719660 2889 25 81 5853
-0.18406056 5.8402624 0.3560524 822 74719660 2816 26 125 5854
-0.39442119 5.8379431 0.30122396 885 74719660 3038 27 94 5859
0.24442299 5.8393679 0.25405139 705 74719660 2414 28 73 5850
0.031041136 5.8335686 0.19770131 725 74719660 2469 29 47 5837
-0.17868023 5.844491 0.14423051 848 74719660 2900 30 56 5849
-0.39108121 5.8202248 0.087156825 940 74719660 3201 31 70 5834
0.25022981 5.9706135 0.041720014 302 74719660 1080 32 77 5976
0.033226628 5.8418875 -0.014784495 445 74719660 1520 33 92 5842
-0.17806849 5.8478727 -0.069847889 568 74719660 1946 34 87 5851
-0.38661292 5.8098111 -0.12491579 746 74719660 2531 35 68 5824
0.25257638 5.9570193 -0.17706321 307 74719660 1092 36 111 5965
0.038147632 5.9413342 -0.23240189 211 74719660 744 37 53 5946
-0.1797111 5.9842129 -0.29144716 235 74719660 845 38 77 5994
-0.39125594 5.878036 -0.34266713 369 74719660 1283 39 57 5901
0.25912821 6.000195 -0.39858815 263 74719660 953 40 93 6019
0.041032314 5.9687495 -0.45226058 343 74719660 1230 41 96 5986
-0.17742689 5.9636555 -0.50939399 333 74719660 1194 42 112 5988
-0.39263284 5.9472766 -0.56561106 293 74719660 1052 43 72 5987
0.25902888 5.9497147 -0.61479533 611 74719660 2190 44 111 5987
0.043495901 5.9780216 -0.67351872 396 74719660 1435 45 63 6016
-0.17492269 5.9849052 -0.73166746 145 74719660 528 46 103 6032
-0.39450079 5.9978662 -0.79368836 195 74719660 717 47 110 6063
0.25902089 5.8369951 -0.81999958 938 74719660 3265 48 103 5900
0.04513498 5.8523173 -0.87810707 804 74719660 2817 49 60 5918
-0.1681495 5.8581996 -0.93672478 839 74719660 2953 50 57 5935
-0.38446435 5.8703055 -0.99839497 750 74719660 2672 51 67 5967
0.2640464 5.8330064 -1.0407115 969 74719660 3409 52 113 5931
0.047919944 5.8307381 -1.0957597 891 74719660 3137 53 77 5933
-0.16605449 5.8492837 -1.1573824 901 74719660 3207 54 81 5965
-0.38130215 5.8204651 -1.2143157 918 74719660 3257 55 57 5958
0.2702212 5.8965116 -1.2805231 378 74719660 1379 56 116 6040
0.051928282 5.9399962 -1.3468602 278 74719660 1033 57 77 6091
-0.1649683 5.8506207 -1.386814 911 74719660 3297 58 75 6015
-0.38143405 5.8302784 -1.4459326 914 74719660 3312 59 101 6019
0.27611727 5.8749371 -1.5093266 951 74719660 3505 60 54 6072
0.056119438 5.8579979 -1.5622683 901 74719660 3311 61 45 6063
-0.16385232 5.8509111 -1.6227974 844 74719660 3116 62 60 6074
-0.38665518 5.872324 -1.697628 754 74719660 2830 63 62 6125
0.28493881 5.9182167 1.8494257 804 74817360 3098 0 84 6207
0.059131883 5.8977585 1.7702868 848 74817360 3217 1 82 6158
-0.16252413 5.9012518 1.7094253 769 74817360 2903 2 50 6146
-0.38346234 5.8731809 1.6440881 874 74817360 3263 3 42 6111
0.28127918 5.9044194 1.5968231 832 74817360 3120 4 84 6123
0.061660729 5.893476 1.5293992 865 74817360 3205 5 43 6089
-0.15989208 5.8878322 1.4672323 757 74817360 2790 6 102 6070
-0.37486476 5.832305 1.3970617 858 74817360 3099 7 92 6009
0.28028229 5.9073544 1.3628541 838 74817360 3087 8 114 6069
0.059400644 5.8937826 1.296545 812 74817360 2958 9 100 6035
-0.15635772 5.8748155 1.2337434 838 74817360 3023 10 84 6005
-0.37087372 5.8499608 1.1734123 836 74817360 2989 11 63 5978
0.27755129 5.8692689 1.1273588 880 74817360 3150 12 115 5983
0.0614429 5.8726563 1.066348 836 74817360 2980 13 100 5969
-0.15460719 5.8512807 1.0051538 804 74817360 2836 14 91 5939
-0.36885679 5.8407478 0.95008069 849 74817360 2986 15 61 5929
0.27703825 5.8562541 0.9034192 850 74817360 2990 16 55 5932
0.06252367 5.8490963 0.84395796 845 74817360 2952 17 95 5910
-0.15113014 5.8393397 0.78645229 816 74817360 2836 18 58 5894
-0.36609685 5.8538928 0.73337239 826 74817360 2887 19 100 5911
0.27828163 5.880363 0.68791145 840 74817360 2952 20 103 5927
0.063583799 5.8621187 0.62796551 841 74817360 2924 21 86 5896
-0.14888413 5.8593135 0.57149458 796 74817360 2762 22 72 5889
-0.36224622 5.8430686 0.51619935 849 74817360 2932 23 143 5877
0.27856913 5.8626008 0.46995771 818 74817360 2837 24 78 5888
0.064852387 5.8381462 0.41164747 841 74817360 2882 25 88 5853
-0.14822192 5.8412819 0.3560524 828 74817360 2836 26 147 5854
-0.35785839 5.8282914 0.300607 864 74817360 2954 27 92 5847
0.28024808 5.8377585 0.25405139 663 74817360 2268 28 48 5850
0.066972062 5.8452606 0.19810776 707 74817360 2418 29 37 5849
-0.14222972 5.8214917 0.1436387 798 74817360 2706 30 55 5825
-0.35389975 5.7985625 0.08679828 877 74817360 2961 31 95 5810
0.28916416 6.0169091 0.042055111 253 74817360 919 32 91 6024
0.069213025 5.8535724 -0.014814863 390 74817360 1338 33 86 5854
-0.14247487 5.8608513 -0.069991142 534 74817360 1837 34 65 5863
-0.35168043 5.8240495 -0.12517317 699 74817360 2381 35 78 5836
0.28912321 5.9553576 -0.17706321 326 74817360 1160 36 124 5965
0.074903376 5.9649682 -0.23333995 275 74817360 978 37 57 5970
-0.14298928 5.9852028 -0.29144716 204 74817360 733 38 98 5994
-0.35734847 5.9161997 -0.34475762 337 74817360 1189 39 88 5937
0.29652986 6.0104513 -0.3993828 251 74817360 914 40 83 6031
0.07703241 5.920527 -0.44863403 320 74817360 1129 41 105 5938
-0.14054902 5.9526787 -0.50837314 338 74817360 1206 42 135 5976
-0.35399219 5.9137983 -0.56221002 335 74817360 1185 43 47 5951
0.29434606 5.9241695 -0.61233079 706 74817360 2511 44 91 5963
0.080015607 5.9657183 -0.67217523 463 74817360 1670 45 81 6004
-0.13902149 6.0215907 -0.73603421 199 74817360 734 46 87 6068
-0.35485938 5.9526715 -0.78740489 163 74817360 590 47 113 6015
0.2942315 5.8234277 -0.81833184 962 74817360 3336 48 96 5888
0.081043273 5.8519301 -0.87810707 846 74817360 2964 49 80 5918
-0.1324684 5.8709679 -0.93861878 814 74817360 2880 50 62 5947
-0.34773684 5.860744 -0.99638712 806 74817360 2860 51 77 5955
0.29983208 5.8312764 -1.0407115 941 74817360 3311 52 103 5931
0.083865061 5.8421264 -1.0979761 904 74817360 3196 53 96 5945
-0.12989898 5.8384233 -1.155054 836 74817360 2963 54 90 5953
-0.34558126 5.8226953 -1.2143157 894 74817360 3174 55 84 5958
0.30517894 5.8713193 -1.2754349 819 74817360 2963 56 154 6016
0.0897673 6.0331793 -1.368088 215 74817360 824 57 80 6187
-0.12906647 5.8515229 -1.386814 891 74817360 3224 58 80 6015
-0.34496388 5.8208814 -1.4430499 934 74817360 3371 59 92 6007
0.31216002 5.8731322 -1.5093266 916 74817360 3376 60 44 6072
0.092244595 5.8691368 -1.5653604 919 74817360 3390 61 42 6075
-0.1282015 5.8633676 -1.6260034 834 74817360 3091 62 65 6086
-0.34992906 5.8630762 -1.694302 749 74817360 2797 63 52 6113
0.321868 5.9277949 1.8530012 764 74914610 2956 0 82 6219
0.095504478 5.9087763 1.7737365 838 74914610 3191 1 98 6170
-0.1268049 5.9251852 1.7161005 781 74914610 2975 2 63 6170
-0.34605354 5.8523488 1.6376313 873 74914610 3233 3 47 6087
0.31874722 5.9257188 1.6030821 836 74914610 3159 4 95 6147
0.097821258 5.8929868 1.5293992 853 74914610 3161 5 47 6089
-0.12376202 5.8887024 1.4672323 828 74914610 3052 6 96 6070
-0.33839422 5.8228436 1.3942719 905 74914610 3255 7 103 5997
0.31652388 5.9055233 1.3628541 839 74914610 3091 8 87 6069
0.095563099 5.8933072 1.296545 809 74914610 2947 9 116 6035
-0.11982676 5.8521814 1.2288126 846 74914610 3028 10 75 5981
-0.33429965 5.8403788 1.1710567 859 74914610 3059 11 58 5966
0.31481704 5.8909922 1.1318811 852 74914610 3074 12 132 6007
0.09767165 5.8839741 1.0684918 823 74914610 2946 13 84 5981
-0.11894134 5.8639436 1.0071847 827 74914610 2929 14 108 5951
-0.33233768 5.8310757 0.94815779 840 74914610 2939 15 56 5917
0.31359944 5.8662868 0.90524679 882 74914610 3118 16 76 5944
0.098411873 5.8486028 0.84395796 835 74914610 2918 17 88 5910
-0.11553252 5.8520474 0.78805351 782 74914610 2729 18 70 5906
-0.32816029 5.820364 0.72890598 829 74914610 2862 19 99 5875
0.31372118 5.866643 0.68651873 828 74914610 2898 20 85 5915
0.099349268 5.8496881 0.62668741 818 74914610 2832 21 105 5884
-0.11292925 5.8601165 0.57149458 851 74914610 2953 22 83 5889
-0.32505414 5.821311 0.51409131 861 74914610 2949 23 137 5853
0.31389508 5.8488364 0.46899992 800 74914610 2764 24 79 5876
0.10087976 5.849607 0.41249144 856 74914610 2945 25 79 5865
-0.1123777 5.8420815 0.3560524 852 74914610 2919 26 114 5854
-0.32208991 5.8303776 0.300607 853 74914610 2917 27 85 5847
0.31671095 5.8479004 0.25457251 636 74914610 2187 28 73 5862
0.10262566 5.8327484 0.19770131 671 74914610 2285 29 43 5837
-0.10672645 5.8342495 0.14393461 811 74914610 2762 30 30 5837
-0.31897125 5.8126054 0.086977556 873 74914610 2960 31 89 5822
0.32607779 6.0150213 0.042055111 217 74914610 789 32 67 6024
0.10555957 5.8770337 -0.0148756 383 74914610 1324 33 87 5878
-0.10672869 5.8736124 -0.070134394 464 74914610 1603 34 83 5875
-0.31528848 5.8141179 -0.12491579 642 74914610 2179 35 73 5824
0.32565916 5.9534712 -0.17706321 360 74914610 1281 36 120 5965
0.11195058 5.9883738 -0.23427801 283 74914610 1015 37 54 5994
-0.10668755 6.0099349 -0.2926141 204 74914610 740 38 81 6018
-0.32168952 5.930243 -0.34545445 297 74914610 1053 39 63 5949
0.33473048 6.0324297 -0.40097216 198 74914610 726 40 97 6055
0.11473314 5.991724 -0.45407385 308 74914610 1113 41 87 6010
-0.10402143 5.9534287 -0.50837314 314 74914610 1120 42 144 5976
-0.31962106 5.9516468 -0.56561106 317 74914610 1135 43 56 5987
0.33135602 5.9341698 -0.61356306 737 74914610 2632 44 104 5975
0.11591982 5.9293485 -0.66814488 538 74914610 1917 45 87 5968
-0.10106182 5.9627819 -0.72875637 265 74914610 958 46 79 6008
-0.31769273 5.9428568 -0.78583395 150 74914610 541 47 108 6003
0.32995787 5.8215127 -0.81833184 933 74914610 3235 48 101 5888
0.11694852 5.8513227 -0.87810707 883 74914610 3094 49 60 5918
-0.095858514 5.8361259 -0.93293685 851 74914610 2975 50 63 5911
-0.31239772 5.8745818 -0.99839497 845 74914610 3010 51 79 5967
0.3362855 5.8411212 -1.0428172 948 74914610 3348 52 117 5943
0.1197101 5.8415022 -1.0979761 926 74914610 3274 53 89 5945
-0.095779322 5.9450445 -1.1760092 498 74914610 1830 54 83 6061
-0.31047145 5.8364377 -1.2167615 886 74914610 3159 55 73 5970
0.34051836 5.8576288 -1.2728907 929 74914610 3348 56 137 6004
0.12186641 5.7985077 -1.3150185 942 74914610 3330 57 51 5947
-0.093159765 5.8522043 -1.386814 846 74914610 3061 58 86 6015
-0.30924112 5.8228884 -1.4430499 897 74914610 3237 59 91 6007
0.34819099 5.8711061 -1.5093266 922 74914610 3398 60 57 6072
0.12774852 5.8452759 -1.5591762 914 74914610 3345 61 37 6051
-0.092222132 5.8640437 -1.6260034 829 74914610 3072 62 69 6086
-0.31271476 5.8420863 -1.68765 801 74914610 2968 63 47 6089
0.3603079 5.9600105 1.8637276 793 75012970 3104 0 78 6255
0.131502 5.8965888 1.7702868 827 75012970 3137 1 97 6158
-0.090094455 5.902802 1.7094253 824 75012970 3114 2 63 6146
-0.31074911 5.8659034 1.6408597 823 75012970 3063 3 60 6099
0.35440752 5.912087 1.5999526 839 75012970 3159 4 74 6135
0.13424215 5.9038882 1.5324132 863 75012970 3210 5 47 6101
-0.087454058 5.877708 1.4643317 804 75012970 2951 6 102 6058
-0.30447644 5.859777 1.4026417 876 75012970 3189 7 100 6033
0.35345101 5.9151425 1.3655488 836 75012970 3092 8 91 6081
0.13146003 5.8808928 1.2939669 817 75012970 2965 9 99 6023
-0.08408457 5.8645492 1.2312781 821 75012970 2950 10 77 5993
-0.29845747 5.8423204 1.1710567 866 75012970 3084 11 62 5966
0.35025644 5.8771853 1.12962 865 75012970 3108 12 144 5995
0.13350479 5.87146 1.066348 878 75012970 3130 13 86 5969
-0.082958624 5.864563 1.0071847 807 75012970 2858 14 96 5951
-0.2965526 5.833005 0.94815779 871 75012970 3051 15 58 5917
0.34958839 5.8642521 0.90524679 893 75012970 3157 16 63 5944
0.13456906 5.8597627 0.84567159 828 75012970 2905 17 82 5922
-0.079461075 5.8407545 0.78645229 797 75012970 2770 18 69 5894
-0.29363567 5.8460522 0.73188359 828 75012970 2882 19 94 5899
0.35042176 5.8765049 0.68791145 846 75012970 2972 20 119 5927
0.13551623 5.8608971 0.62796551 821 75012970 2855 21 95 5896
-0.076813281 5.8487568 0.57033008 850 75012970 2938 22 63 5877
-0.29051551 5.8470736 0.51619935 851 75012970 2939 23 131 5877
0.34977695 5.8468003 0.46899992 793 75012970 2740 24 73 5876
0.13649054 5.8369107 0.41164747 819 75012970 2807 25 79 5853
-0.07637237 5.8306847 0.35532254 821 75012970 2802 26 100 5842
-0.28630933 5.8322444 0.300607 873 75012970 2984 27 109 5847
0.3533088 5.8578134 0.25509363 597 75012970 2062 28 64 5874
0.13869736 5.8439989 0.19810776 648 75012970 2215 29 49 5849
-0.071071975 5.8467898 0.14423051 782 75012970 2674 30 55 5849
-0.28388366 5.8264375 0.087156825 854 75012970 2908 31 83 5834
0.36370221 6.0248852 0.042138889 155 75012970 566 32 74 6036
0.14364219 5.9602509 -0.015088182 329 75012970 1170 33 92 5962
-0.070542485 5.8621583 -0.069991142 419 75012970 1442 34 75 5863
-0.28018391 5.8279266 -0.12517317 618 75012970 2105 35 91 5836
0.36582592 6.0112238 -0.17884423 360 75012970 1306 36 125 6025
0.14809707 5.9635997 -0.23333995 321 75012970 1146 37 69 5970
-0.069809265 6.0104766 -0.2926141 215 75012970 779 38 94 6018
-0.2875981 5.9799685 -0.34824175 247 75012970 890 39 62 5997
0.37321192 6.0541644 -0.40256149 159 75012970 588 40 92 6079
0.15179799 6.0028691 -0.45498049 274 75012970 994 41 96 6022
-0.067354396 5.9419994 -0.50735229 306 75012970 1088 42 111 5964
-0.28196156 5.9296303 -0.5633437 332 75012970 1179 43 38 5963
0.36554536 5.8962836 -0.60986626 775 75012970 2734 44 116 5939
0.15260567 5.9404464 -0.66948837 605 75012970 2162 45 55 5980
-0.064601749 5.9752007 -0.73021197 372 75012970 1349 46 100 6020
-0.28347069 5.992228 -0.79211748 171 75012970 627 47 84 6051
0.36641702 5.8312383 -0.81999958 946 75012970 3294 48 88 5900
0.15253942 5.8386316 -0.8763265 872 75012970 3043 49 59 5906
-0.060046911 5.8366041 -0.93293685 862 75012970 3013 50 75 5911
-0.27523458 5.8527522 -0.99437928 887 75012970 3134 51 78 5943
0.37136823 5.827158 -1.0407115 950 75012970 3342 52 113 5931
0.15586461 5.852447 -1.1001923 903 75012970 3205 53 99 5957
-0.059064597 5.9219775 -1.1713525 620 75012970 2261 54 75 6037
-0.27465388 5.8382325 -1.2167615 926 75012970 3301 55 78 5970
0.37645367 5.8554292 -1.2728907 938 75012970 3380 56 137 6004
0.15744309 5.7976508 -1.3150185 881 75012970 3117 57 78 5947
-0.057249557 5.8526659 -1.386814 863 75012970 3123 58 76 6015
-0.27405307 5.8363118 -1.4459326 926 75012970 3356 59 79 6019
0.38420886 5.8688593 -1.5093266 831 75012970 3066 60 64 6072
0.16458546 5.8791533 -1.5684525 818 75012970 3033 61 58 6087
-0.056239299 5.8644991 -1.6260034 846 75012970 3135 62 62 6086
-0.27795377 5.8669291 -1.694302 786 75012970 2939 63 59 6113
0.39687106 5.9576874 1.8637276 699 75111120 2736 0 76 6255
0.16800706 5.9071593 1.7737365 872 75111120 3321 1 73 6170
-0.053979035 5.9147696 1.712763 786 75111120 2982 2 69 6158
-0.27529132 5.8792439 1.6440881 847 75111120 3165 3 62 6111
0.38991258 5.8982415 1.5968231 874 75111120 3277 4 91 6123
0.17012991 5.8913426 1.5293992 868 75111120 3217 5 33 6089
-0.05138747 5.8781338 1.4643317 838 75111120 3076 6 96 6058
-0.26798168 5.8498759 1.3998517 865 75111120 3137 7 85 6021
0.38973898 5.9128628 1.3655488 840 75111120 3107 8 89 6081
0.16787584 5.8916907 1.296545 788 75111120 2871 9 91 6035
-0.048098788 5.8649549 1.2312781 833 75111120 2993 10 89 5993
-0.26313224 5.8557963 1.1734123 855 75111120 3057 11 68 5978
0.38631159 5.8749256 1.12962 827 75111120 2972 12 114 5995
0.16986971 5.8823323 1.0684918 858 75111120 3071 13 76 5981
-0.046972778 5.8649616 1.0071847 792 75111120 2805 14 106 5951
-0.26128522 5.8465481 0.95008069 847 75111120 2978 15 72 5929
0.38712099 5.8856659 0.90890193 853 75111120 3040 16 61 5968
0.17017582 5.8469548 0.84395796 837 75111120 2925 17 85 5910
-0.043799005 5.8649173 0.78965473 796 75111120 2786 18 52 5918
-0.25723511 5.8358483 0.73039472 842 75111120 2919 19 99 5887
0.38647273 5.8742442 0.68791145 828 75111120 2910 20 75 5927
0.17182447 5.871882 0.62924361 838 75111120 2926 21 89 5908
-0.040924542 5.8491182 0.57033008 833 75111120 2879 22 70 5877
-0.25411314 5.8368039 0.5151453 826 75111120 2841 23 123 5865
0.38643324 5.8564801 0.46995771 791 75111120 2743 24 91 5888
0.17230257 5.8359632 0.41164747 833 75111120 2854 25 98 5853
-0.040594526 5.8310432 0.35532254 853 75111120 2911 26 115 5842
-0.24948968 5.8099451 0.29937312 865 75111120 2932 27 122 5823
0.39004019 5.8674974 0.25561476 571 75111120 1980 28 68 5886
0.17526908 5.867013 0.19892064 608 75111120 2099 29 60 5873
-0.03519541 5.847116 0.14423051 772 75111120 2640 30 56 5849
-0.24812797 5.8280692 0.087156825 834 75111120 2839 31 89 5834
0.39827374 5.9866209 0.041887566 143 75111120 516 32 74 6000
0.18129905 5.9952402 -0.015179288 281 75111120 1012 33 77 5998
-0.034642391 5.8744798 -0.070134394 383 75111120 1323 34 98 5875
-0.2449217 5.8415227 -0.12543054 574 75111120 1964 35 70 5848
0.39949498 5.9609947 -0.17741942 377 75111120 1347 36 97 5977
0.18357256 5.9266238 -0.23193288 342 75111120 1206 37 63 5934
-0.032665722 5.9628496 -0.29028019 258 75111120 921 38 73 5970
-0.2509003 5.9816208 -0.34824175 229 75111120 825 39 63 5997
0.41116256 6.0637059 -0.40335611 138 75111120 513 40 77 6091
0.18862805 6.0018249 -0.45498049 256 75111120 929 41 101 6022
-0.031142343 5.9901261 -0.51143563 272 75111120 983 42 114 6012
-0.24557273 5.9312487 -0.5633437 356 75111120 1267 43 67 5963
0.40171739 5.89393 -0.60986626 831 75111120 2932 44 112 5939
0.18943204 5.9513164 -0.67083174 649 75111120 2332 45 63 5992
-0.027881701 5.963573 -0.72875637 429 75111120 1549 46 111 6008
-0.24767622 6.0176282 -0.7952593 235 75111120 867 47 122 6075
0.40218991 5.8288803 -0.81999958 922 75111120 3209 48 122 5900
0.18874444 5.8494468 -0.87810707 866 75111120 3034 49 77 5918
-0.024233053 5.8368626 -0.93293685 878 75111120 3069 50 74 5911
-0.23883435 5.8425097 -0.99237144 838 75111120 2949 51 91 5931
0.40958714 5.8601251 -1.0470285 900 75111120 3205 52 116 5967
0.1913853 5.8395929 -1.0979761 872 75111120 3082 53 98 5945
-0.022726916 5.9222283 -1.1713525 469 75111120 1710 54 87 6037
-0.23882599 5.839808 -1.2167615 936 75111120 3337 55 77 5970
0.41237482 5.8530092 -1.2728907 901 75111120 3247 56 141 6004
0.1945717 5.8433614 -1.3256323 661 75111120 2377 57 81 5995
-0.021337198 5.8529072 -1.386814 885 75111120 3203 58 75 6015
-0.23871195 5.8495226 -1.4488153 914 75111120 3325 59 102 6031
0.42602545 5.9475465 -1.5302064 201 75111120 760 60 50 6156
0.199865 5.8548565 -1.5622683 888 75111120 3263 61 35 6063
-0.020214414 5.8531699 -1.6227974 845 75111120 3116 62 53 6074
-0.24147478 5.8570037 -1.690976 804 75111120 2994 63 59 6101
0.4325878 5.9437156 1.8601522 714 75208740 2784 0 91 6243
0.20385231 5.8945312 1.7702868 855 75208740 3244 1 71 6158
-0.017685678 5.9149895 1.712763 760 75208740 2883 2 72 6158
-0.23827232 5.8577271 1.6376313 874 75208740 3240 3 59 6087
0.42776632 5.9188476 1.6030821 869 75208740 3284 4 84 6147
0.20668182 5.9017959 1.5324132 848 75208740 3154 5 53 6101
-0.015379643 5.9016271 1.4701331 836 75208740 3094 6 81 6082
-0.23208249 5.8514099 1.3998517 860 75208740 3118 7 94 6021
0.42601231 5.9103599 1.3655488 848 75208740 3137 8 91 6081
0.20483479 5.9139752 1.3017012 731 75208740 2684 9 106 6059
-0.012086944 5.8533955 1.2288126 805 75208740 2882 10 60 5981
-0.2271968 5.8573008 1.1734123 836 75208740 2989 11 61 5978
0.4231976 5.8841996 1.1318811 861 75208740 3107 12 131 6007
0.20513336 5.8575797 1.0642042 843 75208740 2993 13 75 5957
-0.010963012 5.8533125 1.0051538 821 75208740 2896 14 95 5939
-0.22495033 5.836205 0.94815779 859 75208740 3008 15 80 5917
0.42322749 5.8831797 0.90890193 874 75208740 3115 16 75 5968
0.20688561 5.8695397 0.84738523 861 75208740 3033 17 84 5934
-0.0077800443 5.84129 0.78645229 848 75208740 2947 18 71 5894
-0.22142217 5.8373165 0.73039472 824 75208740 2857 19 72 5887
0.42336455 5.8836508 0.68930423 824 75208740 2907 20 111 5939
0.20785043 5.870717 0.62924361 811 75208740 2832 21 89 5908
-0.0050445357 5.8612022 0.57149458 852 75208740 2956 22 73 5889
-0.21829441 5.838253 0.5151453 865 75208740 2975 23 128 5865
0.42236066 5.8539987 0.46995771 766 75208740 2657 24 88 5888
0.20853481 5.8467593 0.41249144 788 75208740 2711 25 87 5865
-0.0048250426 5.8431602 0.3560524 819 75208740 2806 26 131 5854
-0.21471716 5.8353186 0.300607 884 75208740 3022 27 97 5847
0.42690372 5.8769512 0.25613588 508 75208740 1769 28 73 5898
0.21040177 5.841857 0.19810776 576 75208740 1970 29 27 5849
0.0006838814 5.8592176 0.14452642 728 75208740 2500 30 45 5861
-0.21192613 5.817492 0.086977556 822 75208740 2787 31 80 5822
0.44021943 6.0558734 0.042390216 142 75208740 525 32 80 6072
0.21764542 5.9820228 -0.015148918 234 75208740 840 33 78 5986
0.0014033902 5.8745818 -0.070134394 357 75208740 1233 34 80 5875
-0.2095032 5.8549051 -0.12568793 528 75208740 1814 35 76 5860
0.43781441 5.982357 -0.17813183 376 75208740 1353 36 141 6001
0.2199342 5.925386 -0.23193288 368 75208740 1298 37 61 5934
0.0039222478 5.9629378 -0.29028019 311 75208740 1109 38 97 5970
-0.21505024 6.0069919 -0.34963542 201 75208740 730 39 68 6021
0.44571108 6.0252461 -0.40097216 232 75208740 851 40 85 6055
0.22590026 6.0125117 -0.45588714 203 75208740 740 41 84 6034
0.0055905581 5.9662914 -0.50939399 256 75208740 917 42 148 5988
-0.20959559 5.9445829 -0.56447738 343 75208740 1226 43 69 5975
0.43787432 5.8913541 -0.60986626 863 75208740 3044 44 122 5939
0.2254926 5.9381266 -0.66948837 629 75208740 2251 45 73 5980
0.0086758249 5.9398088 -0.72584522 567 75208740 2031 46 116 5984
-0.20949923 5.9833665 -0.79054666 299 75208740 1090 47 114 6039
0.43972918 5.8500032 -0.82333523 948 75208740 3327 48 101 5924
0.22463243 5.8481789 -0.87810707 888 75208740 3109 49 40 5918
0.011558207 5.8250518 -0.93104285 901 75208740 3137 50 71 5899
-0.20380226 5.8675127 -0.99638712 884 75208740 3136 51 85 5955
0.44464049 5.8457217 -1.0449228 940 75208740 3334 52 107 5955
0.22675413 5.8265243 -1.0957597 889 75208740 3130 53 84 5933
0.013584565 5.9104843 -1.1690241 225 75208740 818 54 88 6025
-0.20258109 5.8294225 -1.2143157 920 75208740 3267 55 67 5958
0.4491764 5.8620615 -1.2754349 925 75208740 3347 56 127 6016
0.23272838 5.9005265 -1.3388997 139 75208740 510 57 93 6055
0.014575967 5.8529277 -1.386814 861 75208740 3116 58 79 6015
-0.20241192 5.8392353 -1.4459326 898 75208740 3254 59 78 6019
0.46611723 5.9911742 -1.542138 244 75208740 938 60 46 6204
0.23671931 5.8766909 -1.5684525 912 75208740 3377 61 53 6087
0.015700342 5.8531837 -1.6227974 862 75208740 3181 62 76 6074
-0.20553233 5.8583755 -1.690976 814 75208740 3028 63 56 6101
0.46995118 5.9523687 1.8637276 718 75306730 2810 0 96 6255
0.24095206 5.9161372 1.7771862 860 75306730 3288 1 82 6182
0.018572086 5.90346 1.7094253 802 75306730 3031 2 64 6146
-0.20272437 5.8706293 1.6408597 890 75306730 3313 3 62 6099
0.46407565 5.9161115 1.6030821 869 75306730 3284 4 101 6147
0.24336842 5.9120226 1.5354273 836 75306730 3122 5 45 6113
0.020832349 5.9016099 1.4701331 833 75306730 3082 6 93 6082
-0.19617453 5.8527241 1.3998517 872 75306730 3162 7 92 6021
0.46318179 5.9192929 1.3682436 834 75306730 3097 8 85 6093
0.2411184 5.9126072 1.3017012 815 75306730 2993 9 105 6059
0.023924662 5.8768473 1.2337434 828 75306730 2987 10 85 6005
-0.1912528 5.8585844 1.1734123 886 75306730 3168 11 60 5978
0.46021187 5.8932409 1.1341422 851 75306730 3084 12 100 6019
0.24204218 5.8798051 1.0684918 838 75306730 2999 13 95 5981
0.025002863 5.8650966 1.0071847 818 75306730 2897 14 101 5951
-0.18913582 5.8374753 0.94815779 861 75306730 3015 15 70 5917
0.45931801 5.8804722 0.90890193 852 75306730 3036 16 73 5968
0.24289653 5.8681598 0.84738523 830 75306730 2924 17 85 5934
0.028118717 5.8531203 0.78805351 833 75306730 2907 18 68 5906
-0.18597922 5.8504667 0.73188359 862 75306730 3001 19 76 5899
0.45852962 5.8690596 0.68791145 839 75306730 2949 20 83 5927
0.24436387 5.8812523 0.63052166 803 75306730 2815 21 88 5920
0.031045228 5.8850093 0.57382363 867 75306730 3033 22 64 5913
-0.18284079 5.8514304 0.51619935 836 75306730 2887 23 139 5877
0.4592061 5.8632216 0.4709155 711 75306730 2476 24 83 5900
0.24440593 5.8453693 0.41249144 802 75306730 2760 25 76 5865
0.031028004 5.8430796 0.3560524 826 75306730 2830 26 121 5854
-0.17890829 5.8365264 0.300607 862 75306730 2947 27 95 5847
0.46578178 5.9100761 0.25769931 485 75306730 1706 28 56 5934
0.24725315 5.8644204 0.19892064 562 75306730 1937 29 46 5873
0.036485337 5.8351116 0.14393461 686 75306730 2339 30 59 5837
-0.17658991 5.8306756 0.087156825 809 75306730 2754 31 100 5834
0.47453901 6.01717 0.042138889 173 75306730 631 32 79 6036
0.25638586 6.0285316 -0.015270394 161 75306730 588 33 64 6034
0.03790807 5.946456 -0.070993915 324 75306730 1147 34 92 5947
-0.17357424 5.8560801 -0.12568793 495 75306730 1701 35 72 5860
0.4745132 5.979558 -0.17813183 351 75306730 1264 36 128 6001
0.25680581 5.935904 -0.23240189 398 75306730 1409 37 59 5946
0.040428642 5.9508157 -0.28969672 341 75306730 1212 38 75 5958
-0.17641231 5.9483261 -0.34615126 218 75306730 776 39 58 5961
0.4855426 6.0582037 -0.40335611 299 75306730 1110 40 77 6091
0.26226547 5.9990582 -0.45498049 163 75306730 592 41 91 6022
0.042368062 5.990057 -0.51143563 247 75306730 892 42 128 6012
-0.17311637 5.9457569 -0.56447738 334 75306730 1194 43 59 5975
0.47305697 5.876658 -0.608634 862 75306730 3029 44 106 5927
0.25982159 5.888979 -0.66411448 726 75306730 2556 45 62 5932
0.045121644 5.9396439 -0.72584522 642 75306730 2299 46 115 5984
-0.1724387 5.9726472 -0.78897578 386 75306730 1403 47 96 6027
0.47465241 5.8353505 -0.82166743 912 75306730 3188 48 96 5912
0.26051193 5.8466902 -0.87810707 908 75306730 3181 49 71 5918
0.047299836 5.8248711 -0.93104285 895 75306730 3116 50 68 5899
-0.16678165 5.8331747 -0.9903636 909 75306730 3186 51 80 5919
0.47953251 5.831109 -1.0428172 942 75306730 3327 52 115 5943
0.26303166 5.8368049 -1.0979761 912 75306730 3224 53 88 5945
0.049651787 5.8867469 -1.1643674 674 75306730 2428 54 78 6001
-0.16748056 5.8540425 -1.2192072 912 75306730 3262 55 45 5982
0.4851369 5.8591952 -1.2754349 899 75306730 3253 56 143 6016
0.27159381 5.9574413 -1.3521671 230 75306730 861 57 91 6115
0.05048858 5.8527284 -1.386814 856 75306730 3098 58 71 6015
-0.16657923 5.8403673 -1.4459326 918 75306730 3326 59 91 6019
0.50286961 5.9882011 -1.542138 361 75306730 1388 60 41 6204
0.27169806 5.851963 -1.5622683 862 75306730 3168 61 35 6063
0.051614508 5.8529773 -1.6227974 859 75306730 3168 62 43 6074
-0.16958214 5.8595262 -1.690976 808 75306730 3006 63 47 6101
0.50549376 5.9379597 1.8601522 812 75404010 3165 0 91 6243
0.27617192 5.8915858 1.7702868 846 75404010 3209 1 96 6158
0.054794688 5.903235 1.7094253 806 75404010 3043 2 51 6146
-0.16669905 5.8717628 1.6408597 887 75404010 3298 3 48 6099
0.49841386 5.8900652 1.5968231 849 75404010 3183 4 101 6123
0.27909037 5.8988152 1.5324132 850 75404010 3165 5 59 6101
0.057043556 5.901371 1.4701331 829 75404010 3068 6 81 6082
-0.16057861 5.8654842 1.4026417 891 75404010 3243 7 99 6033
0.49949318 5.9163394 1.3682436 866 75404010 3216 8 73 6093
0.27684355 5.8993092 1.299123 796 75404010 2911 9 99 6047
0.059983868 5.8765898 1.2337434 849 75404010 3063 10 77 6005
-0.15561335 5.8714104 1.1757678 866 75404010 3109 11 59 5990
0.49735308 5.9020495 1.1364033 838 75404010 3048 12 116 6031
0.27923143 5.9017963 1.0727793 841 75404010 3034 13 87 6005
0.061481882 5.9121375 1.0153085 770 75404010 2771 14 119 5999
-0.15362512 5.8503666 0.95008069 857 75404010 3013 15 82 5929
0.49539128 5.877543 0.90890193 858 75404010 3058 16 69 5968
0.27833432 5.8546953 0.84567159 836 75404010 2933 17 88 5922
0.064032257 5.8528376 0.78805351 865 75404010 3018 18 65 5906
-0.14977263 5.8395944 0.73039472 820 75404010 2842 19 105 5887
0.49453288 5.8661356 0.68791145 840 75404010 2952 20 100 5927
0.27874056 5.8438878 0.62668741 827 75404010 2864 21 75 5884
0.066881813 5.8608232 0.57149458 838 75404010 2908 22 70 5889
-0.14663363 5.8404922 0.5151453 850 75404010 2924 23 124 5865
0.49517351 5.8602939 0.4709155 723 75404010 2518 24 88 5900
0.28026783 5.84376 0.41249144 781 75404010 2687 25 90 5865
0.066879883 5.8427792 0.3560524 814 75404010 2790 26 99 5854
-0.14309266 5.8375139 0.300607 853 75404010 2917 27 85 5847
0.4989908 5.8712697 0.25613588 435 75404010 1512 28 48 5898
0.28381062 5.8747721 0.19932708 502 75404010 1737 29 42 5885
0.072436839 5.8467731 0.14423051 653 75404010 2233 30 53 5849
-0.1405206 5.8196545 0.086977556 764 75404010 2591 31 87 5822
0.51246756 6.0261016 0.042222664 197 75404010 721 32 98 6048
0.29220453 6.0028734 -0.015209656 132 75404010 479 33 62 6010
0.074544236 5.9581094 -0.071137168 295 75404010 1049 34 67 5959
-0.13792059 5.869029 -0.12594531 432 75404010 1491 35 73 5872
0.51426077 6.0123868 -0.17920044 318 75404010 1159 36 118 6037
0.29381475 5.9461927 -0.23287092 402 75404010 1429 37 59 5958
0.077251337 5.9744253 -0.29086369 378 75404010 1353 38 98 5982
-0.14047405 5.9732494 -0.34754491 273 75404010 979 39 77 5985
0.51858675 6.0073934 -0.40017748 385 75404010 1407 40 64 6043
0.30026197 6.0212379 -0.45679379 140 75404010 512 41 98 6046
0.07943742 6.0135956 -0.51347727 214 75404010 779 42 135 6036
-0.13690504 5.9586506 -0.56561106 298 75404010 1066 43 57 5987
0.50910658 5.8736448 -0.608634 880 75404010 3092 44 97 5927
0.2959508 5.8872738 -0.66411448 757 75404010 2665 45 83 5932
0.081238635 5.9154353 -0.72293413 675 75404010 2399 46 97 5960
-0.13497689 5.9379115 -0.78426307 439 75404010 1576 47 116 5991
0.51044852 5.8323283 -0.82166743 770 75404010 2692 48 103 5912
0.29638165 5.8449817 -0.87810707 890 75404010 3115 49 51 5918
0.083208606 5.8363199 -0.93293685 896 75404010 3132 50 70 5911
-0.13098682 5.8340883 -0.9903636 931 75404010 3263 51 94 5919
0.51842397 5.8633604 -1.0491341 895 75404010 3199 52 123 5979
0.2994439 5.846859 -1.1001923 899 75404010 3191 53 103 5957
0.085256711 5.8510189 -1.1573824 883 75404010 3143 54 83 5965
-0.13129376 5.8432145 -1.2167615 930 75404010 3316 55 80 5970
0.52211851 5.8677893 -1.2779789 906 75404010 3291 56 144 6028
0.30088651 5.8154149 -1.3203254 677 75404010 2415 57 61 5971
0.086399294 5.8523083 -1.386814 849 75404010 3073 58 75 6015
-0.13100094 5.8529253 -1.4488153 951 75404010 3460 59 93 6031
0.51977241 5.7650509 -1.4854636 1111 75404010 3969 60 93 5976
0.3075999 5.8501854 -1.5622683 919 75404010 3377 61 44 6063
0.087872572 5.8756757 -1.6292095 881 75404010 3278 62 62 6098
-0.13336274 5.8489294 -1.68765 840 75404010 3113 63 53 6089
0.54191887 5.9347463 1.8601522 798 75501790 3111 0 90 6243
0.3129254 5.9012575 1.7737365 836 75501790 3184 1 91 6170
0.091192931 5.9143128 1.712763 810 75501790 3073 2 73 6158
-0.13041036 5.8611202 1.6376313 874 75501790 3240 3 59 6087
0.53768814 5.9215083 1.6062117 863 75501790 3274 4 102 6159
0.31651983 5.9201894 1.5384414 807 75501790 3026 5 47 6125
0.093068622 5.8892674 1.4672323 803 75501790 2959 6 105 6070
-0.12384222 5.8313532 1.3942719 867 75501790 3119 7 88 5997
0.53578573 5.9131632 1.3682436 839 75501790 3116 8 92 6093
0.31241462 5.8857961 1.296545 790 75501790 2878 9 97 6035
0.096040815 5.876111 1.2337434 873 75501790 3149 10 81 6005
-0.11934455 5.8604903 1.1734123 869 75501790 3107 11 64 5978
0.53355801 5.8988867 1.1364033 793 75501790 2885 12 112 6031
0.31354785 5.8646016 1.066348 830 75501790 2959 13 76 5969
0.097170286 5.8761735 1.0092157 817 75501790 2905 14 93 5963
-0.11772505 5.8511992 0.95008069 853 75501790 2999 15 79 5929
0.53144586 5.874393 0.90890193 851 75501790 3032 16 80 5968
0.31616315 5.8884568 0.85081244 811 75501790 2880 17 82 5958
0.099943392 5.8523345 0.78805351 837 75501790 2921 18 69 5906
-0.11417099 5.8523083 0.73188359 855 75501790 2977 19 76 5899
0.53159159 5.8748612 0.68930423 814 75501790 2872 20 94 5939
0.31587592 5.8658967 0.62924361 842 75501790 2939 21 104 5908
0.10284189 5.8603024 0.57149458 845 75501790 2932 22 67 5889
-0.11079428 5.8412824 0.5151453 868 75501790 2986 23 127 5865
0.53112227 5.8571453 0.4709155 686 75501790 2389 24 77 5900
0.31676599 5.8538828 0.41333541 739 75501790 2553 25 83 5877
0.10293983 5.8542352 0.35678226 824 75501790 2834 26 134 5866
-0.10749181 5.8502645 0.30122396 850 75501790 2918 27 96 5859
0.53936088 5.915854 0.2582204 403 75501790 1427 28 60 5946
0.32050443 5.8848958 0.19973353 437 75501790 1519 29 36 5897
0.10853281 5.8582125 0.14452642 606 75501790 2080 30 49 5861
-0.10502525 5.8324037 0.087156825 770 75501790 2622 31 85 5834
0.55052352 6.0347939 0.042306442 238 75501790 875 32 87 6060
0.32903197 6.0009675 -0.015209656 152 75501790 551 33 61 6010
0.1117723 5.9935312 -0.071566924 246 75501790 882 34 57 5995
-0.10211457 5.8817606 -0.1262027 411 75501790 1424 35 59 5884
0.55004686 5.9971733 -0.17884423 286 75501790 1038 36 134 6025
0.33095962 5.9562507 -0.23333995 399 75501790 1424 37 62 5970
0.11345126 5.9498715 -0.28969672 343 75501790 1217 38 116 5958
-0.10361207 5.9620209 -0.3468481 288 75501790 1029 39 59 5973
0.55212873 5.9683304 -0.3977935 489 75501790 1765 40 86 6007
0.33720195 6.0192819 -0.45679379 199 75501790 728 41 97 6046
0.11633465 6.0129948 -0.51347727 197 75501790 717 42 129 6036
-0.10114534 6.0071568 -0.57014579 272 75501790 989 43 57 6035
0.54513699 5.8704104 -0.608634 887 75501790 3116 44 110 5927
0.3327406 5.8972526 -0.66545796 780 75501790 2758 45 60 5944
0.11753353 5.9148254 -0.72293413 730 75501790 2594 46 112 5960
-0.098737381 5.9505234 -0.78583395 505 75501790 1820 47 104 6003
0.54844284 5.8527498 -0.82500303 839 75501790 2957 48 88 5936
0.33224022 5.8430533 -0.87810707 855 75501790 2996 49 77 5918
0.11901803 5.8356996 -0.93293685 885 75501790 3093 50 70 5911
-0.094994083 5.8229527 -0.98835576 928 75501790 3239 51 75 5907
0.55216575 5.8365469 -1.0449228 885 75501790 3138 52 119 5955
0.33734033 5.8802347 -1.1068412 916 75501790 3290 53 113 5993
0.12115628 5.8503857 -1.1573824 916 75501790 3260 54 105 5965
-0.096397176 5.9026427 -1.2289902 701 75501790 2550 55 72 6030
0.55811274 5.8644753 -1.2779789 928 75501790 3371 56 145 6028
0.34265116 5.9186101 -1.3442067 328 75501790 1213 57 81 6079
0.12255076 5.8633423 -1.3895807 759 75501790 2758 58 76 6027
-0.094707213 5.8303251 -1.4430499 913 75501790 3295 59 91 6007
0.56182468 5.831172 -1.5033609 799 75501790 2924 60 73 6048
0.34417003 5.8597631 -1.5653604 894 75501790 3298 61 46 6075
0.12392339 5.8750257 -1.6292095 782 75501790 2909 62 67 6098
-0.097663969 5.861166 -1.690976 831 75501790 3091 63 54 6101
0.5783236 5.9313092 1.8601522 785 75601010 3060 0 100 6243
0.34980798 5.9106994 1.7771862 844 75601010 3226 1 99 6182
0.12797759 5.9366894 1.7194382 788 75601010 3010 2 54 6182
-0.094630934 5.8733664 1.6408597 868 75601010 3231 3 68 6099
0.57401168 5.9180975 1.6062117 841 75601010 3191 4 87 6159
0.35283947 5.9181361 1.5384414 836 75601010 3134 5 48 6125
0.1289473 5.8769441 1.4643317 822 75601010 3018 6 89 6058
-0.088411793 5.8553433 1.3998517 870 75601010 3155 7 86 6021
0.57318479 5.9214034 1.3709383 822 75601010 3064 8 92 6105
0.34990931 5.9071674 1.3017012 785 75601010 2883 9 101 6059
0.13183019 5.8636703 1.2312781 847 75601010 3041 10 56 5993
-0.083550401 5.8728776 1.1757678 889 75601010 3191 11 70 5990
0.56974286 5.8955021 1.1364033 841 75601010 3059 12 122 6031
0.35093185 5.8861399 1.0706356 848 75601010 3047 13 82 5993
0.13322398 5.8754663 1.0092157 787 75601010 2798 14 107 5963
-0.081820548 5.8518114 0.95008069 860 75601010 3024 15 72 5929
0.56862152 5.8828263 0.91072947 854 75601010 3056 16 61 5980
0.3522881 5.8864059 0.85081244 846 75601010 3005 17 75 5958
0.13640282 5.8753905 0.79125595 844 75601010 2969 18 72 5930
-0.078259751 5.8528991 0.73188359 790 75601010 2750 19 83 5899
0.56992292 5.895216 0.6920898 779 75601010 2771 20 76 5963
0.35329178 5.8876686 0.6317997 830 75601010 2922 21 75 5932
0.13936374 5.8834405 0.57382363 844 75601010 2953 22 70 5913
-0.074797399 5.8298993 0.51409131 865 75601010 2964 23 114 5853
0.57051104 5.8894939 0.47378889 636 75601010 2242 24 84 5936
0.35195866 5.8398805 0.41249144 741 75601010 2549 25 99 5865
0.13829069 5.8295445 0.35532254 793 75601010 2706 26 114 5842
-0.071299985 5.8268476 0.29999009 837 75601010 2849 27 115 5835
0.57681149 5.9243655 0.25874156 364 75601010 1291 28 57 5958
0.35805878 5.9067607 0.20054643 424 75601010 1485 29 50 5921
0.14447609 5.8574362 0.14452642 576 75601010 1977 30 50 5861
-0.069378734 5.8449359 0.087336101 735 75601010 2513 31 96 5846
0.58405161 5.9954729 0.042055111 252 75601010 915 32 86 6024
0.36584702 5.9988356 -0.015209656 181 75601010 655 33 63 6010
0.14914048 6.0167232 -0.071853429 188 75601010 682 34 82 6019
-0.066696085 5.9422584 -0.1274896 372 75601010 1315 35 80 5944
0.59034091 6.0294986 -0.17991285 250 75601010 919 36 109 6061
0.36897767 5.978044 -0.23427801 406 75601010 1460 37 64 5994
0.14965482 5.9370813 -0.28911322 384 75601010 1357 38 140 5946
-0.06689319 5.9505658 -0.34615126 312 75601010 1107 39 43 5961
0.5863871 5.9409986 -0.39620417 594 75601010 2127 40 86 5983
0.37412921 6.0170999 -0.45679379 240 75601010 878 41 78 6046
0.15292287 6.0002151 -0.51245642 153 75601010 554 42 138 6024
-0.063645102 5.9479361 -0.56447738 203 75601010 726 43 64 5975
0.58350009 5.8907123 -0.61109853 890 75601010 3153 44 95 5951
0.3681744 5.8831987 -0.66411448 821 75601010 2891 45 65 5932
0.15320458 5.8901777 -0.72002292 797 75601010 2809 46 95 5936
-0.061975028 5.9272246 -0.78269219 597 75601010 2134 47 129 5979
0.58434433 5.8492746 -0.82500303 873 75601010 3077 48 87 5936
0.36808625 5.8409047 -0.87810707 863 75601010 3024 49 67 5918
0.15450865 5.8230138 -0.93104285 910 75601010 3168 50 71 5899
-0.05938372 5.8352561 -0.9903636 942 75601010 3302 51 73 5919
0.59033734 5.8565574 -1.0491341 900 75601010 3217 52 138 5979
0.37341443 5.8780541 -1.1068412 845 75601010 3035 53 106 5993
0.15736724 5.8613 -1.1597108 933 75601010 3333 54 104 5977
-0.059578642 5.8443856 -1.2167615 607 75601010 2165 55 76 5970
0.59408599 5.86094 -1.2779789 910 75601010 3306 56 139 6028
0.37970865 5.9280748 -1.3468602 155 75601010 574 57 45 6091
0.15947214 5.8974967 -1.3978808 220 75601010 810 58 60 6063
-0.059048947 5.8424439 -1.4459326 897 75601010 3251 59 85 6019
0.60707909 5.9201164 -1.5272236 381 75601010 1439 60 84 6144
0.38011837 5.8575411 -1.5653604 905 75601010 3339 61 37 6075
0.15965474 5.8625956 -1.6260034 864 75601010 3202 62 67 6086
-0.061698694 5.8616548 -1.690976 827 75601010 3080 63 64 6101
0.6182512 5.9618306 1.8708787 786 75699650 3100 0 89 6279
0.38681817 5.9199109 1.780636 837 75699650 3212 1 98 6194
0.1640829 5.9242702 1.7161005 812 75699650 3093 2 62 6170
-0.058706131 5.8853927 1.6440881 884 75699650 3300 3 53 6111
0.61150277 5.9259877 1.6093411 880 75699650 3352 4 97 6171
