# .PCD v0.7 - Point Cloud Data file format
VERSION 0.7
FIELDS x y z intensity t reflectivity ring noise range
SIZE 4 4 4 4 4 2 1 2 4
TYPE F F F F U U U U U
COUNT 1 1 1 1 1 1 1 1 1
WIDTH 836
HEIGHT 1
VIEWPOINT 0 0 0 1 0 0 0
POINTS 836
DATA ascii
4.9698606 1.5333569 -0.72993869 559 94458310 1542 48 91 5252
4.9764261 1.7374195 -0.79086024 475 94458310 1350 49 82 5330
4.9403291 1.9292959 -0.84770828 460 94458310 1328 50 85 5371
4.920011 2.1326098 -0.91005027 438 94458310 1297 51 83 5439
5.118022 1.5740813 -0.95438039 530 94458310 1568 52 121 5439
5.1162653 1.7833369 -1.0181905 469 94458310 1426 53 105 5513
5.0895119 1.9857121 -1.080547 570 94458310 1767 54 272 5569
9.5232353 4.1281042 -2.1608214 545 94458310 6126 55 116 10602
8.8379889 2.7127798 -2.0055873 106 94458310 946 56 148 9460
9.8766775 3.4368382 -2.3711019 480 94458310 5521 57 93 10723
9.5108643 3.7086332 -2.4187973 103 94458310 1136 58 94 10491
9.2300491 4.0000577 -2.4894834 314 94458310 3370 59 134 10363
8.3256426 2.5448682 -2.2341614 60 94458310 482 60 35 8988
7.0570645 2.4490569 -1.992066 236 94458310 1409 61 36 7731
6.9836688 2.7216427 -2.0780568 454 94458310 2749 62 61 7778
6.69979 2.9068446 -2.1067216 586 94458310 3388 63 66 7601
1.4602126 0.44451135 0.47643495 175 94554710 45 0 40 1599
1.4461719 0.5011512 0.45938912 182 94554710 46 1 48 1598
1.4089518 0.54833782 0.43778646 138 94554710 34 2 49 1574
1.3070852 0.56625098 0.39790648 173 94554710 38 3 52 1479
1.410045 0.43001953 0.39822781 184 94554710 43 4 41 1527
1.3547028 0.46879184 0.37198886 167 94554710 37 5 20 1481
1.2571342 0.48869753 0.33598897 170 94554710 33 6 99 1390
1.2080144 0.52188015 0.31456557 151 94554710 28 7 47 1353
1.2945825 0.39507875 0.3119137 171 94554710 33 8 62 1389
1.2836539 0.44475746 0.29883912 142 94554710 27 9 16 1391
1.2088771 0.46918535 0.27222481 192 94554710 34 10 42 1325
1.1364022 0.4897663 0.24771601 56 94554710 9 11 36 1262
1.1900609 0.36338535 0.23873703 205 94554710 33 12 85 1267
1.1873734 0.41088787 0.22813308 155 94554710 25 13 38 1277
1.1458277 0.44446167 0.21105015 54 94554710 8 14 85 1247
0 0 0 2 94554710 0 15 63 0
1.2061453 0.36827374 0.19432956 138 94554710 22 16 30 1276
1.195448 0.41337842 0.18250057 72 94554710 12 17 82 1278
1.0110464 0.39155143 0.14597538 74 94554710 9 18 60 1094
0 0 0 4 94554710 0 19 95 0
1.2643874 0.38603273 0.15448122 66 94554710 12 20 76 1331
1.0863701 0.37546891 0.12312213 260 94554710 35 21 74 1156
0 0 0 3 94554710 0 22 70 0
0 0 0 4 94554710 0 23 133 0
1.1059686 0.33743346 0.092586778 45 94554710 6 24 68 1160
1.0720631 0.37020993 0.079966374 78 94554710 10 25 69 1137
0 0 0 5 94554710 0 26 133 0
0 0 0 0 94554710 0 27 98 0
1.3360864 0.40692928 0.060711768 44 94554710 9 28 37 1398
0 0 0 0 94554710 0 29 38 0
1.2582814 0.48520395 0.033264998 112 94554710 20 30 37 1349
1.3033829 0.55809385 0.021184159 177 94554710 36 31 62 1418
0 0 0 0 94554710 0 32 91 0
1.2688051 0.43713391 -0.0033962326 101 94554710 18 33 51 1342
1.3276765 0.51177704 -0.016987447 166 94554710 34 34 82 1423
1.3274907 0.56740242 -0.030971566 174 94554710 36 35 63 1444
1.3092446 0.39798018 -0.040636975 94 94554710 18 36 114 1369
1.4117961 0.48524031 -0.058393616 149 94554710 33 37 46 1494
1.3590391 0.52321249 -0.07089255 203 94554710 43 38 114 1458
1.3962291 0.59681171 -0.088323444 167 94554710 39 39 68 1521
1.3702817 0.41535866 -0.09502808 185 94554710 38 40 85 1435
1.4241474 0.48876297 -0.11408512 188 94554710 43 41 69 1510
1.4507164 0.55804199 -0.13270785 137 94554710 33 42 159 1560
4.6247888 1.9738859 -0.47718415 491 94554710 1253 43 79 5051
1.4956586 0.45279282 -0.16132344 148 94554710 37 44 114 1571
4.8317571 1.6560763 -0.57544649 494 94554710 1306 45 94 5140
4.7887959 1.8392115 -0.62686634 511 94554710 1365 46 126 5168
4.7848048 2.0407999 -0.68686837 464 94554710 1277 47 150 5247
4.9564219 1.495966 -0.72660303 553 94554710 1512 48 94 5228
4.9982209 1.7106949 -0.79264081 467 94554710 1334 49 72 5342
4.9631381 1.9031889 -0.84960228 469 94554710 1360 50 67 5383
4.9438872 2.1070194 -0.91205812 495 94554710 1472 51 71 5451
5.116271 1.5392445 -0.95227474 543 94554710 1600 52 98 5427
5.1382713 1.7557237 -1.0204066 474 94554710 1447 53 93 5525
5.0686216 1.9418119 -1.073562 629 94554710 1926 54 104 5533
8.7378273 3.7241268 -1.9773902 293 94554710 2760 55 95 9702
8.5399752 2.5640752 -1.934353 104 94554710 864 56 141 9124
8.8896379 3.0323515 -2.1296356 48 94554710 446 57 105 9631
8.4538755 3.2368569 -2.1448929 155 94554710 1340 58 130 9303
9.2865667 3.9570463 -2.4981315 235 94554710 2544 59 85 10399
8.1740561 2.4437938 -2.1894183 71 94554710 548 60 41 8808
7.1597748 2.4355824 -2.0168025 41 94554710 249 61 44 7827
7.000237 2.6787405 -2.0780568 442 94554710 2676 62 84 7778
6.7281051 2.8702049 -2.1100476 452 94554710 2622 63 67 7613
1.4848698 0.4420805 0.48358592 186 94653680 49 0 28 1623
1.438337 0.48857161 0.45593941 205 94653680 51 1 51 1586
1.358454 0.5191099 0.42109826 132 94653680 30 2 44 1514
1.310535 0.55822021 0.39790648 170 94653680 37 3 33 1479
1.4237585 0.42467082 0.40135729 154 94653680 36 4 46 1539
1.3245544 0.44927764 0.36294657 174 94653680 36 5 22 1445
1.2818663 0.48927927 0.3417902 177 94653680 35 6 75 1414
1.2111938 0.51445812 0.31456557 134 94653680 24 7 55 1353
1.3418024 0.40050596 0.32269257 172 94653680 35 8 56 1437
1.2419696 0.42179734 0.28852692 159 94653680 29 9 20 1343
1.2336817 0.47012293 0.2771557 185 94653680 34 10 50 1349
1.1285517 0.47819355 0.24536054 57 94653680 9 11 31 1250
1.2487291 0.37293875 0.25004265 166 94653680 29 12 85 1327
1.2122347 0.41117975 0.23242064 175 94653680 30 13 33 1301
1.1927429 0.45426008 0.21917397 76 94653680 13 14 106 1295
0 0 0 0 94653680 0 15 51 0
1.1970183 0.3574723 0.19250201 131 94653680 21 16 34 1264
1.1417196 0.38697278 0.17393245 115 94653680 17 17 66 1218
1.1912895 0.45296866 0.17159444 79 94653680 13 18 58 1286
0 0 0 0 94653680 0 19 98 0
1.2438911 0.37144655 0.15169568 87 94653680 15 20 97 1307
1.0660518 0.36113936 0.12056597 155 94653680 20 21 76 1132
0 0 0 0 94653680 0 22 76 0
0 0 0 4 94653680 0 23 136 0
1.0736314 0.32037973 0.089713395 44 94653680 6 24 77 1124
1.119668 0.37897584 0.083342262 88 94653680 12 25 62 1185
0 0 0 3 94653680 0 26 137 0
0 0 0 5 94653680 0 27 136 0
1.2696195 0.37818843 0.057584979 58 94653680 10 28 47 1326
0 0 0 0 94653680 0 29 35 0
1.1602612 0.43924788 0.030601824 98 94653680 15 30 57 1241
1.2293711 0.51749974 0.019929245 201 94653680 36 31 79 1334
1.265057 0.37675726 0.0092152636 25 94653680 4 32 87 1320
1.3055713 0.44085777 -0.0034873388 107 94653680 20 33 63 1378
1.3083469 0.49512693 -0.016700938 166 94653680 33 34 99 1399
1.3862497 0.58248377 -0.032258473 167 94653680 38 35 71 1504
1.3806465 0.41044748 -0.0427742 86 94653680 18 36 117 1441
1.3579297 0.45742923 -0.05604849 151 94653680 31 37 50 1434
1.317377 0.49791351 -0.068558641 213 94653680 42 38 121 1410
1.3777763 0.5789516 -0.086929783 184 94653680 41 39 76 1497
1.3957644 0.41374898 -0.096617401 168 94653680 36 40 93 1459
1.3930955 0.46857131 -0.11136521 192 94653680 42 41 114 1474
1.4429277 0.54490602 -0.13168702 127 94653680 30 42 143 1548
4.6368132 1.9454716 -0.47718415 495 94653680 1264 43 82 5051
1.4869632 0.44021863 -0.16009118 147 94653680 36 44 85 1559
4.8079157 1.6150069 -0.57141614 521 94653680 1358 45 91 5104
4.8111362 1.8139957 -0.62832189 521 94653680 1398 46 128 5180
4.7862659 2.0068021 -0.68529749 475 94653680 1301 47 130 5235
4.9883032 1.4722536 -0.72993869 570 94653680 1572 48 104 5252
4.9636188 1.6648986 -0.78551853 471 94653680 1321 49 82 5294
4.9414525 1.8601757 -0.84392035 466 94653680 1333 50 74 5347
4.9458108 2.072073 -0.91005027 509 94653680 1506 51 97 5439
5.1482868 1.5144908 -0.95648605 534 94653680 1587 52 98 5451
5.1153979 1.7129285 -1.0137579 477 94653680 1437 53 102 5489
5.058404 1.902387 -1.0689052 718 94653680 2180 54 88 5509
8.6413231 3.6205044 -1.9504869 229 94653680 2100 55 84 9570
5.3936334 1.583393 -1.219465 119 94653680 394 56 237 5752
9.8071165 3.2782753 -2.3445671 105 94653680 1185 57 65 10603
9.6431007 3.6245072 -2.4409311 328 94653680 3678 58 95 10587
9.2784405 3.8864894 -2.4894834 137 94653680 1475 59 73 10363
7.9880791 2.3348942 -2.1357267 80 94653680 588 60 48 8592
7.0645871 2.354938 -1.9858818 30 94653680 181 61 65 7707
7.0273671 2.6398039 -2.0812631 430 94653680 2612 62 68 7790
6.7774878 2.8422451 -2.1200254 417 94653680 2443 63 58 7649
1.5095516 0.4393636 0.49073693 194 94751820 53 0 13 1647
1.4413078 0.47973692 0.45593941 197 94751820 50 1 32 1586
1.383198 0.51886153 0.42777354 125 94751820 29 2 40 1538
1.3352569 0.5590961 0.40436336 120 94751820 27 3 35 1503
1.4485805 0.42241302 0.40761629 184 94751820 45 4 50 1563
1.3383087 0.44480532 0.36596066 186 94751820 39 5 2 1457
1.2521327 0.46914825 0.33308834 138 94751820 26 6 106 1378
1.2466379 0.52050716 0.3229354 154 94751820 30 7 68 1389
1.3442346 0.39226529 0.32269257 176 94751820 36 8 56 1437
1.2556545 0.41786951 0.29110494 156 94751820 29 9 26 1355
1.2255434 0.45842978 0.27469024 149 94751820 27 10 40 1337
1.174913 0.48935631 0.25478241 82 94751820 14 11 31 1298
1.2623067 0.36857283 0.25230378 144 94751820 26 12 103 1339
1.2147349 0.40373388 0.23242064 170 94751820 29 13 46 1301
1.1401174 0.42622566 0.20901918 79 94751820 12 14 78 1235
0 0 0 0 94751820 0 15 37 0
1.244728 0.36341655 0.1998122 131 94751820 23 16 37 1312
1.1328009 0.37621659 0.17221884 173 94751820 25 17 72 1206
1.060343 0.39574876 0.15238015 70 94751820 9 18 86 1142
0 0 0 3 94751820 0 19 84 0
1.257588 0.36714742 0.15308845 118 94751820 21 20 84 1319
1.1135443 0.36962706 0.1256783 88 94751820 12 21 65 1180
0 0 0 4 94751820 0 22 64 0
0 0 0 4 94751820 0 23 132 0
1.1215092 0.32718611 0.093544573 40 94751820 6 24 61 1172
1.133334 0.37586662 0.084186234 89 94751820 13 25 62 1197
0 0 0 3 94751820 0 26 138 0
0 0 0 4 94751820 0 27 126 0
1.0647261 0.31005585 0.048204619 35 94751820 4 28 62 1110
0 0 0 0 94751820 0 29 24 0
1.2528956 0.46554789 0.032969087 113 94751820 20 30 30 1337
1.2768718 0.52829558 0.020646339 170 94751820 33 31 66 1382
1.3364729 0.38911453 0.0097179152 27 94751820 5 32 84 1392
1.3082517 0.43283865 -0.0034873388 106 94751820 20 33 61 1378
1.3676016 0.50797999 -0.017417205 160 94751820 34 34 88 1459
1.3454424 0.5556488 -0.031228948 205 94751820 44 35 74 1456
1.3716207 0.39862081 -0.042417992 63 94751820 13 36 129 1429
1.3493242 0.44533047 -0.055579465 155 94751820 31 37 56 1422
1.3541199 0.50232697 -0.070309073 235 94751820 49 38 113 1446
1.3813027 0.57048684 -0.086929783 170 94751820 38 39 70 1497
1.3752756 0.39851192 -0.09502808 172 94751820 36 40 60 1435
1.4186734 0.46750465 -0.11317848 186 94751820 42 41 72 1498
1.4126104 0.52357602 -0.12862453 166 94751820 38 42 177 1512
4.6597075 1.9215384 -0.47831783 530 94751820 1359 43 85 5063
1.4667041 0.42445016 -0.15762666 119 94751820 28 44 76 1535
4.8177347 1.5854757 -0.57141614 513 94751820 1337 45 101 5104
4.8110051 1.7803072 -0.62686634 510 94751820 1363 46 107 5168
4.7764907 1.9683311 -0.68215573 458 94751820 1243 47 128 5211
4.9858246 1.4383243 -0.72827083 545 94751820 1497 48 100 5240
4.9850149 1.6381159 -0.7872991 449 94751820 1265 49 78 5306
4.9638886 1.8339272 -0.84581435 471 94751820 1354 50 69 5359
4.9365525 2.0326781 -0.90603465 470 94751820 1379 51 96 5415
5.1347747 1.4763441 -0.95227474 523 94751820 1540 52 114 5427
5.1370182 1.685185 -1.0159742 446 94751820 1350 53 87 5501
5.1031122 1.8835419 -1.0758903 557 94751820 1713 54 107 5545
8.5221539 3.5092618 -1.9186921 224 94751820 1987 55 86 9414
5.301795 1.5211604 -1.1965681 578 94751820 1842 56 197 5644
9.5490017 3.1269875 -2.2782302 143 94751820 1520 57 89 10303
9.6542034 3.561229 -2.4381645 576 94751820 6444 58 84 10575
9.3775129 3.8605256 -2.5096624 309 94751820 3376 59 79 10447
7.845787 2.2411413 -2.093967 95 94751820 672 60 43 8424
9.3274002 3.0457704 -2.6166642 97 94751820 1004 61 71 10155
9.3436241 3.4446249 -2.7609463 124 94751820 1326 62 98 10334
6.8054595 2.8049994 -2.1233513 451 94751820 2649 63 65 7661
1.556291 0.44262746 0.50503892 173 94848830 50 0 31 1695
1.4442242 0.4708842 0.45593941 206 94848830 52 1 49 1586
1.3863556 0.51036459 0.42777354 126 94848830 30 2 48 1538
1.3279744 0.54649425 0.40113491 139 94848830 31 3 37 1491
1.4177214 0.40399235 0.39822781 196 94848830 46 4 34 1527
1.3520576 0.44018102 0.36897478 185 94848830 40 5 17 1469
1.3314891 0.48958591 0.35339269 153 94848830 33 6 88 1462
1.2606057 0.51727879 0.32572532 152 94848830 30 7 69 1401
1.3241258 0.37759632 0.31730315 167 94848830 33 8 39 1413
1.2916229 0.42105424 0.29883912 169 94848830 33 9 16 1391
1.1952592 0.43876046 0.26729396 233 94848830 39 10 43 1301
1.1452247 0.46876588 0.24771601 100 94848830 16 11 29 1262
1.2985426 0.37052146 0.25908715 165 94848830 31 12 79 1375
1.1947354 0.3889626 0.22813308 207 94848830 34 13 46 1277
1.2204341 0.44773588 0.22323586 89 94848830 16 14 88 1319
1.0972384 0.44881105 0.19245183 63 94848830 9 15 47 1201
1.2583393 0.35902622 0.20163977 138 94848830 24 16 33 1324
1.1463825 0.37293297 0.17393245 150 94848830 22 17 67 1218
1.0627514 0.38923517 0.15238015 89 94848830 12 18 68 1142
0 0 0 2 94848830 0 19 83 0
1.2827404 0.36596406 0.15587398 111 94848830 20 20 70 1343
1.1157913 0.36278751 0.1256783 52 94848830 7 21 92 1180
0 0 0 2 94848830 0 22 69 0
0 0 0 3 94848830 0 23 141 0
1.1234956 0.32029852 0.093544573 53 94848830 7 24 67 1172
1.1356189 0.36890554 0.084186234 96 94848830 14 25 50 1197
0 0 0 4 94848830 0 26 119 0
0 0 0 3 94848830 0 27 132 0
1.1819175 0.33632964 0.053415928 30 94848830 5 28 68 1230
0 0 0 0 94848830 0 29 35 0
1.1092113 0.40442982 0.029122286 91 94848830 13 30 56 1181
1.2689743 0.51593184 0.020467065 175 94848830 33 31 66 1370
1.3850019 0.39404148 0.010053015 40 94848830 8 32 85 1440
1.288052 0.41740462 -0.0034266014 94 94848830 17 33 70 1354
1.3030506 0.47492531 -0.016557686 138 94848830 27 34 98 1387
1.1487259 0.4661777 -0.026596081 328 94848830 50 35 88 1240
1.2586559 0.35743046 -0.038855951 33 94848830 6 36 124 1309
1.3634409 0.4407309 -0.05604849 140 94848830 29 37 36 1434
1.4022281 0.51040739 -0.072642982 174 94848830 39 38 92 1494
1.351476 0.54848552 -0.084839292 197 94848830 42 39 82 1461
1.4122573 0.39985153 -0.097412057 161 94848830 35 40 76 1471
1.4215152 0.45879102 -0.11317848 173 94848830 39 41 88 1498
1.4382693 0.52307147 -0.13066618 128 94848830 30 42 146 1536
4.6603379 1.8884243 -0.47718415 496 94848830 1266 43 85 5051
1.469281 0.41544265 -0.15762666 120 94848830 28 44 87 1535
4.8160224 1.5522267 -0.57007265 505 94848830 1310 45 95 5092
4.8442311 1.7588843 -0.62977749 493 94848830 1329 46 129 5192
4.8105316 1.9479163 -0.68529749 493 94848830 1350 47 136 5235
4.9831181 1.4044811 -0.72660303 551 94848830 1506 48 93 5228
4.9949727 1.6074976 -0.7872991 443 94848830 1248 49 70 5306
4.9750481 1.8034347 -0.84581435 457 94848830 1314 50 67 5359
4.9598985 2.0067871 -0.90804243 465 94848830 1371 51 78 5427
5.1437368 1.44481 -0.95227474 512 94848830 1508 52 122 5427
5.1584897 1.6572403 -1.0181905 489 94848830 1486 53 106 5513
5.1256423 1.8562027 -1.0782186 453 94848830 1399 54 115 5557
9.6979094 3.9239945 -2.1779418 387 94848830 4424 55 185 10686
5.277153 1.4791056 -1.1889359 688 94848830 2163 56 135 5608
9.6683044 3.1005003 -2.3021114 85 94848830 923 57 94 10411
9.6868525 3.5058987 -2.4409311 586 94848830 6571 58 82 10587
9.3686285 3.7898088 -2.5010142 584 94848830 6332 59 94 10411
7.5906935 2.1179852 -2.0223782 114 94848830 758 60 58 8136
9.180254 2.9355094 -2.5702832 67 94848830 670 61 74 9975
9.2558403 3.3478956 -2.7288859 222 94848830 2314 62 136 10214
6.8439164 2.7718456 -2.1300035 464 94848830 2738 63 53 7685
1.4817185 0.41160804 0.48001042 163 94946980 42 0 46 1611
1.4799331 0.47250083 0.4662886 219 94946980 58 1 35 1622
1.367779 0.49401727 0.42109826 117 94946980 27 2 47 1514
1.3420173 0.54266834 0.40436336 164 94946980 37 3 25 1503
1.3978525 0.38907301 0.39196882 176 94946980 40 4 53 1503
1.354733 0.43187666 0.36897478 165 94946980 36 5 16 1469
1.3235149 0.4774555 0.35049209 173 94946980 36 6 78 1450
1.2637559 0.50953412 0.32572532 164 94946980 32 7 68 1401
1.348947 0.3757399 0.32269257 163 94946980 34 8 44 1437
1.2941821 0.41312107 0.29883912 173 94946980 33 9 13 1391
1.2642246 0.45529374 0.28208655 193 94946980 36 10 54 1373
1.2354134 0.49685377 0.26655969 102 94946980 19 11 33 1358
1.2780869 0.35621867 0.25456488 170 94946980 31 12 74 1351
1.2195979 0.38879681 0.23242064 195 94946980 33 13 44 1301
1.1675181 0.42021298 0.21308109 164 94946980 26 14 82 1259
1.0010566 0.4023169 0.17514558 63 94946980 7 15 52 1093
1.180546 0.32901061 0.1888469 144 94946980 22 16 44 1240
1.2278663 0.3911258 0.18592779 167 94946980 28 17 39 1302
1.1210804 0.40281409 0.1603861 96 94946980 14 18 56 1202
0 0 0 4 94946980 0 19 107 0
1.2275547 0.34208852 0.14891015 124 94946980 20 20 78 1283
1.1407353 0.36317366 0.12823448 39 94946980 6 21 73 1204
1.0089456 0.36198634 0.10451684 201 94946980 23 22 77 1077
0 0 0 0 94946980 0 23 126 0
1.1600096 0.32302544 0.096417956 50 94946980 7 24 48 1208
1.1720825 0.3728157 0.086718149 88 94946980 13 25 67 1233
0 0 0 4 94946980 0 26 115 0
0 0 0 7 94946980 0 27 137 0
1.0915525 0.30338761 0.049246881 45 94946980 6 28 53 1134
1.1820685 0.37553769 0.042033121 46 94946980 7 29 42 1241
0 0 0 4 94946980 0 30 60 0
1.2386882 0.49478334 0.019929245 171 94946980 30 31 85 1334
1.3527088 0.37589744 0.0098016895 49 94946980 10 32 78 1404
1.2562748 0.39860585 -0.0033354955 57 94946980 10 33 73 1318
1.3285376 0.47500035 -0.016844191 156 94946980 31 34 86 1411
1.2852948 0.5124377 -0.029684659 188 94946980 36 35 75 1384
1.2839421 0.35611242 -0.039568361 31 94946980 5 36 129 1333
1.3775514 0.43597475 -0.056517515 121 94946980 25 37 52 1446
1.4053335 0.50179386 -0.072642982 167 94946980 37 38 96 1494
1.3993273 0.55792999 -0.087626614 198 94946980 45 39 62 1509
1.4146842 0.39117855 -0.097412057 136 94946980 29 40 79 1471
1.4699422 0.46448132 -0.11680502 191 94946980 46 41 77 1546
1.4301904 0.51021916 -0.12964535 153 94946980 35 42 154 1524
4.7051353 1.8730488 -0.48058519 479 94946980 1240 43 89 5087
1.4602965 0.40324226 -0.15639441 137 94946980 32 44 80 1523
4.8481998 1.5298237 -0.57275957 521 94946980 1365 45 73 5116
4.8437109 1.7251312 -0.62832189 531 94946980 1425 46 119 5180
4.8223934 1.9183627 -0.68529749 499 94946980 1367 47 115 5235
5.0030994 1.3770323 -0.72827083 526 94946980 1445 48 98 5240
5.0047417 1.5768187 -0.7872991 454 94946980 1279 49 75 5306
4.9860201 1.7728745 -0.84581435 471 94946980 1354 50 71 5359
4.9501305 1.967576 -0.90402681 456 94946980 1332 51 77 5403
5.163898 1.4163463 -0.95438039 498 94946980 1473 52 119 5439
5.157311 1.6220189 -1.0159742 476 94946980 1441 53 93 5501
5.159121 1.8325983 -1.0828754 474 94946980 1476 54 115 5581
8.4990721 3.3783798 -1.9040176 459 94946980 4002 55 162 9342
5.2974405 1.4497935 -1.19148 693 94946980 2188 56 138 5620
9.0618696 2.8448229 -2.1535168 80 94946980 758 57 122 9739
9.7521973 3.4620204 -2.4519978 587 94946980 6643 58 69 10635
9.3917065 3.7322526 -2.5010142 221 94946980 2394 59 126 10411
7.4128966 2.0194328 -1.9716696 86 94946980 539 60 40 7932
8.5673666 2.6816995 -2.3940351 82 94946980 712 61 66 9291
9.3742924 3.3258383 -2.7577403 181 94946980 1925 62 156 10322
6.8500819 2.7255373 -2.1266775 449 94946980 2646 63 61 7673
1.5394944 0.41749966 0.49788794 172 95044870 48 0 26 1671
1.4718344 0.45998278 0.46283889 202 95044870 53 1 63 1610
1.3925142 0.49331346 0.42777354 139 95044870 33 2 32 1538
1.3238397 0.52588993 0.39790648 157 95044870 34 3 48 1479
1.478469 0.40175352 0.41387528 181 95044870 46 4 26 1587
1.3573574 0.42355603 0.36897478 167 95044870 36 5 1 1469
1.3483741 0.47709373 0.35629335 130 95044870 28 6 88 1474
1.2343055 0.48887679 0.31735551 172 95044870 32 7 55 1365
1.3399434 0.36438733 0.31999788 162 95044870 33 8 57 1425
1.2631333 0.39468622 0.29110494 180 95044870 33 9 17 1355
1.2448475 0.43970528 0.2771557 164 95044870 30 10 44 1349
1.2165519 0.48061728 0.26184878 124 95044870 22 11 29 1334
1.3257349 0.36074707 0.26360938 177 95044870 35 12 64 1399
1.2895862 0.40240842 0.24528325 182 95044870 34 13 27 1373
1.10316 0.38942021 0.20089535 304 95044870 43 14 91 1187
1.0365586 0.40921545 0.18091434 46 95044870 6 15 47 1129
1.2283185 0.334216 0.19615711 146 95044870 24 16 31 1288
1.2302431 0.38358441 0.18592779 105 95044870 18 17 71 1302
1.1571807 0.40778577 0.16518968 77 95044870 12 18 55 1238
0 0 0 4 95044870 0 19 109 0
1.2411314 0.337679 0.15030292 147 95044870 25 20 73 1295
1.1087679 0.34551787 0.12440022 36 95044870 5 21 96 1168
1.0449466 0.36768141 0.10801044 290 95044870 36 22 87 1113
0 0 0 3 95044870 0 23 118 0
1.1388843 0.30962545 0.09450236 57 95044870 8 24 62 1184
1.1514897 0.3585003 0.085030206 59 95044870 9 25 91 1209
0 0 0 3 95044870 0 26 122 0
0 0 0 0 95044870 0 27 118 0
1.1281044 0.30610281 0.050810274 29 95044870 4 28 45 1170
1.2416116 0.38608313 0.044065345 60 95044870 10 29 19 1301
0 0 0 3 95044870 0 30 54 0
1.2193614 0.47840881 0.019570697 150 95044870 26 31 82 1310
1.4244765 0.38644111 0.010304341 46 95044870 10 32 64 1476
0 0 -0 0 95044870 0 33 67 0
1.3427504 0.47080997 -0.016987447 123 95044870 25 34 70 1423
1.3442709 0.52641487 -0.030971566 175 95044870 36 35 51 1444
1.2629473 0.34195793 -0.038855951 25 95044870 4 36 122 1309
1.4031085 0.43460971 -0.057455562 119 95044870 26 37 32 1470
1.3970736 0.48920032 -0.072059512 173 95044870 38 38 112 1482
1.3692597 0.536228 -0.085536122 173 95044870 38 39 71 1473
1.4054979 0.3793706 -0.096617401 125 95044870 27 40 80 1459
1.4270382 0.44131231 -0.11317848 148 95044870 33 41 93 1498
1.4332942 0.50143403 -0.12964535 154 95044870 36 42 137 1524
4.6609092 1.8223922 -0.47491682 512 95044870 1295 43 67 5027
1.4973189 0.40359414 -0.16009118 128 95044870 31 44 62 1559
4.8461018 1.4965283 -0.57141614 486 95044870 1267 45 75 5104
4.8317146 1.6875231 -0.62541074 541 95044870 1439 46 112 5156
4.8008308 1.8757486 -0.68058485 513 95044870 1386 47 118 5199
5.0114546 1.3463079 -0.72827083 540 95044870 1483 48 107 5240
4.991642 1.5390873 -0.78373796 476 95044870 1329 49 88 5282
4.9744263 1.7344449 -0.84202635 480 95044870 1367 50 72 5335
4.9841514 1.9457703 -0.90804243 503 95044870 1482 51 80 5427
5.1839037 1.3876895 -0.95648605 513 95044870 1524 52 116 5451
5.1671662 1.5903437 -1.0159742 467 95044870 1414 53 85 5501
5.1702685 1.800908 -1.0828754 467 95044870 1455 54 98 5581
8.4868116 3.3133495 -1.8966805 581 95044870 5034 55 80 9306
5.3175669 1.4202878 -1.1940241 598 95044870 1896 56 140 5632
8.6987972 2.6723192 -2.0632987 81 95044870 706 57 111 9331
9.8063393 3.4136333 -2.4602981 403 95044870 4591 58 88 10671
8.4052563 3.2806644 -2.2329197 174 95044870 1506 59 188 9295
7.29035 1.9380751 -1.9358754 127 95044870 773 60 59 7788
8.3286724 2.5509806 -2.3229175 78 95044870 630 61 52 9015
9.3508358 3.2530577 -2.744916 73 95044870 772 62 104 10274
6.9096322 2.7002416 -2.1399813 457 95044870 2727 63 67 7721
1.5973961 0.42269719 0.51576543 191 95142090 57 0 45 1731
1.441656 0.44085991 0.45248967 193 95142090 48 1 35 1574
1.395515 0.48475987 0.42777354 118 95142090 28 2 39 1538
1.3270415 0.51775712 0.39790648 163 95142090 36 3 36 1479
1.4361151 0.38079748 0.40135729 187 95142090 44 4 39 1539
1.4154758 0.43217874 0.38404521 163 95142090 38 5 18 1529
1.3402752 0.46499461 0.35339269 174 95142090 37 6 79 1462
1.3025452 0.50668097 0.33409515 147 95142090 30 7 58 1437
1.342154 0.35615873 0.31999788 165 95142090 33 8 48 1425
1.3327773 0.40748838 0.30657327 167 95142090 34 9 22 1427
1.3363004 0.46280572 0.29687914 169 95142090 35 10 57 1445
1.1755986 0.45611894 0.25242692 137 95142090 23 11 29 1286
1.3279233 0.35260573 0.26360938 158 95142090 31 12 86 1399
1.258154 0.38414463 0.23885193 155 95142090 28 13 49 1337
1.083176 0.37490734 0.19683346 324 95142090 44 14 103 1163
1.0611378 0.41141114 0.18476015 38 95142090 5 15 52 1153
1.2876602 0.34189054 0.20529486 148 95142090 27 16 22 1348
1.2212135 0.37256286 0.18421417 129 95142090 22 17 64 1290
1.227105 0.42398053 0.17479683 49 95142090 8 18 59 1310
0 0 0 3 95142090 0 19 81 0
1.2546997 0.33311564 0.15169568 150 95142090 26 20 59 1307
1.2135842 0.37002698 0.13590297 31 95142090 5 21 76 1276
1.0133117 0.34957775 0.10451684 564 95142090 65 22 84 1077
0 0 0 4 95142090 0 23 137 0
1.1060773 0.29342994 0.091628976 94 95142090 12 24 81 1148
1.1536678 0.35142815 0.085030206 77 95142090 11 25 72 1209
0 0 0 3 95142090 0 26 105 0
0 0 0 0 95142090 0 27 108 0
1.0951934 0.28996971 0.049246881 29 95142090 4 28 48 1134
1.2324833 0.37496668 0.043658897 56 95142090 9 29 30 1289
0 0 0 4 95142090 0 30 47 0
1.1774883 0.45366296 0.018853603 157 95142090 25 31 64 1262
1.2760186 0.33777457 0.0092152636 56 95142090 10 32 86 1320
0 0 -0 0 95142090 0 33 54 0
1.3342664 0.45866138 -0.016844191 132 95142090 26 34 82 1411
1.3698714 0.52676868 -0.031486329 181 95142090 39 35 73 1468
0 0 -0 0 95142090 0 36 118 0
1.3598468 0.41208225 -0.055579465 104 95142090 21 37 56 1422
1.4340583 0.4922938 -0.073809944 177 95142090 41 38 106 1518
1.3613428 0.52351636 -0.084839292 192 95142090 41 39 66 1461
1.4656936 0.38598579 -0.1005907 87 95142090 20 40 83 1519
1.4526253 0.43947786 -0.11499175 157 95142090 36 41 85 1522
1.4137244 0.48487213 -0.12760369 175 95142090 39 42 167 1500
4.6943083 1.8023227 -0.47718415 489 95142090 1246 43 51 5051
1.4305027 0.37618446 -0.15269762 166 95142090 37 44 66 1487
4.8551931 1.466765 -0.57141614 485 95142090 1264 45 96 5104
4.8532472 1.661703 -0.62686634 546 95142090 1458 46 136 5168
4.8455715 1.85904 -0.68529749 496 95142090 1359 47 133 5235
4.9966307 1.3095075 -0.72493523 505 95142090 1374 48 92 5216
5.0123534 1.5118572 -0.78551853 494 95142090 1386 49 70 5294
4.9961877 1.7077223 -0.84392035 495 95142090 1416 50 80 5347
5.0070438 1.9193863 -0.91005027 487 95142090 1442 51 86 5439
5.1923208 1.3558555 -0.95648605 502 95142090 1492 52 118 5451
5.1768274 1.5586087 -1.0159742 483 95142090 1462 53 115 5501
5.1589403 1.761542 -1.0782186 436 95142090 1347 54 77 5557
8.5289211 3.2696238 -1.901572 538 95142090 4686 55 75 9330
5.3715749 1.3994595 -1.2042005 470 95142090 1516 56 120 5680
8.4684582 2.5447981 -2.0049222 99 95142090 816 57 87 9067
9.0314283 3.0818834 -2.2610948 28 95142090 272 58 81 9807
9.4911852 3.6375647 -2.5154281 290 95142090 3178 59 128 10471
7.0545754 1.8291259 -1.8702524 141 95142090 796 60 37 7524
8.0442772 2.4099846 -2.2394316 86 95142090 647 61 43 8691
9.3925104 3.2030859 -2.751328 63 95142090 664 62 41 10298
6.9260707 2.657794 -2.1399813 459 95142090 2739 63 67 7721
1.566685 0.40430087 0.50503892 203 95240590 58 0 21 1695
1.521414 0.45506075 0.47663778 203 95240590 56 1 42 1658
1.4530195 0.49476492 0.4444617 130 95240590 33 2 47 1598
1.3409861 0.51373953 0.40113491 142 95240590 32 3 37 1491
1.4384246 0.37197846 0.40135729 190 95240590 45 4 43 1539
1.4069715 0.42016178 0.38103113 176 95240590 40 5 5 1517
1.3761754 0.46800929 0.36209458 142 95240590 32 6 87 1498
1.2620177 0.48202184 0.3229354 163 95240590 32 7 60 1389
1.4009168 0.36256585 0.33347145 171 95240590 38 8 52 1485
1.2566532 0.37579808 0.28852692 151 95240590 27 9 29 1343
1.2723908 0.43194637 0.28208655 161 95240590 30 10 54 1373
1.189371 0.45308581 0.25478241 130 95240590 22 11 36 1298
1.3414706 0.34740564 0.26587051 152 95240590 30 12 70 1411
1.2265477 0.36628214 0.23242064 144 95240590 24 13 52 1301
1.1414554 0.38725251 0.20698823 276 95240590 41 14 101 1223
1.2075522 0.459674 0.20975806 41 95240590 7 15 43 1309
1.2208459 0.31614429 0.19432956 134 95240590 22 16 22 1276
1.2462387 0.37185445 0.18764141 126 95240590 22 17 71 1314
1.1620977 0.39355469 0.16518968 54 95240590 8 18 60 1238
0 0 0 0 95240590 0 19 81 0
1.2451818 0.32242298 0.15030292 151 95240590 25 20 72 1295
1.1815293 0.35234424 0.13206872 53 95240590 8 21 90 1240
1.0041236 0.33952796 0.10335231 776 95240590 88 22 78 1065
0 0 0 5 95240590 0 23 151 0
1.1194375 0.28963387 0.092586778 235 95240590 32 24 71 1160
1.2246342 0.36484951 0.090094037 55 95240590 9 25 65 1281
0 0 0 4 95240590 0 26 117 0
0 0 0 2 95240590 0 27 120 0
1.2246394 0.3162145 0.054979321 22 95240590 3 28 57 1266
1.280741 0.38107845 0.045284674 71 95240590 13 29 35 1337
0 0 0 3 95240590 0 30 44 0
0 0 0 6 95240590 0 31 126 0
1.3710175 0.35393426 0.0098854648 47 95240590 9 32 86 1416
0 0 -0 0 95240590 0 33 62 0
1.2802 0.43131068 -0.016127925 105 95240590 19 34 92 1351
1.3057333 0.49293005 -0.029942039 183 95240590 36 35 84 1396
1.4064337 0.36234409 -0.043130402 29 95240590 6 36 109 1453
1.3508531 0.40032366 -0.05511044 102 95240590 20 37 48 1410
1.4143318 0.47584125 -0.072642982 165 95240590 37 38 99 1494
1.3869445 0.5236159 -0.086232953 193 95240590 43 39 63 1485
1.39845 0.35911623 -0.095822737 35 95240590 7 40 91 1447
1.4438205 0.42716181 -0.11408512 132 95240590 30 41 71 1510
1.4280063 0.47999805 -0.12862453 188 95240590 43 42 138 1512
4.7052789 1.7734851 -0.47718415 521 95240590 1330 43 96 5051
1.4790339 0.37925956 -0.15762666 143 95240590 34 44 84 1535
4.8869739 1.4437034 -0.57410306 482 95240590 1268 45 93 5128
4.8746448 1.635682 -0.62832189 496 95240590 1331 46 119 5180
4.8568873 1.8292732 -0.68529749 508 95240590 1392 47 138 5235
5.0391126 1.2876503 -0.72993869 442 95240590 1219 48 103 5252
5.032918 1.4844307 -0.7872991 497 95240590 1400 49 80 5306
5.0178084 1.6807978 -0.84581435 473 95240590 1359 50 85 5359
4.9744358 1.87196 -0.90201896 513 95240590 1492 51 75 5391
5.2005424 1.3239706 -0.95648605 455 95240590 1352 52 119 5451
5.1862931 1.5268148 -1.0159742 481 95240590 1456 53 100 5501
5.169652 1.7298542 -1.0782186 459 95240590 1418 54 101 5557
9.8572598 3.7096415 -2.1926162 391 95240590 4524 55 124 10758
5.3800607 1.3664738 -1.2042005 466 95240590 1503 56 135 5680
8.2144346 2.413609 -1.9412388 91 95240590 703 57 91 8779
9.7146044 3.2485995 -2.4270973 86 95240590 957 58 69 10527
9.5787411 3.6038706 -2.5327244 452 95240590 5028 59 74 10543
6.9304376 1.7516273 -1.8344581 152 95240590 825 60 56 7380
7.8697505 2.3051717 -2.1868665 99 95240590 711 61 37 8487
9.3242464 3.1160724 -2.7256796 91 95240590 951 62 75 10202
6.9530382 2.6193111 -2.1433072 379 95240590 2269 63 71 7733
1.5913541 0.40026864 0.51218992 184 95338380 54 0 35 1719
1.4910833 0.43603912 0.4662886 187 95338380 49 1 65 1622
1.4450941 0.48219168 0.44112408 136 95338380 34 2 54 1586
1.3224776 0.49736488 0.39467803 153 95338380 33 3 32 1467
1.4631468 0.36880857 0.40761629 182 95338380 45 4 58 1563
1.3983732 0.40826559 0.37801704 186 95338380 42 5 25 1505
1.3569275 0.45219374 0.35629335 165 95338380 36 6 90 1474
1.3086648 0.49065858 0.33409515 173 95338380 36 7 50 1437
1.403115 0.35396317 0.33347145 166 95338380 36 8 57 1485
1.2926819 0.37794697 0.29626107 159 95338380 30 9 38 1379
1.2973046 0.43154481 0.28701741 144 95338380 28 10 59 1397
1.159065 0.43341574 0.24771601 151 95338380 24 11 42 1262
1.2978706 0.32763004 0.25682601 155 95338380 29 12 96 1363
1.2741072 0.37198523 0.24099572 162 95338380 29 13 37 1349
1.155033 0.38397229 0.20901918 222 95338380 34 14 80 1235
1.1992544 0.44811001 0.20783515 48 95338380 8 15 68 1297
1.2917589 0.32606322 0.20529486 161 95338380 29 16 21 1348
1.2484969 0.36420068 0.18764141 127 95338380 22 17 54 1314
1.0854784 0.36019787 0.15398134 86 95338380 12 18 66 1154
1.032915 0.38523719 0.13784076 176 95338380 22 19 72 1111
1.2009108 0.30310923 0.14473185 187 95338380 29 20 79 1247
1.1951239 0.34842747 0.13334681 74 95338380 12 21 68 1252
0.94950128 0.31457952 0.097529635 905 95338380 92 22 72 1005
0 0 0 0 95338380 0 23 135 0
1.1559892 0.29153499 0.095460162 223 95338380 32 24 42 1196
1.134908 0.33054972 0.083342262 51 95338380 7 25 65 1185
0 0 0 5 95338380 0 26 119 0
0 0 0 3 95338380 0 27 80 0
1.1219215 0.28236023 0.050289147 20 95338380 3 28 52 1158
1.2485077 0.36316371 0.044065345 69 95338380 12 29 21 1301
0 0 0 3 95338380 0 30 52 0
0 0 0 3 95338380 0 31 109 0
1.3498894 0.33965901 0.0097179152 72 95338380 14 32 80 1392
1.3348205 0.38773963 -0.0035177076 41 95338380 8 33 71 1390
1.3170058 0.43473098 -0.016557686 96 95338380 19 34 69 1387
1.3537328 0.50158203 -0.030971566 164 95338380 34 35 71 1444
1.3620963 0.34202281 -0.041705586 30 95338380 6 36 119 1405
1.3072147 0.37868181 -0.053234342 81 95338380 15 37 56 1362
1.3603082 0.4483929 -0.069725595 135 95338380 28 38 110 1434
1.4125981 0.52342075 -0.087626614 187 95338380 43 39 70 1509
0 0 -0 0 95338380 0 40 83 0
1.3659515 0.39502528 -0.10773866 124 95338380 25 41 108 1426
1.3968549 0.46000725 -0.12556204 219 95338380 48 42 149 1476
4.7160721 1.7445806 -0.47718415 503 95338380 1284 43 79 5051
1.4581722 0.36438945 -0.15516213 139 95338380 32 44 85 1511
4.8842835 1.410382 -0.57275957 472 95338380 1236 45 82 5116
4.8506417 1.5945812 -0.62395513 501 95338380 1326 46 115 5144
4.8233848 1.7829384 -0.67901397 479 95338380 1289 47 116 5187
5.0469184 1.2567067 -0.72993869 412 95338380 1137 48 97 5252
5.0305285 1.4502341 -0.78551853 501 95338380 1405 49 83 5294
5.0280271 1.6499774 -0.84581435 487 95338380 1400 50 75 5359
5.0080247 1.8496 -0.90603465 475 95338380 1394 51 88 5415
5.1971016 1.2891914 -0.95438039 458 95338380 1355 52 120 5439
5.1955643 1.4949636 -1.0159742 476 95338380 1441 53 103 5501
5.2025414 1.7054352 -1.0828754 485 95338380 1511 54 85 5581
9.8798361 3.6490886 -2.1926162 264 95338380 3060 55 182 10758
5.3769603 1.3306196 -1.2016563 477 95338380 1532 56 144 5668
8.0153713 2.3017869 -1.8908228 97 95338380 711 57 82 8551
9.6455832 3.1598496 -2.4049637 107 95338380 1168 58 70 10431
9.6006737 3.5450287 -2.5327244 585 95338380 6504 59 102 10543
6.7943339 1.6729434 -1.795681 159 95338380 832 60 66 7224
7.6942468 2.2025933 -2.1343012 118 95338380 807 61 44 8283
9.2442827 3.0264204 -2.6968253 80 95338380 818 62 81 10094
7.9963465 2.9564412 -2.4592738 34 95338380 268 63 109 8873
1.5715283 0.38504478 0.50503892 195 95438500 56 0 12 1695
1.5047816 0.43004 0.4697383 206 95438500 55 1 46 1634
1.4480256 0.47331569 0.44112408 122 95438500 31 2 44 1586
1.3471894 0.49724486 0.40113491 162 95438500 36 3 28 1491
1.4878833 0.36534905 0.41387528 190 95438500 48 4 40 1587
1.4231911 0.40605125 0.38404521 161 95438500 38 5 19 1529
1.3375379 0.43663225 0.35049209 152 95438500 32 6 91 1450
1.2678379 0.46649864 0.3229354 180 95438500 35 7 62 1389
1.3939049 0.34255648 0.33077675 156 95438500 34 8 52 1473
1.3287832 0.37966749 0.30399522 144 95438500 29 9 21 1415
1.2552634 0.40902278 0.2771557 157 95438500 29 10 65 1349
1.2279805 0.45061687 0.26184878 166 95438500 29 11 34 1334
1.2769684 0.31403166 0.25230378 156 95438500 28 12 101 1339
1.2990735 0.37063918 0.24528325 132 95438500 25 13 52 1373
1.2248414 0.39884976 0.22120492 159 95438500 27 14 77 1307
1.2019814 0.44074309 0.20783515 101 95438500 17 15 60 1297
1.2591844 0.30963492 0.1998122 153 95438500 26 16 21 1312
1.2735522 0.36304525 0.19106865 129 95438500 23 17 60 1338
1.2007705 0.390293 0.16999327 102 95438500 17 18 70 1274
1.0576231 0.387077 0.14081843 181 95438500 23 19 63 1135
1.2258962 0.30142665 0.14751737 173 95438500 28 20 81 1271
1.3005154 0.37051067 0.14484957 128 95438500 24 21 64 1360
0.97413403 0.31612065 0.099858709 793 95438500 84 22 74 1029
0 0 0 4 95438500 0 23 113 0
1.1461399 0.28158259 0.09450236 113 95438500 16 24 42 1184
1.1944801 0.33996361 0.087562114 47 95438500 7 25 78 1245
0 0 0 5 95438500 0 26 119 0
0 0 0 3 95438500 0 27 93 0
1.1236329 0.27547091 0.050289147 21 95438500 3 28 47 1158
1.3199295 0.37517002 0.046504006 80 95438500 15 29 35 1373
0 0 0 3 95438500 0 30 58 0
0 0 0 0 95438500 0 31 110 0
1.3402934 0.32851323 0.0096341399 56 95438500 11 32 68 1380
1.3371745 0.37954202 -0.0035177076 39 95438500 8 33 63 1390
1.2968137 0.41925937 -0.01627118 92 95438500 17 34 83 1363
1.2665832 0.46047291 -0.028912514 160 95438500 29 35 89 1348
1.3874717 0.33935818 -0.042417992 48 95438500 10 36 111 1429
1.3095137 0.37065378 -0.053234342 49 95438500 9 37 60 1362
1.3858461 0.44740242 -0.07089255 128 95438500 27 38 108 1458
1.4157832 0.51474333 -0.087626614 192 95438500 44 39 62 1509
0 0 -0 0 95438500 0 40 102 0
1.3798646 0.3898901 -0.1086453 114 95438500 24 41 77 1438
1.4110304 0.45509779 -0.12658286 196 95438500 43 42 144 1488
4.7154584 1.7115346 -0.47605047 452 95438500 1148 43 97 5039
1.4835767 0.36108097 -0.15762666 134 95438500 32 44 75 1535
4.8928456 1.3803861 -0.57275957 454 95438500 1189 45 72 5116
4.8943496 1.5757394 -0.62832189 526 95438500 1411 46 152 5180
4.8677855 1.7654778 -0.68372661 517 95438500 1410 47 137 5223
5.0429854 1.2229152 -0.72827083 343 95438500 942 48 100 5240
5.0507555 1.4225572 -0.7872991 466 95438500 1313 49 78 5306
5.0267749 1.6154695 -0.84392035 487 95438500 1393 50 74 5347
5.0081563 1.8148059 -0.90402681 482 95438500 1408 51 76 5403
5.1934304 1.2545043 -0.95227474 499 95438500 1470 52 114 5427
5.2159929 1.4662477 -1.0181905 473 95438500 1438 53 102 5513
5.1904907 1.6662843 -1.0782186 461 95438500 1424 54 100 5557
9.9020405 3.5883985 -2.1926162 244 95438500 2829 55 175 10758
5.3964243 1.3003494 -1.2042005 465 95438500 1500 56 133 5680
7.8265204 2.195662 -1.8430601 121 95438500 843 57 75 8335
9.6425533 3.0934718 -2.3994303 97 95438500 1052 58 99 10407
9.6331968 3.4900212 -2.5356071 573 95438500 6386 59 91 10555
6.714046 1.6095452 -1.771818 173 95438500 877 60 42 7128
7.5401211 2.1085026 -2.0879202 91 95438500 595 61 41 8103
8.8772688 2.8460779 -2.5846133 56 95438500 528 62 72 9674
9.2607899 3.3594906 -2.8417599 232 95438500 2439 63 116 10253
1.5738614 0.37539482 0.50503892 199 95535060 57 0 5 1695
1.4963218 0.41770843 0.4662886 207 95535060 54 1 55 1622
1.4728582 0.4714497 0.44779935 141 95535060 36 2 37 1610
1.382816 0.5007754 0.41082028 163 95535060 38 3 28 1527
1.4788297 0.3535192 0.41074577 178 95535060 44 4 74 1575
1.4368447 0.40042928 0.3870593 173 95535060 41 5 3 1541
1.3845568 0.44259912 0.36209458 142 95535060 32 6 79 1498
1.292632 0.46663645 0.32851529 212 95535060 42 7 55 1413
1.384608 0.33127624 0.32808203 162 95535060 34 8 55 1461
1.3762412 0.38410944 0.31430742 160 95535060 34 9 14 1463
1.2465612 0.39774302 0.27469024 143 95535060 25 10 56 1337
1.1642964 0.41915959 0.24771601 149 95535060 24 11 44 1262
1.3476379 0.32265469 0.26587051 175 95535060 35 12 110 1411
1.2672025 0.35315228 0.23885193 142 95535060 25 13 44 1337
1.170926 0.37336227 0.21105015 146 95535060 23 14 109 1247
1.2381002 0.44538805 0.2136039 119 95535060 21 15 48 1333
1.3187311 0.31570944 0.20894997 138 95535060 26 16 34 1372
1.2643141 0.35203817 0.18935505 149 95535060 26 17 69 1326
1.1918101 0.37931111 0.16839208 129 95535060 21 18 69 1262
1.1608397 0.41679403 0.15421788 111 95535060 17 19 76 1243
1.2277228 0.293899 0.14751737 162 95535060 26 20 60 1271
1.2452896 0.3465302 0.13845915 122 95535060 21 21 73 1300
0.99882054 0.31737107 0.10218778 536 95535060 59 22 57 1053
0 0 0 4 95535060 0 23 114 0
1.1129453 0.26619706 0.091628976 255 95535060 34 24 76 1148
1.1619449 0.32300988 0.085030206 51 95535060 8 25 67 1209
0 0 0 3 95535060 0 26 136 0
0 0 0 3 95535060 0 27 93 0
1.2302524 0.29361933 0.054979321 23 95535060 4 28 59 1266
1.2644264 0.35102338 0.044471789 110 95535060 19 29 38 1313
0 0 0 0 95535060 0 30 34 0
0 0 0 2 95535060 0 31 91 0
1.4356601 0.34256372 0.010304341 63 95535060 14 32 84 1476
1.3163505 0.36491868 -0.0034569702 54 95535060 10 33 68 1366
0 0 -0 0 95535060 0 34 83 0
1.3484858 0.48090196 -0.030714184 154 95535060 32 35 72 1432
1.4945447 0.35584232 -0.045623831 63 95535060 15 36 111 1537
0 0 -0 0 95535060 0 37 77 0
1.3771367 0.43527836 -0.070309073 138 95535060 29 38 104 1446
1.3737805 0.48994967 -0.084839292 201 95535060 43 39 73 1461
1.3698726 0.32502195 -0.093438759 43 95535060 9 40 80 1411
1.4053 0.38778183 -0.11045856 118 95535060 25 41 75 1462
1.4023948 0.44283107 -0.12556204 175 95535060 38 42 150 1476
4.7708888 1.6985967 -0.48058519 298 95535060 771 43 100 5087
1.4160737 0.33546174 -0.15023309 90 95535060 19 44 94 1463
4.9012232 1.3503382 -0.57275957 345 95535060 903 45 98 5116
4.8812051 1.5385171 -0.62541074 546 95535060 1451 46 135 5156
4.8785267 1.7355763 -0.68372661 492 95535060 1341 47 146 5223
5.1197891 1.2083269 -0.73827761 299 95535060 844 48 93 5312
5.0479465 1.3883924 -0.78551853 468 95535060 1312 49 85 5294
5.0026827 1.5739267 -0.83823848 505 95535060 1425 50 74 5311
5.0080495 1.7800798 -0.90201896 494 95535060 1437 51 80 5391
5.2010303 1.2226144 -0.95227474 425 95535060 1252 52 116 5427
5.2021456 1.4279716 -1.0137579 473 95535060 1425 53 102 5489
5.2230778 1.6414635 -1.0828754 450 95535060 1402 54 116 5581
10.001359 3.5551171 -2.2097366 511 95535060 6009 55 90 10842
5.3928838 1.2645358 -1.2016563 431 95535060 1384 56 147 5668
7.6705394 2.1012194 -1.8032581 125 95535060 834 57 70 8155
8.9706583 2.8173285 -2.2278941 75 95535060 701 58 100 9663
9.6434536 3.4269469 -2.5327244 591 95535060 6573 59 75 10543
6.5200438 1.5207934 -1.7181267 188 95535060 897 60 39 6912
7.3180237 1.9980642 -2.0229867 73 95535060 448 61 38 7851
8.3208399 2.6114912 -2.4178984 30 95535060 249 62 70 9050
9.3355427 3.3219311 -2.8583899 398 95535060 4229 63 44 10313
1.6319276 0.37867695 0.52291644 179 95631420 55 0 35 1755
1.5099455 0.41154161 0.4697383 192 95631420 51 1 28 1634
1.4427257 0.45206407 0.43778646 104 95631420 26 2 54 1574
1.3967534 0.49614978 0.4140487 182 95631420 43 3 45 1539
1.537389 0.3575601 0.42639324 177 95631420 47 4 39 1635
1.4953139 0.40685287 0.40212974 161 95631420 41 5 4 1601
1.3761338 0.43061793 0.35919395 161 95631420 36 6 97 1486
1.3174746 0.46648723 0.33409515 197 95631420 41 7 58 1437
1.3866147 0.3227742 0.32808203 171 95631420 36 8 42 1461
1.3333422 0.36333269 0.30399522 150 95631420 30 9 24 1415
1.2826082 0.40059024 0.28208655 159 95631420 30 10 39 1373
1.2556081 0.44334903 0.26655969 160 95631420 29 11 29 1358
1.3725479 0.31972703 0.27039275 152 95631420 31 12 95 1435
1.3718807 0.37326849 0.2581459 165 95631420 34 13 25 1445
1.2296436 0.38378903 0.22120492 137 95631420 23 14 85 1307
1.1961294 0.42201871 0.20591225 144 95631420 24 15 53 1285
1.3090925 0.30492142 0.2071224 127 95631420 23 16 32 1360
1.2893724 0.35050505 0.19278227 118 95631420 21 17 50 1350
1.2508875 0.38967696 0.17639802 147 95631420 26 18 88 1322
1.230763 0.43339291 0.16315086 46 95631420 8 19 66 1315
1.2295029 0.28636032 0.14751737 176 95631420 28 20 50 1271
1.2589067 0.34201086 0.13973723 155 95631420 27 21 70 1312
1.0691763 0.33251753 0.10917497 234 95631420 30 22 47 1125
0 0 0 4 95631420 0 23 128 0
1.091257 0.25394094 0.089713395 74 95631420 9 24 63 1124
1.1870096 0.32214469 0.086718149 48 95631420 7 25 64 1233
0 0 0 5 95631420 0 26 111 0
0 0 0 3 95631420 0 27 110 0
1.1969968 0.27793056 0.053415928 33 95631420 5 28 64 1230
1.2318298 0.3338469 0.043252453 136 95631420 22 29 31 1277
0 0 0 3 95631420 0 30 71 0
0 0 0 3 95631420 0 31 91 0
1.4260463 0.33103484 0.010220566 35 95631420 8 32 73 1464
1.3069816 0.35370013 -0.0034266014 73 95631420 13 33 56 1354
1.0955501 0.33939919 -0.013692621 76 95631420 10 34 94 1147
1.2268398 0.42905337 -0.027882989 132 95631420 22 35 75 1300
1.4382732 0.33313248 -0.043842815 69 95631420 15 36 128 1477
0 0 -0 0 95631420 0 37 56 0
1.3797816 0.42682022 -0.070309073 115 95631420 24 38 93 1446
1.4106852 0.49337584 -0.086929783 173 95631420 39 39 67 1497
1.3251733 0.30583987 -0.090260118 34 95631420 6 40 82 1363
1.3614373 0.36670357 -0.10683202 91 95631420 18 41 109 1414
1.4622028 0.45186889 -0.13066618 168 95631420 40 42 152 1536
1.4427314 0.50370783 -0.14501637 99 95631420 23 43 145 1535
1.3483148 0.31068507 -0.14283952 30 95631420 6 44 91 1391
4.9439631 1.3295298 -0.57678998 176 95631420 467 45 109 5152
4.8905535 1.5085377 -0.62541074 536 95631420 1425 46 127 5156
4.8890843 1.7056096 -0.68372661 567 95631420 1546 47 125 5223
5.1155243 1.1742311 -0.73660982 183 95631420 514 48 129 5300
5.0792933 1.3635464 -0.78907967 491 95631420 1390 49 64 5318
5.0348959 1.5501747 -0.84202635 493 95631420 1404 50 69 5335
5.0412211 1.7571054 -0.90603465 482 95631420 1414 51 90 5415
5.2199512 1.1933112 -0.95438039 369 95631420 1092 52 107 5439
5.2222013 1.3990771 -1.0159742 483 95631420 1462 53 100 5501
5.1880441 1.5955428 -1.073562 478 95631420 1464 54 83 5533
10.034078 3.4975495 -2.2121823 494 95631420 5817 55 138 10854
5.423409 1.236636 -1.2067446 424 95631420 1373 56 130 5692
7.4910874 2.0027299 -1.7581489 136 95631420 862 57 72 7951
8.6194477 2.6490333 -2.1365926 70 95631420 603 58 90 9267
9.7082987 3.3830438 -2.5442553 375 95631420 4208 59 102 10591
6.3932266 1.4499094 -1.6823323 158 95631420 722 60 52 6768
7.1732917 1.91133 -1.9796978 118 95631420 694 61 45 7683
7.3971009 2.2718127 -2.1453841 40 95631420 255 62 54 8030
9.2795467 3.2379963 -2.8351078 40 95631420 422 63 79 10229
1.6230462 0.36613575 0.51934087 182 95731100 55 0 29 1743
1.5235496 0.40522325 0.47318804 196 95731100 53 1 54 1646
1.5005729 0.46009779 0.4544746 117 95731100 31 2 49 1634
1.3997715 0.48757014 0.4140487 153 95731100 36 3 44 1539
1.5056555 0.34045509 0.41700476 166 95731100 43 4 63 1599
1.3742924 0.36488286 0.36897478 174 95731100 38 5 10 1469
1.3453484 0.41193858 0.35049209 144 95731100 30 6 83 1450
1.298261 0.45073873 0.32851529 187 95731100 37 7 52 1413
1.4684047 0.33232835 0.34694505 148 95731100 35 8 61 1545
1.4148299 0.37622741 0.32204157 151 95731100 34 9 7 1499
1.3299671 0.40644202 0.29194829 153 95731100 31 10 55 1421
1.291662 0.44718495 0.27362609 160 95731100 31 11 24 1394
1.3744838 0.3112992 0.27039275 155 95731100 32 12 87 1435
1.3284988 0.3527244 0.2495708 172 95731100 34 13 32 1397
1.2545978 0.38314557 0.22526683 122 95731100 22 14 90 1331
1.1986964 0.41467145 0.20591225 152 95731100 25 15 54 1285
1.2993718 0.29426366 0.20529486 157 95731100 29 16 18 1348
1.2570589 0.33345136 0.18764141 135 95731100 23 17 76 1314
1.1281191 0.34385267 0.15878491 147 95731100 21 18 75 1190
1.1883777 0.41028923 0.15719554 44 95731100 7 19 74 1267
1.1731141 0.26564905 0.14055353 181 95731100 27 20 78 1211
1.2494483 0.33122247 0.13845915 139 95731100 24 21 65 1300
1.1054747 0.33638138 0.11266857 104 95731100 14 22 63 1161
0 0 0 0 95731100 0 23 134 0
1.1277951 0.25515905 0.092586778 57 95731100 8 24 66 1160
1.1889639 0.31485528 0.086718149 26 95731100 4 25 77 1233
0 0 0 3 95731100 0 26 111 0
0 0 0 3 95731100 0 27 102 0
1.2103741 0.27322054 0.053937063 40 95731100 6 28 58 1242
1.1526932 0.30481967 0.040407345 216 95731100 31 29 22 1193
0 0 0 3 95731100 0 30 56 0
0 0 0 2 95731100 0 31 105 0
1.2875866 0.29057899 0.0092152636 46 95731100 8 32 87 1320
1.3903433 0.36711904 -0.0036391823 73 95731100 15 33 66 1438
0 0 -0 2 95731100 0 34 80 0
0 0 -0 0 95731100 0 35 82 0
1.405185 0.31639668 -0.0427742 72 95731100 15 36 110 1441
1.3045186 0.34343433 -0.052765314 30 95731100 6 37 63 1350
1.3709025 0.41487423 -0.069725595 113 95731100 23 38 112 1434
1.3116965 0.44974163 -0.080658294 191 95731100 37 39 69 1389
1.4438577 0.3239131 -0.098206721 48 95731100 11 40 87 1483
1.4330986 0.37658966 -0.11227184 94 95731100 21 41 78 1486
1.453503 0.43942845 -0.12964535 169 95731100 39 42 172 1524
1.4684001 0.50258291 -0.14728372 128 95731100 31 43 73 1559
1.2337159 0.27631789 -0.13051692 16 95731100 3 44 102 1271
1.4571573 0.38228655 -0.16972312 104 95731100 24 45 99 1516
4.8997178 1.4785013 -0.62541074 525 95731100 1396 46 131 5156
4.8882012 1.6717291 -0.68215573 492 95731100 1336 47 122 5211
5.1458302 1.1479958 -0.73994541 121 95731100 343 48 103 5324
5.053124 1.3233354 -0.78373796 428 95731100 1195 49 76 5282
5.0329671 1.5158349 -0.84013247 464 95731100 1316 50 65 5323
5.0407124 1.7223146 -0.90402681 479 95731100 1399 51 90 5403
