# .PCD v0.7 - Point Cloud Data file format
VERSION 0.7
FIELDS x y z intensity t reflectivity ring noise range
SIZE 4 4 4 4 4 2 1 2 4
TYPE F F F F U U U U U
COUNT 1 1 1 1 1 1 1 1 1
WIDTH 763
HEIGHT 1
VIEWPOINT 0 0 0 1 0 0 0
POINTS 763
DATA ascii
-0.69493014 3.1250272 -0.66646731 647 72410170 692 55 75 3270
-0.37321645 3.4550667 -0.75389731 667 72410170 843 56 144 3556
-0.48346785 3.3188415 -0.76044196 691 72410170 817 57 84 3439
-0.58463907 3.1841371 -0.76707071 427 72410170 473 58 66 3327
-0.64854175 2.917625 -0.73966217 721 72410170 684 59 101 3079
-0.35808629 3.3517013 -0.86502904 744 72410170 902 60 67 3480
-0.47236705 3.2617924 -0.87892091 350 72410170 407 61 53 3411
-0.54482841 2.9705257 -0.83731425 643 72410170 632 62 72 3134
-0.63520378 2.8519807 -0.84285492 638 72410170 590 63 71 3041
-0.54925877 5.1973782 1.6313205 299 72507130 897 0 85 5475
-0.71298939 4.9388733 1.497758 55 72507130 150 1 96 5210
-0.9710477 5.3082356 1.5625693 462 72507130 1459 2 68 5618
-1.095907 4.9332819 1.4116398 684 72507130 1884 3 73 5247
-0.52021962 4.8988681 1.3308163 55 72507130 144 4 78 5103
-0.77669525 5.3968139 1.4148638 162 72507130 515 5 63 5633
-0.91547596 5.0153313 1.26999 385 72507130 1063 6 110 5254
-1.0399096 4.7036939 1.1515471 595 72507130 1460 7 95 4953
-0.58357644 5.485465 1.2712337 312 72507130 1000 8 110 5661
-0.74643588 5.172472 1.1495961 111 72507130 319 9 60 5351
-0.89658445 4.9269252 1.0513014 97 72507130 255 10 59 5117
-0.99472332 4.5180097 0.92608893 353 72507130 786 11 81 4718
-0.55259579 5.1865106 1.0007359 181 72507130 510 12 131 5311
-0.70709777 4.9132209 0.90127748 375 72507130 955 13 82 5045
-0.84590638 4.6535101 0.812213 327 72507130 753 14 112 4799
-0.98476148 4.4779739 0.74432874 120 72507130 260 15 66 4645
-0.53686148 5.0396671 0.78097332 324 72507130 851 16 55 5128
-0.67652863 4.7083898 0.68630493 101 72507130 234 17 93 4806
-0.80407798 4.4370451 0.60711879 375 72507130 777 18 82 4550
-0.92981243 4.2404528 0.54280227 482 72507130 923 19 89 4375
-0.50482935 4.7397585 0.55699128 617 72507130 1421 20 111 4799
-0.65319335 4.5510626 0.4924885 440 72507130 941 21 114 4624
-0.79814619 4.416172 0.43757331 132 72507130 269 22 73 4509
-0.89324397 4.0842419 0.36863852 309 72507130 544 23 156 4197
-0.48265085 4.539804 0.36555815 642 72507130 1347 24 105 4580
-0.61746997 4.3101869 0.30699492 619 72507130 1179 25 104 4365
-0.74722314 4.1352377 0.2560609 558 72507130 988 26 156 4210
-0.88160294 4.0425062 0.21300066 222 72507130 381 27 81 4143
-0.46238074 4.3694544 0.19099452 735 72507130 1423 28 78 4398
-0.59451884 4.1603236 0.14242488 641 72507130 1133 29 53 4205
-0.71176314 3.9603243 0.099252485 664 72507130 1075 30 56 4025
-0.82482463 3.7888248 0.057935242 674 72507130 1014 31 117 3878
-0.44427592 4.2004671 0.029488843 637 72507130 1137 32 100 4224
-0.57202613 4.0134273 -0.010259559 657 72507130 1080 33 128 4054
-0.6905877 3.8452003 -0.046640866 638 72507130 974 34 109 3907
-0.78708214 3.6267214 -0.079616658 713 72507130 982 35 99 3712
-0.43209738 4.1044989 -0.12256396 694 72507130 1183 36 155 4129
-0.5462079 3.8524966 -0.15219863 677 72507130 1027 37 87 3894
-0.66055578 3.6868579 -0.18233681 710 72507130 998 38 227 3750
-0.7591064 3.49752 -0.20817855 701 72507130 901 39 97 3585
-0.41007939 3.9249542 -0.26190665 793 72507130 1240 40 142 3955
-0.52713341 3.7301393 -0.28543943 660 72507130 942 41 121 3778
-0.63580769 3.5544455 -0.30829051 700 72507130 919 42 164 3624
-0.73277479 3.3850343 -0.32867226 710 72507130 860 43 88 3479
-0.39672899 3.8100426 -0.39545292 732 72507130 1085 44 145 3851
-0.51135004 3.6289654 -0.41288847 678 72507130 923 45 76 3688
-0.61831039 3.4671001 -0.4303641 700 72507130 881 46 115 3548
-0.72723299 3.3634083 -0.45437777 621 72507130 748 47 148 3471
-0.380496 3.6841059 -0.51979637 730 72507130 1021 48 120 3740
-0.49548307 3.5274997 -0.53446126 639 72507130 829 49 86 3602
-0.60275215 3.3901281 -0.55035543 690 72507130 839 50 83 3487
-0.6972999 3.2293348 -0.56068736 731 72507130 821 51 111 3351
-0.36367312 3.5521584 -0.63642907 679 72507130 893 52 127 3627
-0.47960237 3.4270318 -0.65028995 668 72507130 828 53 93 3521
-0.58437365 3.2927618 -0.66144454 691 72507130 803 54 125 3409
-0.69310075 3.2096162 -0.68358755 284 72507130 320 55 74 3354
-0.35200953 3.4572916 -0.75389731 702 72507130 887 56 143 3556
-0.46471062 3.3333364 -0.7630955 684 72507130 815 57 80 3451
-0.58547258 3.302639 -0.79473782 97 72507130 116 58 59 3447
-0.63308507 2.9329357 -0.74254489 725 72507130 693 59 85 3091
-0.33984157 3.376965 -0.87099475 765 72507130 940 60 64 3504
-0.46348369 3.3450248 -0.90056533 93 72507130 114 61 68 3495
-0.52659136 2.9738128 -0.83731425 640 72507130 629 62 75 3134
-0.61525494 2.8445551 -0.83952898 650 72507130 597 63 60 3029
-0.51849186 5.212049 1.6348959 260 72604550 783 0 87 5487
-0.67166507 4.8634577 1.4736099 278 72604550 731 1 92 5126
-0.94447237 5.3481469 1.5725822 436 72604550 1395 2 63 5654
-1.0778017 4.9964018 1.4277821 437 72604550 1232 3 72 5307
-0.47170907 4.7175322 1.2807444 557 72604550 1344 4 92 4911
-0.74990243 5.447505 1.4269201 146 72604550 470 5 49 5681
-0.88670582 5.0323215 1.2728906 230 72604550 638 6 117 5266
-1.0183773 4.7442203 1.159917 555 72604550 1382 7 91 4989
-0.55107296 5.5005779 1.2739284 313 72604550 1008 8 101 5673
-0.70025957 5.0724673 1.1263936 324 72604550 890 9 45 5243
-0.86836821 4.9439006 1.0537668 95 72604550 251 10 61 5129
-0.97927994 4.5815616 0.93786621 268 72604550 612 11 112 4778
-0.51134843 5.095994 0.98264682 229 72604550 623 12 122 5215
-0.68659848 4.9876466 0.91414011 317 72604550 831 13 87 5117
-0.8214246 4.681911 0.81627494 379 72604550 882 14 105 4823
-0.96468562 4.5186834 0.75009745 144 72604550 314 15 55 4681
-0.50592852 5.0428667 0.78097332 410 72604550 1079 16 67 5128
-0.66379619 4.8301163 0.70344108 104 72604550 253 17 78 4926
-0.79117924 4.5238996 0.61832714 312 72604550 671 18 67 4634
-0.90625495 4.2577248 0.54429108 495 72604550 953 19 105 4387
-0.48168522 4.8020639 0.56395513 607 72604550 1433 20 110 4859
-0.6252563 4.5549846 0.4924885 523 72604550 1119 21 91 4624
-0.76898205 4.4092202 0.43640876 228 72604550 462 22 73 4497
-0.87561351 4.1247249 0.37180054 248 72604550 444 23 167 4233
-0.46193552 4.6140933 0.37130493 630 72604550 1364 24 108 4652
-0.59588587 4.349473 0.3095268 660 72604550 1278 25 113 4401
-0.7197783 4.1279454 0.25533107 616 72604550 1085 26 133 4198
-0.85678196 4.0478396 0.21300066 356 72604550 611 27 104 4143
-0.43793845 4.3960686 0.19203679 729 72604550 1426 28 86 4422
-0.57547528 4.2114234 0.14405066 644 72604550 1166 29 68 4253
-0.6894992 3.9764371 0.099548399 674 72604550 1099 30 62 4037
-0.80652195 3.8172934 0.058293786 684 72604550 1042 31 91 3902
-0.42087179 4.2269955 0.029656395 641 72604550 1157 32 113 4248
-0.55225027 4.0525317 -0.010350664 667 72604550 1115 33 154 4090
-0.67107815 3.8730111 -0.04692737 642 72604550 992 34 128 3931
-0.76975906 3.6549618 -0.080131419 726 72604550 1013 35 95 3736
-0.40572193 4.0951366 -0.12220775 683 72604550 1158 36 173 4117
-0.52739018 3.8914223 -0.1536057 690 72604550 1066 37 88 3930
-0.64404529 3.7262738 -0.18408725 723 72604550 1036 38 211 3786
-0.74997699 3.5607247 -0.21166271 696 72604550 925 39 103 3645
-0.38715976 3.9393129 -0.26270133 743 72604550 1169 40 115 3967
-0.50743902 3.7570198 -0.28725272 660 72604550 954 41 136 3802
-0.6200853 3.593627 -0.31135303 716 72604550 960 42 178 3660
-0.72181422 3.4362316 -0.33320698 723 72604550 900 43 84 3527
-0.37683365 3.8480444 -0.39914972 759 72604550 1147 44 132 3887
-0.49225616 3.6556704 -0.41557536 689 72604550 950 45 84 3712
-0.60106355 3.494307 -0.43327525 717 72604550 915 46 136 3572
-0.69925344 3.3328774 -0.44966513 729 72604550 860 47 159 3435
-0.35788357 3.6863713 -0.51979637 736 72604550 1030 48 106 3740
-0.47856507 3.5657585 -0.53980291 628 72604550 831 49 87 3638
-0.583942 3.4054418 -0.55224937 682 72604550 836 50 61 3499
-0.68717611 3.2798705 -0.56871867 719 72604550 831 51 80 3399
-0.34752607 3.613121 -0.64695728 710 72604550 965 52 109 3687
-0.46169117 3.453289 -0.65472245 678 72604550 852 53 117 3545
-0.56813043 3.3194919 -0.66610122 706 72604550 832 54 105 3433
-0.64930105 3.0988245 -0.6591301 621 72604550 650 55 61 3234
-0.33302191 3.4827344 -0.75898546 692 72604550 886 56 169 3580
-0.44424891 3.3361251 -0.7630955 677 72604550 807 57 82 3451
-0.54158556 3.1680524 -0.76153731 477 72604550 521 58 59 3303
-0.61985278 2.9595675 -0.74831039 709 72604550 688 59 102 3115
-0.32130021 3.4021304 -0.87696046 721 72604550 898 60 62 3528
-0.42926255 3.2443542 -0.87273669 249 72604550 286 61 61 3387
-0.51612008 3.0225832 -0.85013849 636 72604550 644 62 95 3182
-0.60252607 2.8708448 -0.84618092 662 72604550 617 63 74 3053
-0.48650157 5.2151322 1.6348959 131 72701430 395 0 88 5487
-0.61626858 4.6737752 1.4149646 790 72701430 1915 1 93 4922
-0.91550869 5.3765674 1.5792576 412 72701430 1330 2 61 5678
-1.0447564 4.9916086 1.4245535 430 72701430 1207 3 63 5295
-0.46330944 4.939486 1.3402048 87 72701430 230 4 100 5139
-0.71948987 5.4750361 1.4329484 94 72701430 307 5 59 5705
-0.8460604 4.9802694 1.2583874 334 72701430 905 6 111 5206
-0.99876583 4.7960835 1.1710768 527 72701430 1337 7 97 5037
-0.52497149 5.5853515 1.2927915 225 72701430 746 8 107 5757
-0.6829055 5.1812425 1.1495961 281 72701430 804 9 43 5351
-0.83801663 4.9491358 1.0537668 117 72701430 307 10 55 5129
-0.96787137 4.6681347 0.95435447 207 72701430 490 11 92 4862
-0.4999544 5.3102326 1.0233471 94 72701430 277 12 112 5431
-0.65905869 5.0151787 0.91842771 280 72701430 741 13 96 5141
-0.7907092 4.6752014 0.81424397 416 72701430 963 14 101 4811
-0.93453944 4.5129185 0.74817449 184 72701430 402 15 66 4669
-0.47831103 5.0812993 0.78645593 481 72701430 1284 16 63 5164
-0.64032596 4.8812032 0.71029562 191 72701430 474 17 72 4974
-0.76538312 4.5403962 0.61992836 198 72701430 428 18 87 4646
-0.88492787 4.2865281 0.54726881 476 72701430 926 19 101 4411
-0.45444486 4.8286619 0.56674069 621 72701430 1481 20 103 4883
-0.6003958 4.582397 0.49504471 563 72701430 1217 21 103 4648
-0.73993331 4.4020777 0.4352442 316 72701430 636 22 90 4485
-0.86716139 4.2119765 0.37917858 154 72701430 286 23 161 4317
-0.4336153 4.6168408 0.37130493 682 72701430 1477 24 85 4652
-0.57073873 4.3649168 0.3103708 664 72701430 1293 25 101 4413
-0.70039123 4.1677203 0.25752065 609 72701430 1091 26 152 4234
-0.82951909 4.0412812 0.2123837 446 72701430 761 27 142 4131
-0.41541728 4.4464197 0.1941213 753 72701430 1505 28 94 4470
-0.5511744 4.226768 0.1444571 619 72701430 1127 29 58 4265
-0.67299515 4.0279222 0.10073203 652 72701430 1089 30 72 4085
-0.78308433 3.8221703 0.058293786 687 72701430 1046 31 111 3902
-0.39938995 4.2772894 0.029991494 666 72701430 1229 32 109 4296
-0.52582669 4.0439444 -0.010320296 659 72701430 1096 33 117 4078
-0.64730114 3.8770559 -0.04692737 633 72701430 978 34 108 3931
-0.74971855 3.671371 -0.080388799 705 72701430 990 35 98 3748
-0.38391495 4.1333795 -0.12327638 718 72701430 1238 36 154 4153
-0.50504035 3.9064767 -0.15407471 705 72701430 1096 37 98 3942
-0.62116915 3.7301552 -0.18408725 698 72701430 1001 38 201 3786
-0.72811466 3.5652595 -0.21166271 700 72701430 930 39 92 3645
-0.36627531 3.9773839 -0.26508531 793 72701430 1270 40 141 4003
-0.48896325 3.7956655 -0.28997263 653 72701430 962 41 120 3838
-0.60390574 3.6327479 -0.31441551 730 72701430 998 42 185 3696
-0.70310038 3.452302 -0.33434069 699 72701430 876 43 91 3539
-0.3553963 3.8740575 -0.40161425 763 72701430 1167 44 123 3911
-0.47437254 3.6941044 -0.41960573 670 72701430 942 45 82 3748
-0.58545315 3.5331826 -0.43764198 696 72701430 906 46 112 3608
-0.68590409 3.3720794 -0.45437777 705 72701430 849 47 129 3471
-0.33740908 3.7121673 -0.52313197 711 72701430 1007 48 122 3764
-0.45968968 3.5921702 -0.54336399 659 72701430 884 49 72 3662
-0.56496656 3.4206519 -0.55414331 680 72701430 839 50 70 3511
-0.66468334 3.2724309 -0.56671083 613 72701430 703 51 103 3387
-0.32429093 3.6034191 -0.64485162 717 72701430 968 52 115 3675
-0.44049349 3.4560568 -0.65472245 662 72701430 832 53 111 3545
-0.54775172 3.3229153 -0.66610122 442 72701430 521 54 107 3433
-0.62325877 3.0682111 -0.65179282 568 72701430 581 55 71 3198
-0.31373522 3.5080733 -0.76407367 681 72701430 884 56 156 3604
-0.42671758 3.3620076 -0.7684024 339 72701430 410 57 86 3475
-0.52403355 3.1828372 -0.76430398 228 72701430 250 58 54 3315
-0.62022454 3.0546405 -0.77137232 708 72701430 730 59 88 3211
-0.30655009 3.4735081 -0.89485765 249 72701430 323 60 71 3600
-0.40354627 3.2009122 -0.86036849 110 72701430 122 61 51 3339
-0.51069909 3.105567 -0.87258089 672 72701430 717 62 81 3266
-0.59179652 2.9083829 -0.85615885 660 72701430 630 63 64 3089
-0.46443266 5.3321366 1.6706508 60 72799670 190 0 81 5607
-0.60620219 4.8257179 1.459811 206 72799670 531 1 128 5078
-0.89742219 5.4730802 1.6059586 150 72799670 502 2 59 5774
-1.0095123 4.9752722 1.4180967 552 72799670 1535 3 67 5271
-0.42288181 4.8268299 1.3089099 11 72799670 28 4 98 5019
-0.69021022 5.5139236 1.4419905 94 72799670 309 5 42 5741
-0.84180218 5.1462469 1.2989962 214 72799670 618 6 116 5374
-0.96931881 4.8021216 1.1710768 494 72799670 1254 7 71 5037
-0.48353091 5.5069261 1.2739284 322 72799670 1037 8 105 5673
-0.66278225 5.2783628 1.1702204 274 72799670 814 9 58 5447
-0.81897098 5.0237308 1.0685594 172 72799670 466 10 68 5201
-0.95311838 4.7432008 0.96848714 136 72799670 332 11 79 4934
-0.47046 5.3484197 1.0301305 109 72799670 326 12 118 5467
-0.63560623 5.0777059 0.92914653 183 72799670 494 13 55 5201
-0.76961046 4.7266579 0.82236779 400 72799670 944 14 107 4859
-0.90916181 4.5301814 0.75009745 250 72799670 549 15 72 4681
-0.44920179 5.1077676 0.79011106 546 72799670 1471 16 66 5188
-0.6118359 4.8968253 0.71200919 295 72799670 734 17 75 4986
-0.74703383 4.6037025 0.62793434 165 72799670 366 18 87 4706
-0.86328119 4.3152294 0.55024648 440 72799670 865 19 119 4435
-0.4268961 4.8551054 0.56952614 617 72799670 1486 20 102 4907
-0.57374489 4.5978346 0.49632281 593 72799670 1288 21 88 4660
-0.71481621 4.4183249 0.43640876 440 72799670 891 22 77 4497
-0.84363937 4.2289405 0.38023257 117 72799670 219 23 136 4329
-0.40841499 4.6551619 0.37417829 649 72799670 1427 24 93 4688
-0.54838276 4.4039721 0.31290272 656 72799670 1299 25 92 4449
-0.67671794 4.1837635 0.25825053 618 72799670 1114 26 137 4246
-0.80236906 4.0345407 0.21176675 535 72799670 908 27 110 4119
-0.38812673 4.448885 0.1941213 745 72799670 1489 28 78 4470
-0.53114021 4.2776771 0.14608288 622 72799670 1158 29 61 4313
-0.65017194 4.0438199 0.10102794 664 72799670 1115 30 72 4097
-0.76662546 3.8622105 0.058831606 703 72799670 1091 31 93 3938
-0.37626436 4.3155227 0.030242821 664 72799670 1246 32 107 4332
-0.50542647 4.0828218 -0.010411402 663 72799670 1122 33 128 4114
-0.63301647 3.9401908 -0.047643635 639 72799670 1018 34 101 3991
-0.73416197 3.7112095 -0.081160948 719 72799670 1029 35 110 3784
-0.35854578 4.1356573 -0.12327638 696 72799670 1200 36 163 4153
-0.48545438 3.9452052 -0.1554818 706 72799670 1118 37 76 3978
-0.60395843 3.7694011 -0.18583769 704 72799670 1028 38 229 3822
-0.71087497 3.5931637 -0.21305637 717 72799670 966 39 92 3669
-0.34288847 3.9914863 -0.26587996 744 72799670 1199 40 124 4015
-0.46566427 3.7985942 -0.28997263 665 72799670 980 41 114 3838
-0.58160424 3.636385 -0.31441551 704 72799670 961 42 160 3696
-0.68421644 3.4682715 -0.33547434 702 72799670 885 43 97 3551
-0.33263633 3.8880584 -0.40284649 755 72799670 1162 44 118 3923
-0.45314321 3.7087822 -0.42094919 696 72799670 984 45 93 3760
-0.56563795 3.5484712 -0.43909752 690 72799670 904 46 140 3620
-0.66290069 3.364552 -0.45280689 679 72799670 812 47 150 3459
-0.31863752 3.7615323 -0.52980316 753 72799670 1094 48 90 3812
-0.44194219 3.6302638 -0.54870564 681 72799670 932 49 62 3698
-0.54582644 3.4357572 -0.55603731 639 72799670 793 50 82 3523
-0.6697129 3.4041393 -0.58879697 127 72799670 158 51 78 3519
-0.30414805 3.628886 -0.64906287 699 72799670 956 52 123 3699
-0.4221178 3.4821105 -0.65915501 665 72799670 847 53 94 3569
-0.54394257 3.4308543 -0.68705636 128 72799670 161 54 85 3541
-0.62256479 3.1641946 -0.67135882 261 72799670 284 55 69 3294
-0.29317713 3.5216191 -0.76661777 680 72799670 889 56 146 3616
-0.42991963 3.5620794 -0.81351149 90 72799670 122 57 76 3679
-0.52823508 3.335922 -0.80027121 158 72799670 191 58 75 3471
-0.61270887 3.1155369 -0.78578597 758 72799670 811 59 95 3271
-0.28332973 3.4521549 -0.88889194 88 72799670 113 60 59 3576
-0.39631546 3.3069398 -0.88819712 235 72799670 279 61 39 3447
-0.49705318 3.1429074 -0.88219899 690 72799670 752 62 96 3302
-0.57393986 2.9119594 -0.85615885 668 72799670 638 63 78 3089
-0.50839275 6.2825489 1.967417 90 72898430 393 0 87 6603
-0.58748102 4.9206462 1.4874089 58 72898430 156 1 105 5174
-0.86023265 5.4557123 1.5992835 296 72898430 980 2 63 5750
-1.0034815 5.1061196 1.4536097 554 72898430 1616 3 54 5403
-0 0 0 5 72898430 0 4 103 0
-0.65224856 5.4834533 1.4329484 168 72898430 545 5 56 5705
-0.81744635 5.1973262 1.3105987 197 72898430 579 6 106 5422
-0.94655246 4.8423424 1.1794466 432 72898430 1112 7 110 5073
-0.44782931 5.4864798 1.268539 389 72898430 1242 8 104 5649
-0.63454866 5.3172421 1.1779547 306 72898430 919 9 54 5483
-0.79176736 5.0518661 1.0734904 171 72898430 468 10 60 5225
-0.93298578 4.7951598 0.97790903 92 72898430 230 11 60 4982
-0.43955502 5.3746972 1.0346527 166 72898430 500 12 122 5491
-0.60443801 5.0815101 0.92914653 117 72898430 318 13 67 5201
-0.74973875 4.7897139 0.83252257 373 72898430 902 14 122 4919
-0.88812613 4.5705566 0.75586617 315 72898430 701 15 77 4717
-0.41881919 5.1222482 0.79193866 554 72898430 1499 16 65 5200
-0.5789777 4.8768992 0.70858198 361 72898430 889 17 104 4962
-0.72793609 4.6669526 0.63594025 125 72898430 285 18 82 4766
-0.84357959 4.355515 0.55471289 414 72898430 828 19 80 4471
-0.400011 4.8932714 0.57370448 649 72898430 1586 20 112 4943
-0.55114144 4.6486635 0.5014351 575 72898430 1275 21 113 4708
-0.6876924 4.4226279 0.43640876 501 72898430 1014 22 98 4497
-0.8222084 4.2575111 0.38234058 98 72898430 185 23 138 4353
-0.38276067 4.693347 0.37705168 630 72898430 1407 24 80 4724
-0.52697498 4.4548039 0.31627861 669 72898430 1353 25 102 4497
-0.65287411 4.1996727 0.25898039 629 72898430 1140 26 135 4258
-0.7775985 4.0393882 0.21176675 581 72898430 985 27 119 4119
-0.36469617 4.4989805 0.19620582 698 72898430 1425 28 101 4518
-0.50347811 4.2689447 0.14567643 629 72898430 1164 29 59 4301
-0.63450539 4.1070118 0.10250747 639 72898430 1105 30 71 4157
-0.74744058 3.890408 0.059190154 718 72898430 1128 31 81 3962
-0.35171556 4.3416715 0.030410374 667 72898430 1265 32 127 4356
-0.48456869 4.1215997 -0.010502508 672 72898430 1157 33 131 4150
-0.60882795 3.9440007 -0.047643635 633 72898430 1008 34 129 3991
-0.72040039 3.7627773 -0.082190469 712 72898430 1045 35 103 3832
-0.33701378 4.1856031 -0.12470119 713 72898430 1258 36 164 4201
-0.46262929 3.9600196 -0.15595083 695 72898430 1107 37 91 3990
-0.58628929 3.8085747 -0.18758811 675 72898430 1005 38 198 3858
-0.69557297 3.632756 -0.21514685 688 72898430 945 39 82 3705
-0.3202939 4.0173864 -0.26746926 750 72898430 1223 40 124 4039
-0.44649693 3.8370364 -0.29269254 692 72898430 1038 41 124 3874
-0.56291258 3.6635211 -0.31645718 686 72898430 950 42 173 3720
-0.66964334 3.5076077 -0.33887538 709 72898430 912 43 97 3587
-0.3087734 3.8900261 -0.40284649 727 72898430 1119 44 122 3923
-0.43175155 3.7233377 -0.42229262 657 72898430 935 45 81 3772
-0.54745996 3.5754237 -0.4420087 693 72898430 920 46 139 3644
-0.64892799 3.403615 -0.45751953 696 72898430 850 47 143 3495
-0.29648155 3.7752635 -0.53147095 724 72898430 1058 48 132 3824
-0.41693541 3.6093297 -0.54514456 661 72898430 893 49 77 3674
-0.5283094 3.4624696 -0.55982524 696 72898430 876 50 99 3547
-0.63553798 3.3384521 -0.57675004 366 72898430 435 51 76 3447
-0.28461921 3.666019 -0.65537983 732 72898430 1021 52 123 3735
-0.40209144 3.4963512 -0.66137129 665 72898430 853 53 119 3581
-0.50693321 3.3293869 -0.66610122 347 72898430 409 54 84 3433
-0.62291294 3.2718225 -0.69337058 573 72898430 664 55 75 3402
-0.27516818 3.570122 -0.77679414 691 72898430 927 56 158 3664
-0.38809037 3.390245 -0.77370936 283 72898430 347 57 73 3499
-0.50248998 3.3044684 -0.79197109 576 72898430 680 58 73 3435
-0.59575838 3.130681 -0.78866869 729 72898430 786 59 119 3283
-0.26126269 3.4422381 -0.88590902 187 72898430 237 60 41 3564
-0.376017 3.3093092 -0.88819712 690 72898430 819 61 47 3447
-0.48123181 3.1687636 -0.88861114 666 72898430 737 62 66 3326
-0.55822176 2.9267519 -0.85948473 654 72898430 629 63 78 3101
-0.47154191 6.3083963 1.9745681 206 72994670 906 0 73 6627
-0.55856997 4.9355788 1.4908586 20 72994670 54 1 99 5186
-0.81638861 5.392508 1.5792576 423 72994670 1365 2 60 5678
-0.98076844 5.1575971 1.4665234 525 72994670 1561 3 74 5451
-0.3931762 5.2244267 1.4153125 30 72994670 90 4 70 5427
-0.58345926 5.1757126 1.3515679 29 72994670 83 5 51 5381
-0.79249495 5.2482986 1.3222013 143 72994670 429 6 88 5470
-0.92983484 4.9168663 1.1961862 396 72994670 1049 7 93 5145
-0.39304173 5.2092752 1.2038656 24 72994670 69 8 116 5361
-0.60586268 5.3559718 1.1856887 313 72994670 955 9 61 5519
-0.75726038 5.0334024 1.0685594 225 72994670 610 10 67 5201
-0.90136933 4.7892308 0.97555357 91 72994670 224 11 39 4970
-0.40479124 5.3537903 1.0301305 206 72994670 616 12 124 5467
-0.58515066 5.1907167 0.94844043 103 72994670 289 13 55 5309
-0.72385007 4.8176155 0.83658451 359 72994670 877 14 119 4943
-0.85787708 4.5642791 0.75394326 400 72994670 886 15 61 4705
-0.39095759 5.1720266 0.79924881 622 72994670 1714 16 81 5248
-0.55302608 4.9157672 0.71372283 455 72994670 1137 17 122 4998
-0.69576508 4.6478081 0.63273787 94 72994670 212 18 72 4742
-0.82780057 4.4191275 0.56215703 319 72994670 655 19 87 4531
-0.37267345 4.9312887 0.57788277 598 72994670 1483 20 116 4979
-0.52527153 4.6756721 0.50399131 578 72994670 1294 21 111 4732
-0.66759318 4.4740143 0.44106689 518 72994670 1071 22 77 4545
-0.80265301 4.2977276 0.38550264 199 72994670 383 23 151 4389
-0.356653 4.7313905 0.37992504 651 72994670 1475 24 107 4760
-0.50363058 4.4936404 0.31881049 673 72994670 1383 25 112 4533
-0.63239491 4.2391396 0.26116997 634 72994670 1168 26 149 4294
-0.75718498 4.067647 0.21300066 619 72994670 1062 27 127 4143
-0.33887473 4.525044 0.1972481 734 72994670 1515 28 82 4542
-0.48260134 4.3196297 0.1473022 621 72994670 1175 29 66 4349
-0.61105216 4.1226945 0.10280339 659 72994670 1146 30 61 4169
-0.72355545 3.8949208 0.059190154 722 72994670 1134 31 99 3962
-0.32775545 4.3796463 0.030661697 682 72994670 1315 32 116 4392
-0.46192592 4.1483479 -0.010563246 693 72994670 1208 33 112 4174
-0.58989 3.9832714 -0.0480734 658 72994670 1067 34 106 4027
-0.69948244 3.7789235 -0.082447849 710 72994670 1049 35 118 3844
-0.31221434 4.199554 -0.1250574 722 72994670 1281 36 155 4213
-0.44095892 3.9866202 -0.15688887 683 72994670 1101 37 79 4014
-0.56641102 3.835815 -0.18875507 697 72994670 1050 38 215 3882
-0.67545033 3.6487353 -0.21584369 708 72994670 979 39 94 3717
-0.29915109 4.0670419 -0.27064794 759 72994670 1268 40 116 4087
-0.42818531 3.887279 -0.29631907 690 72994670 1061 41 115 3922
-0.54390961 3.6905634 -0.31849882 682 72994670 955 42 142 3744
-0.65027666 3.5233984 -0.34000906 697 72994670 903 43 94 3599
-0.28925622 3.9513712 -0.40900782 734 72994670 1164 44 132 3983
-0.41410083 3.7733305 -0.42766646 662 72994670 966 45 98 3820
-0.52897239 3.6022854 -0.44491982 682 72994670 918 46 116 3668
-0.63450056 3.4426317 -0.46223217 691 72994670 861 47 171 3531
-0.27502674 3.8007169 -0.53480655 715 72994670 1059 48 110 3848
-0.40122831 3.6708045 -0.55404729 678 72994670 945 49 56 3734
-0.50876963 3.4773707 -0.56171924 665 72994670 842 50 101 3559
-0.59363025 3.225934 -0.55667168 490 72994670 543 51 73 3327
-0.26296175 3.6794803 -0.65748549 695 72994670 976 52 135 3747
-0.38445717 3.5339258 -0.66802007 673 72994670 880 53 124 3617
-0.48479441 3.3207865 -0.66377288 239 72994670 280 54 88 3421
-0.59644657 3.2409208 -0.68603331 714 72994670 809 55 69 3366
-0.25408658 3.583441 -0.77933818 679 72994670 917 56 112 3676
-0.37105975 3.4274673 -0.7816698 124 72994670 155 57 72 3535
-0.47883561 3.2843804 -0.78643769 657 72994670 765 58 76 3411
-0.57864499 3.1457338 -0.79155141 756 72994670 821 59 97 3295
-0.24094515 3.4553719 -0.88889194 58 72994670 74 60 49 3576
-0.35570437 3.3115542 -0.88819712 724 72994670 860 61 50 3447
-0.46511173 3.1945431 -0.89502323 684 72994670 768 62 67 3350
-0.54443431 2.9527996 -0.86613673 621 72994670 607 63 85 3125
-0.43360919 6.3225989 1.9781436 241 73092200 1064 0 81 6639
-0.5576126 5.2131915 1.5736521 31 73092200 93 1 102 5474
-0.77004206 5.3061595 1.5525565 40 73092200 126 2 69 5582
-0.95537174 5.1976194 1.4762088 503 73092200 1516 3 63 5487
-0.37149256 5.3769841 1.4559959 37 73092200 116 4 80 5583
-0.5492301 5.1560955 1.3455397 20 73092200 59 5 59 5357
-0.77528805 5.3567791 1.3483068 93 73092200 290 6 104 5578
-0.90804118 4.9684029 1.207346 329 73092200 888 7 78 5193
-0.35783798 5.1649265 1.1930867 21 73092200 60 8 98 5313
-0.57921696 5.4178557 1.1985791 306 73092200 954 9 64 5579
-0.73306531 5.0844493 1.0784211 284 73092200 781 10 53 5249
-0.88459831 4.8641315 0.98968631 120 73092200 304 11 43 5042
-0.38091365 5.485497 1.0550028 176 73092200 552 12 124 5599
-0.55329001 5.1942096 0.94844043 68 73092200 193 13 74 5309
-0.69933248 4.8570848 0.8426773 291 73092200 721 14 126 4979
-0.83408803 4.5927653 0.75778908 465 73092200 1041 15 66 4729
-0.36332217 5.2334857 0.80838656 400 73092200 1128 16 74 5308
-0.52410841 4.9308786 0.71543646 560 73092200 1406 17 100 5010
-0.68242997 4.7579398 0.64714861 192 73092200 452 18 75 4850
-0.80491078 4.4475574 0.56513476 226 73092200 469 19 96 4555
-0.34405914 4.9572635 0.58066833 610 73092200 1527 20 106 5003
-0.49783152 4.6906724 0.50526941 590 73092200 1328 21 106 4744
-0.63843846 4.4662032 0.43990234 585 73092200 1202 22 106 4533
-0.78263468 4.3378625 0.38866463 307 73092200 601 23 158 4425
-0.33009276 4.7692895 0.3827984 660 73092200 1519 24 98 4796
-0.47604865 4.4966459 0.31881049 671 73092200 1379 25 95 4533
-0.61315042 4.290369 0.26408944 622 73092200 1172 26 168 4342
-0.73009127 4.0604215 0.2123837 645 73092200 1100 27 132 4131
-0.31356898 4.5629191 0.19881147 740 73092200 1552 28 83 4578
-0.45608753 4.3225093 0.1473022 620 73092200 1173 29 62 4349
-0.58911633 4.1501207 0.10339521 684 73092200 1202 30 53 4193
-0.70600021 3.9347174 0.059727974 712 73092200 1138 31 93 3998
-0.30252042 4.4055181 0.030829249 655 73092200 1277 32 106 4416
-0.44022784 4.1869063 -0.010654351 658 73092200 1166 33 141 4210
-0.56880784 4.0105762 -0.048359901 647 73092200 1062 34 95 4051
-0.67628229 3.7831445 -0.082447849 727 73092200 1074 35 103 3844
-0.28807223 4.2253242 -0.12576979 690 73092200 1238 36 162 4237
-0.41897935 4.0131025 -0.15782692 700 73092200 1142 37 94 4038
-0.54622042 3.8629534 -0.18992202 694 73092200 1059 38 216 3906
-0.65515769 3.6646037 -0.21654052 690 73092200 960 39 77 3729
-0.2749956 4.0807471 -0.27144256 757 73092200 1271 40 139 4099
-0.40556249 3.9017348 -0.29722571 697 73092200 1079 41 124 3934
-0.52626657 3.7293489 -0.32156131 709 73092200 1012 42 169 3780
-0.6307413 3.539083 -0.34114274 711 73092200 928 43 76 3611
-0.26500562 3.9530716 -0.40900782 777 73092200 1233 44 129 3983
-0.3921684 3.7876616 -0.42900991 692 73092200 1017 45 78 3832
-0.51017559 3.6290541 -0.44783098 711 73092200 969 46 114 3692
-0.61336499 3.44646 -0.46223217 675 73092200 841 47 146 3531
-0.25405562 3.8379056 -0.53980994 695 73092200 1048 48 126 3884
-0.37991413 3.6850019 -0.55582786 671 73092200 942 49 85 3746
-0.4907102 3.5038972 -0.56550711 666 73092200 855 50 72 3583
-0.60280097 3.3925931 -0.58478135 146 73092200 179 51 82 3495
-0.24191958 3.7046018 -0.66169673 689 73092200 980 52 111 3771
-0.36637679 3.5714142 -0.67466885 688 73092200 918 53 114 3653
-0.48232865 3.4519441 -0.6893847 144 73092200 182 54 91 3553
-0.58271575 3.2792201 -0.69337058 717 73092200 830 55 87 3402
-0.23436718 3.6200407 -0.78697044 749 73092200 1032 56 116 3712
-0.36190417 3.5461044 -0.80820459 234 73092200 313 57 72 3655
-0.46351489 3.3219507 -0.79473782 709 73092200 843 58 65 3447
-0.56340629 3.1721635 -0.79731691 729 73092200 803 59 118 3319
-0.2249005 3.5379846 -0.90977192 350 73092200 468 60 57 3660
-0.33771345 3.336746 -0.89438123 681 73092200 820 61 48 3471
-0.44550163 3.1973369 -0.89502323 668 73092200 750 62 63 3350
-0.52832699 2.9674358 -0.86946267 601 73092200 592 63 67 3137
-0.39195183 6.2794094 1.9638416 221 73187580 961 0 86 6591
-0.53252804 5.2851281 1.5943506 48 73187580 148 1 89 5546
-0.71210343 5.1281137 1.4991543 21 73187580 60 2 57 5390
-0.93355972 5.260282 1.4923511 202 73187580 623 3 64 5547
-0.33340016 5.2982292 1.4340895 308 73187580 933 4 62 5499
-0.48975658 4.8819933 1.2732016 28 73187580 71 5 38 5069
-0.7519877 5.4306397 1.3657105 22 73187580 71 6 96 5650
-0.8856498 5.0198555 1.2185056 271 73187580 745 7 78 5241
-0.32024688 5.0736628 1.1715291 26 73187580 71 8 86 5217
-0.55183434 5.4796119 1.2114693 101 73187580 320 9 46 5639
-0.7066676 5.1237535 1.0858175 300 73187580 839 10 70 5285
-0.85473591 4.8694677 0.98968631 159 73187580 403 11 57 5042
-0.34948078 5.5230155 1.0617862 146 73187580 463 12 142 5635
-0.52847981 5.2679944 0.96130311 46 73187580 132 13 43 5381
-0.68081218 4.9432983 0.85689402 216 73187580 554 14 115 5063
-0.80793661 4.6094642 0.75971198 464 73187580 1044 15 62 4741
-0.32820821 5.188271 0.80107641 606 73187580 1678 16 69 5260
-0.49502611 4.9458199 0.71715009 513 73187580 1294 17 113 5022
-0.65807164 4.7973843 0.65195215 279 73187580 666 18 101 4886
-0.78784883 4.5110612 0.57257885 159 73187580 339 19 108 4615
-0.31739682 5.0187569 0.58763218 639 73187580 1638 20 113 5063
-0.47497293 4.7530017 0.5116598 624 73187580 1441 21 90 4804
-0.61425745 4.4937034 0.44223142 615 73187580 1278 22 94 4557
-0.75395316 4.3308063 0.38761061 448 73187580 872 23 165 4413
-0.3030808 4.8070393 0.38567182 619 73187580 1445 24 121 4832
-0.4543846 4.5590391 0.32303038 675 73187580 1424 25 130 4593
-0.58843541 4.3059182 0.26481929 641 73187580 1214 26 153 4354
-0.70926011 4.0884404 0.21361761 655 73187580 1131 27 115 4155
-0.28781116 4.6006536 0.20037489 749 73187580 1595 28 93 4614
-0.43548283 4.3848991 0.14933443 631 73187580 1228 29 59 4409
-0.5668667 4.1774321 0.10398702 663 73187580 1178 30 52 4217
-0.68184394 3.9389753 0.059727974 726 73187580 1161 31 89 3998
-0.27698016 4.4312439 0.030996796 665 73187580 1311 32 106 4440
-0.41571075 4.2014709 -0.01068472 652 73187580 1162 33 111 4222
-0.55063677 4.061552 -0.048932914 621 73187580 1044 34 117 4099
-0.66121131 3.8345139 -0.083477378 709 73187580 1074 35 89 3892
-0.26436803 4.2629275 -0.12683842 725 73187580 1324 36 182 4273
-0.40020707 4.0752649 -0.16017205 713 73187580 1198 37 67 4098
-0.52571803 3.8899882 -0.19108897 710 73187580 1097 38 205 3930
-0.63876754 3.7039711 -0.21863101 692 73187580 982 39 79 3765
-0.2514149 4.1062603 -0.27303189 763 73187580 1297 40 136 4123
-0.38277829 3.9160585 -0.29813236 709 73187580 1104 41 107 3946
-0.5065698 3.7562063 -0.32360297 707 73187580 1022 42 165 3804
-0.6150856 3.5782075 -0.34454376 712 73187580 947 43 100 3647
-0.24364628 4.0022812 -0.41393682 770 73187580 1251 44 143 4031
-0.37007564 3.8018649 -0.43035337 696 73187580 1029 45 82 3844
-0.49107015 3.6557267 -0.4507421 710 73187580 981 46 120 3716
-0.59623158 3.4736092 -0.46537393 665 73187580 840 47 156 3555
-0.23121403 3.8512542 -0.54147774 692 73187580 1050 48 112 3896
-0.35615167 3.6754518 -0.55404729 715 73187580 997 49 67 3734
-0.47234428 3.5303321 -0.56929505 651 73187580 847 50 74 3607
-0.58197308 3.3962278 -0.58478135 590 73187580 721 51 75 3495
-0.22057898 3.7296028 -0.66590798 696 73187580 1002 52 128 3795
-0.34445611 3.573595 -0.67466885 696 73187580 929 53 97 3653
-0.46113884 3.4548388 -0.6893847 616 73187580 778 54 95 3553
-0.56258386 3.2827339 -0.69337058 729 73187580 844 55 80 3402
-0.21077895 3.5979965 -0.78188229 690 73187580 938 56 137 3688
-0.33343846 3.4783611 -0.79228371 648 73187580 832 57 74 3583
-0.44620833 3.3478808 -0.80027121 700 73187580 844 58 77 3471
-0.54983151 3.210005 -0.80596513 459 73187580 517 59 101 3355
-0.20185523 3.5160897 -0.90380621 712 73187580 941 60 57 3636
-0.31942669 3.361841 -0.90056533 706 73187580 863 61 64 3495
-0.4304513 3.2343984 -0.90464139 312 73187580 358 62 89 3386
-0.51206052 2.9819853 -0.87278861 629 73187580 624 63 82 3149
-0.35341471 6.2816963 1.9638416 212 73284650 922 0 82 6591
-0.49467877 5.2310839 1.5771018 181 73284650 545 1 94 5486
-0.66850203 5.0409746 1.4724532 37 73284650 102 2 52 5294
-0.91101438 5.3228707 1.5084933 252 73284650 791 3 52 5607
-0.30088454 5.3001752 1.4340895 277 73284650 838 4 108 5499
-0.46196899 4.9080353 1.2792298 132 73284650 342 5 36 5093
-0.72017813 5.4466958 1.3686112 86 73284650 276 6 92 5662
-0.86853266 5.1057367 1.2380353 213 73284650 604 7 110 5325
-0.2817944 4.9471116 1.1418871 229 73284650 593 8 83 5085
-0.52040714 5.5062299 1.2166253 204 73284650 655 9 75 5663
-0.67674869 5.1396365 1.0882829 296 73284650 832 10 75 5297
-0.83269382 4.9210267 0.99910814 237 73284650 613 11 36 5090
-0.31961796 5.5956511 1.0753529 438 73284650 1426 12 125 5707
-0.49172032 5.2241182 0.95272803 237 73284650 675 13 77 5333
-0.65200955 4.9591088 0.85892498 161 73284650 415 14 100 5075
-0.78753167 4.6610522 0.76740366 454 73284650 1042 15 75 4789
-0.29907188 5.2375503 0.80838656 650 73284650 1832 16 86 5308
-0.46911108 4.9960637 0.72400457 554 73284650 1425 17 96 5070
-0.62553525 4.7777481 0.64874983 372 73284650 880 18 83 4862
-0.77201402 4.5862632 0.58151186 110 73284650 242 19 102 4687
-0.28931344 5.0682077 0.59320325 632 73284650 1651 20 114 5111
-0.44691369 4.7677064 0.5129379 640 73284650 1484 21 131 4816
-0.59285259 4.5447598 0.44688955 636 73284650 1349 22 98 4605
-0.72736561 4.335351 0.38761061 516 73284650 1004 23 154 4413
-0.2756179 4.8446355 0.38854519 672 73284650 1593 24 104 4868
-0.42863038 4.585578 0.32471833 662 73284650 1411 25 97 4617
-0.56665057 4.3450794 0.2670089 619 73284650 1192 26 156 4390
-0.69008827 4.1281753 0.21546844 665 73284650 1168 27 104 4191
-0.26160195 4.6382418 0.20193827 726 73284650 1571 28 76 4650
-0.41079339 4.4113712 0.15014732 616 73284650 1210 29 48 4433
-0.54276389 4.1927285 0.10428292 667 73284650 1192 30 53 4229
-0.66160995 3.9667554 0.060086522 717 73284650 1160 31 96 4022
-0.25248575 4.480783 0.031331901 686 73284650 1382 32 112 4488
-0.39213973 4.2278399 -0.010745458 672 73284650 1212 33 103 4246
-0.52724421 4.0767546 -0.049076166 633 73284650 1070 34 136 4111
-0.63963687 3.8503339 -0.083734758 684 73284650 1042 35 116 3904
-0.24021308 4.3003974 -0.12790702 706 73284650 1310 36 145 4309
-0.37629285 4.0895844 -0.16064107 709 73284650 1198 37 92 4110
-0.50337195 3.9050279 -0.19167244 699 73284650 1086 38 212 3942
-0.61799181 3.7196386 -0.21932785 679 73284650 969 39 96 3777
-0.22753145 4.1316371 -0.27462122 760 73284650 1307 40 101 4147
-0.36092451 3.9421654 -0.29994562 687 73284650 1083 41 117 3970
-0.48198739 3.747385 -0.32258216 679 73284650 977 42 173 3792
-0.59702176 3.6054862 -0.34681115 699 73284650 942 43 102 3671
-0.22038856 4.0275383 -0.41640139 744 73284650 1223 44 121 4055
-0.35107064 3.8515656 -0.43572718 684 73284650 1037 45 81 3892
-0.47014314 3.670486 -0.4521977 709 73284650 986 46 123 3728
-0.57878792 3.5006771 -0.46851572 666 73284650 854 47 185 3579
-0.20885754 3.876333 -0.54481328 752 73284650 1156 48 112 3920
-0.33573696 3.701205 -0.55760837 656 73284650 927 49 85 3758
-0.45517167 3.5684268 -0.57497698 639 73284650 848 50 95 3643
-0.56304985 3.4114079 -0.58678919 701 73284650 862 51 91 3507
-0.20081596 3.7898726 -0.67643619 706 73284650 1049 52 107 3855
-0.32464141 3.5991333 -0.67910147 661 73284650 894 53 120 3677
-0.43696001 3.4342475 -0.68472803 667 73284650 831 54 113 3529
-0.54434419 3.2977154 -0.69581634 716 73284650 835 55 95 3414
-0.19115403 3.6460664 -0.79205859 717 73284650 1000 56 144 3736
-0.31313461 3.4919977 -0.79493719 661 73284650 854 57 95 3595
-0.42565772 3.3505557 -0.80027121 733 73284650 883 58 84 3471
-0.54529393 3.3052642 -0.829027 122 73284650 146 59 85 3451
-0.18146704 3.5404782 -0.90977192 694 73284650 930 60 75 3660
-0.3018705 3.3983855 -0.90984154 683 73284650 851 61 51 3531
-0.42369375 3.3402255 -0.93349588 75 73284650 91 62 56 3494
-0.49563536 2.9964464 -0.87611461 622 73284650 622 63 80 3161
-0.31371778 6.2608657 1.9566907 202 73384080 872 0 80 6567
-0.46257213 5.2340207 1.5771018 165 73384080 497 1 98 5486
-0.6129908 4.8505774 1.4157134 190 73384080 492 2 32 5090
-0.88209623 5.3511677 1.5149502 452 73384080 1435 3 70 5631
-0.26835763 5.3019218 1.4340895 166 73384080 502 4 97 5499
-0.41353008 4.7025056 1.2249762 1005 73384080 2389 5 48 4877
-0.69256616 5.4972234 1.3802136 101 73384080 330 6 98 5710
-0.8409614 5.1340055 1.2436152 121 73384080 347 7 88 5349
-0.24728072 4.8669987 1.1230241 169 73384080 423 8 83 5001
-0.4897052 5.544343 1.2243596 219 73384080 712 9 80 5699
-0.63350642 5.0504708 1.0685594 594 73384080 1608 10 71 5201
-0.80248332 4.9260435 0.99910814 290 73384080 752 11 65 5090
-0.2846778 5.5857372 1.0730917 508 73384080 1647 12 131 5695
-0.47206798 5.368176 0.97845328 255 73384080 766 13 82 5477
-0.62891734 5.0216918 0.86907977 99 73384080 261 14 117 5135
-0.76272047 4.6891794 0.77124947 397 73384080 920 15 70 4813
-0.27054998 5.3103547 0.81935185 723 73384080 2094 16 60 5380
-0.43948475 5.0106797 0.7257182 585 73384080 1511 17 119 5082
-0.59915078 4.805099 0.65195215 435 73384080 1038 18 115 4886
-0.74385875 4.5909138 0.58151186 93 73384080 205 19 86 4687
-0.2588163 5.0817909 0.59459603 665 73384080 1746 20 104 5123
-0.42181382 4.8179035 0.51805025 637 73384080 1507 21 100 4864
-0.56495529 4.5483117 0.44688955 608 73384080 1290 22 96 4605
-0.70075071 4.3397322 0.38761061 578 73384080 1125 23 168 4413
-0.24709886 4.8701282 0.39046079 630 73384080 1508 24 89 4892
-0.40152663 4.6000466 0.3255623 686 73384080 1470 25 92 4629
-0.54145503 4.3603611 0.26773876 652 73384080 1263 26 150 4402
-0.66855198 4.1559963 0.21670234 687 73384080 1220 27 123 4215
-0.23494224 4.6756806 0.20350167 735 73384080 1615 28 86 4686
-0.38683414 4.4496531 0.15136665 620 73384080 1239 29 64 4469
-0.52142888 4.2316995 0.10517065 647 73384080 1178 30 60 4265
-0.64296186 4.0062814 0.060624342 709 73384080 1168 31 97 4058
-0.22619055 4.506217 0.031499445 655 73384080 1333 32 119 4512
-0.37033048 4.277987 -0.010866933 663 73384080 1222 33 131 4294
-0.50515175 4.1037316 -0.049362674 600 73384080 1026 34 130 4135
-0.61789304 3.8660328 -0.083992139 671 73384080 1029 35 96 3916
-0.2162037 4.3497105 -0.12933184 681 73384080 1292 36 168 4357
-0.35426873 4.1276569 -0.16204815 705 73384080 1213 37 81 4146
-0.48086104 3.9199398 -0.19225593 676 73384080 1057 38 225 3954
-0.59704781 3.7351902 -0.22002469 688 73384080 988 39 103 3789
-0.20451601 4.1807928 -0.27779984 773 73384080 1360 40 112 4195
-0.33978251 3.9800725 -0.30266553 702 73384080 1126 41 133 4006
-0.4662472 3.8096116 -0.32768631 715 73384080 1061 42 179 3852
-0.57864612 3.6326766 -0.34907848 714 73384080 975 43 74 3695
-0.19625096 4.0407376 -0.41763365 769 73384080 1272 44 127 4067
-0.32743126 3.8536472 -0.43572718 685 73384080 1038 45 89 3892
-0.45049423 3.6969495 -0.45510882 724 73384080 1019 46 130 3752
-0.56103438 3.5276606 -0.47165748 674 73384080 875 47 140 3603
-0.18506888 3.8775415 -0.54481328 739 73384080 1135 48 124 3920
-0.3170186 3.7504954 -0.56473058 693 73384080 1004 49 71 3806
-0.43469486 3.582916 -0.57687098 678 73384080 906 50 62 3655
-0.54210728 3.4147985 -0.58678919 709 73384080 872 51 105 3507
-0.17700525 3.7792325 -0.67433053 731 73384080 1080 52 107 3843
-0.3035388 3.6128094 -0.68131769 646 73384080 879 53 117 3689
-0.42012206 3.4719241 -0.69171304 668 73384080 849 54 103 3565
-0.53146821 3.3474045 -0.70559931 738 73384080 885 55 89 3462
-0.16986282 3.6706002 -0.7971468 677 73384080 957 56 139 3760
-0.29364961 3.5171781 -0.80024415 669 73384080 876 57 88 3619
-0.40789205 3.3762891 -0.80580467 689 73384080 842 58 73 3495
-0.50127053 3.158987 -0.79155141 565 73384080 614 59 90 3295
-0.16131088 3.5763597 -0.91872048 698 73384080 954 60 73 3696
-0.28292274 3.4232845 -0.9160257 692 73384080 875 61 73 3555
-0.38934311 3.2279565 -0.90143532 394 73384080 448 62 53 3374
-0.48086363 3.0222044 -0.88276654 643 73384080 653 63 74 3185
-0.27378675 6.2283406 1.9459641 204 73481950 871 0 96 6531
-0.43609741 5.3054895 1.5978001 63 73481950 195 1 109 5558
-0.56946701 4.7398052 1.3823371 558 73481950 1377 2 48 4970
-0.8528651 5.3793092 1.5214071 393 73481950 1258 3 62 5655
-0.2399375 5.3960552 1.4591255 102 73481950 320 4 92 5595
-0.39602613 4.8438745 1.2611452 142 73481950 359 5 74 5021
-0.65882283 5.501369 1.3802136 164 73481950 535 6 102 5710
-0.80581206 5.1160107 1.2380353 169 73481950 480 7 68 5325
-0 0 0 7 73481950 0 8 101 0
-0.46047395 5.6056457 1.2372499 218 73481950 724 9 90 5759
-0.61918694 5.1942 1.0981447 331 73481950 947 10 78 5345
-0.77406317 4.9424996 1.0014637 326 73481950 847 11 50 5102
-0.25039902 5.587379 1.0730917 539 73481950 1748 12 134 5695
-0.43527216 5.3239007 0.96987826 241 73481950 711 13 76 5429
-0.60647911 5.0959206 0.88126552 85 73481950 231 14 109 5207
-0.74125338 4.740582 0.77894115 332 73481950 785 15 83 4861
-0.23424581 5.2289782 0.80655909 737 73481950 2068 16 79 5296
-0.41259202 5.0606332 0.73257262 599 73481950 1577 17 112 5130
-0.56965595 4.8086848 0.65195215 481 73481950 1149 18 85 4886
-0.7230047 4.6424532 0.58746713 166 73481950 372 19 104 4735
-0.23029611 5.1428185 0.60155982 634 73481950 1704 20 92 5183
-0.39514688 4.8560781 0.52188444 643 73481950 1544 21 99 4900
-0.544034 4.6109986 0.45271224 655 73481950 1426 22 101 4665
-0.67777556 4.3675752 0.38971865 594 73481950 1169 23 142 4437
-0.22040856 4.9432516 0.39620754 662 73481950 1632 24 108 4964
-0.37619686 4.6382174 0.32809421 662 73481950 1441 25 98 4665
-0.52170545 4.4230781 0.27138808 649 73481950 1292 26 116 4462
-0.64486939 4.1718636 0.21731928 693 73481950 1238 27 114 4227
-0.20836104 4.7249422 0.20558618 727 73481950 1630 28 105 4734
-0.3604897 4.4638972 0.15177311 641 73481950 1288 29 70 4481
-0.49963588 4.2705641 0.10605837 658 73481950 1217 30 47 4301
-0.62202489 4.0338683 0.06098289 701 73481950 1168 31 103 4082
-0.19906469 4.5195079 0.031583223 658 73481950 1347 32 112 4524
-0.34599739 4.3041019 -0.01092767 660 73481950 1231 33 128 4318
-0.48135513 4.1186719 -0.04950593 629 73481950 1082 34 101 4147
-0.60144275 3.9171846 -0.085021667 691 73481950 1086 35 77 3964
-0.19055419 4.3749218 -0.13004425 728 73481950 1396 36 171 4381
-0.33083931 4.1536589 -0.16298619 716 73481950 1246 37 82 4170
-0.46095872 3.9585326 -0.19400637 706 73481950 1124 38 192 3990
-0.57957268 3.7743063 -0.22211519 684 73481950 1001 39 103 3825
-0.17988259 4.2058945 -0.27938917 749 73481950 1333 40 125 4219
-0.31724414 4.0059395 -0.30447882 690 73481950 1120 41 120 4030
-0.44562235 3.836154 -0.32972795 714 73481950 1073 42 182 3876
-0.55815232 3.6479676 -0.35021219 685 73481950 942 43 86 3707
-0.17195964 4.053791 -0.41886586 764 73481950 1271 44 136 4079
-0.30658945 3.8912468 -0.43975756 688 73481950 1062 45 85 3928
-0.42916992 3.7114768 -0.4565644 705 73481950 999 46 114 3764
-0.53937852 3.5310366 -0.47165748 715 73481950 928 47 147 3603
-0.16324802 3.9260974 -0.55148447 718 73481950 1130 48 114 3968
-0.29492697 3.7642009 -0.56651109 631 73481950 920 49 80 3818
-0.41541225 3.6090593 -0.58065885 651 73481950 881 50 82 3679
-0.52649391 3.4531474 -0.59281272 684 73481950 859 51 91 3543
-0.15477356 3.8038554 -0.67854184 682 73481950 1020 52 105 3867
-0.28319582 3.6381199 -0.68575019 676 73481950 932 53 103 3713
-0.4014957 3.4978268 -0.69636977 674 73481950 868 54 118 3589
-0.51091892 3.3506024 -0.70559931 399 73481950 479 55 75 3462
-0.1482777 3.6950088 -0.80223495 672 73481950 962 56 150 3784
-0.27296519 3.530582 -0.80289763 618 73481950 815 57 97 3631
-0.3964732 3.459934 -0.82517165 305 73481950 391 58 87 3579
-0.48012298 3.1504879 -0.78866869 326 73481950 352 59 76 3283
-0.14026867 3.6005113 -0.92468625 744 73481950 1029 60 50 3720
-0.26279664 3.4365172 -0.91911775 307 73481950 391 61 62 3567
-0.36295804 3.1728404 -0.88540506 271 73481950 298 62 73 3314
-0.47624531 3.1162784 -0.90937424 633 73481950 682 63 71 3281
-0.23643088 6.2527971 1.9531151 233 73578510 1002 0 96 6555
-0.40876284 5.3768277 1.6184986 24 73578510 76 1 113 5630
-0.55603009 4.8806396 1.4223887 99 73578510 260 2 82 5114
-0.83028054 5.4529963 1.5407778 290 73578510 953 3 62 5727
-0.23388234 6.1035767 1.6500244 34 73578510 137 4 94 6327
-0.375927 4.973618 1.2943002 13 73578510 33 5 54 5153
-0.61717308 5.4358897 1.36281 431 73578510 1371 6 81 5638
-0.8075633 5.3401179 1.2910441 34 73578510 105 7 104 5553
-0 0 0 4 73578510 0 8 89 0
-0.42163071 5.5499349 1.2243596 212 73578510 689 9 90 5699
-0.59521562 5.26792 1.1129372 204 73578510 597 10 56 5417
-0.75071895 4.9936991 1.0108855 384 73578510 1019 11 74 5150
-0.21474469 5.5534816 1.0663085 278 73578510 890 12 124 5659
-0.40882632 5.408885 0.98488468 180 73578510 548 13 68 5513
-0.57917649 5.1348028 0.88735831 104 73578510 286 14 105 5243
-0.71918392 4.7918959 0.78663284 234 73578510 564 15 86 4909
-0.20398922 5.2777214 0.81386924 628 73578510 1795 16 66 5344
-0.38421023 5.0985999 0.73771352 649 73578510 1733 17 74 5166
-0.54279286 4.8357267 0.65515459 541 73578510 1305 18 94 4910
-0.69450551 4.6468024 0.58746713 271 73578510 608 19 81 4735
-0.20011643 5.1798649 0.60573816 627 73578510 1708 20 112 5219
-0.36713254 4.8822079 0.52444065 633 73578510 1535 21 97 4924
-0.51838446 4.6379886 0.45504129 620 73578510 1364 22 85 4689
-0.65448499 4.395298 0.39182666 617 73578510 1227 23 163 4461
-0.19053268 4.9564643 0.39716536 646 73578510 1600 24 88 4976
-0.35041365 4.6762486 0.33062613 661 73578510 1461 25 92 4701
-0.49588615 4.4380994 0.27211794 657 73578510 1315 26 132 4474
-0.62453318 4.2113051 0.21917011 650 73578510 1181 27 119 4263
-0.18072942 4.7620721 0.2071496 706 73578510 1607 28 92 4770
-0.33844504 4.5377846 0.15421177 621 73578510 1288 29 74 4553
-0.47738543 4.30932 0.1069461 664 73578510 1250 30 72 4337
-0.60252917 4.0732174 0.061520707 714 73578510 1211 31 89 4118
-0.17269313 4.5566182 0.03183455 646 73578510 1343 32 127 4560
-0.31958139 4.3061438 -0.01092767 655 73578510 1221 33 133 4318
-0.46003351 4.1573267 -0.049935687 629 73578510 1101 34 128 4183
-0.57914394 3.9326704 -0.085279047 731 73578510 1156 35 93 3976
-0.16505182 4.4119678 -0.13111286 740 73578510 1443 36 161 4417
-0.3053467 4.1556106 -0.16298619 725 73578510 1261 37 83 4170
-0.43797421 3.9732003 -0.19458985 678 73578510 1086 38 222 4002
-0.55814862 3.789643 -0.22281201 670 73578510 987 39 87 3837
-0.15494876 4.2308497 -0.2809785 781 73578510 1406 40 110 4243
-0.29440108 4.0316787 -0.30629209 692 73578510 1137 41 116 4054
-0.42338252 3.8507011 -0.3307488 704 73578510 1063 42 162 3888
-0.53922695 3.6749632 -0.35247952 688 73578510 957 43 52 3731
-0.14924634 4.1144137 -0.42502722 751 73578510 1286 44 153 4139
-0.28270742 3.8930547 -0.43975756 691 73578510 1067 45 85 3928
-0.40897986 3.7377217 -0.45947555 714 73578510 1024 46 144 3788
-0.52115077 3.557822 -0.47479922 695 73578510 914 47 152 3627
-0.14083819 3.9745295 -0.55815572 749 73578510 1208 48 123 4016
-0.27438775 3.8014488 -0.57185274 653 73578510 970 49 80 3854
