# .PCD v0.7 - Point Cloud Data file format
VERSION 0.7
FIELDS x y z intensity t reflectivity ring noise range
SIZE 4 4 4 4 4 2 1 2 4
TYPE F F F F U U U U U
COUNT 1 1 1 1 1 1 1 1 1
WIDTH 764
HEIGHT 1
VIEWPOINT 0 0 0 1 0 0 0
POINTS 764
DATA ascii
-0.57708883 -1.2589797 -0.054172389 191 31538750 37 37 16 1386
-0.53520715 -1.2897042 -0.067975163 195 31538750 38 38 80 1398
-0.47610542 -1.2768186 -0.079264633 212 31538750 39 39 38 1365
-0.62249964 -1.236053 -0.091849439 225 31538750 43 40 20 1387
-0.58809489 -1.2814552 -0.10683202 186 31538750 37 41 48 1414
-0.55030841 -1.3250489 -0.12249955 227 31538750 47 42 104 1440
-0.49288234 -1.3196295 -0.13367958 228 31538750 46 43 43 1415
-0.60667372 -1.2035828 -0.13914275 203 31538750 37 44 42 1355
-0.58907455 -1.2822317 -0.1589755 198 31538750 40 45 19 1420
-0.52910119 -1.2721047 -0.16836116 211 31538750 41 46 80 1388
-0.49254572 -1.3177459 -0.18575685 222 31538750 45 47 98 1419
-0.61435848 -1.2162923 -0.19124059 205 31538750 39 48 28 1376
-0.57605189 -1.2524446 -0.20684037 167 31538750 32 49 24 1394
-0.56308979 -1.3518261 -0.23406282 222 31538750 49 50 50 1483
-0.51090974 -1.3657135 -0.24746542 216 31538750 47 51 57 1479
-0.91907918 -1.8155535 -0.36269614 322 31538750 137 52 57 2067
-0.85555226 -1.8576534 -0.38433778 285 31538750 123 53 45 2081
-0.74328363 -1.7828444 -0.38204291 233 31538750 91 54 58 1969
-0.5165754 -1.3809319 -0.30694181 188 31538750 43 55 37 1506
-0.91909266 -1.8130666 -0.44097483 325 31538750 141 56 60 2080
-0.85566187 -1.8553342 -0.46325266 284 31538750 124 57 42 2095
-0.79230213 -1.8993938 -0.48763284 322 31538750 144 58 53 2115
-0.73309904 -1.9592313 -0.51769149 374 31538750 173 59 52 2155
-0.93763626 -1.8442961 -0.53094888 363 31538750 166 60 17 2136
-0.8671304 -1.876067 -0.55116147 343 31538750 157 61 32 2139
-0.79799253 -1.9120022 -0.57441789 298 31538750 138 62 43 2150
-0.74028647 -1.9809675 -0.61003745 328 31538750 159 63 43 2201
-0.50598943 -0.99244982 0.34771705 538 31636790 73 0 11 1167
-0.49314043 -1.0656779 0.35244748 507 31636790 76 1 10 1226
-0.47185567 -1.1291003 0.35434556 352 31636790 57 2 33 1274
-0.43049797 -1.1500574 0.34302282 333 31636790 54 3 15 1275
-0.51647139 -1.0142776 0.30747256 690 31636790 96 4 15 1179
-0.50005931 -1.0793936 0.30869299 507 31636790 77 5 1 1229
-0.46662414 -1.1153779 0.30118147 376 31636790 58 6 51 1246
-0.43795663 -1.1663853 0.29782593 374 31636790 61 7 22 1281
-0.53968871 -1.0603765 0.27418765 540 31636790 80 8 11 1221
-0.52629071 -1.1371596 0.27563667 445 31636790 73 9 1 1283
-0.49203488 -1.1743325 0.26729396 367 31636790 62 10 28 1301
-0.43185192 -1.1470842 0.24536054 296 31636790 46 11 7 1250
-0.55354202 -1.0880183 0.23421477 444 31636790 69 12 18 1243
-0.5231998 -1.1293432 0.22598931 402 31636790 64 13 12 1265
-0.49344808 -1.1770713 0.21917397 316 31636790 53 14 57 1295
-0.4430148 -1.1758636 0.20398931 280 31636790 45 15 37 1273
-0.56649435 -1.1134286 0.19250201 384 31636790 61 16 1 1264
-0.53696841 -1.158374 0.18421417 300 31636790 50 17 32 1290
-0.52100444 -1.2409208 0.18120161 268 31636790 49 18 37 1358
-0.47340065 -1.254192 0.16761735 237 31636790 43 19 56 1351
-0.59409922 -1.1676348 0.15308845 285 31636790 50 20 28 1319
-0.55886793 -1.2051206 0.14229341 270 31636790 48 21 19 1336
-0.52651131 -1.2523832 0.13246563 260 31636790 48 22 54 1365
-0.50199246 -1.3277662 0.12516318 196 31636790 40 23 80 1425
-0.61138105 -1.2010298 0.10791149 227 31636790 41 24 27 1352
-0.56812799 -1.2242486 0.095157869 207 31636790 38 25 29 1353
-0.5191747 -1.2348114 0.081623219 176 31636790 32 26 86 1342
-0.48071742 -1.2692164 0.069869153 256 31636790 47 27 48 1359
-0.61244005 -1.2016572 0.058627237 233 31636790 42 28 1 1350
-0.5831123 -1.2553903 0.046910454 189 31636790 36 29 8 1385
-0.52386326 -1.2426834 0.033264998 185 31636790 34 30 37 1349
-0.50268155 -1.3257401 0.021184159 239 31636790 48 31 30 1418
-0.6157912 -1.2080761 0.0094665894 172 31636790 32 32 40 1356
-0.5860135 -1.260427 -0.0035177076 201 31636790 39 33 16 1390
-0.5295766 -1.2558076 -0.01627118 192 31636790 36 34 58 1363
-0.47862357 -1.2598363 -0.028912514 313 31636790 57 35 25 1348
-0.62748414 -1.2295301 -0.040993176 189 31636790 36 36 81 1381
-0.57973969 -1.2445457 -0.053703364 208 31636790 39 37 21 1374
-0.54777241 -1.297438 -0.068558641 199 31636790 40 38 79 1410
-0.49669388 -1.30747 -0.081355125 203 31636790 40 39 36 1401
-0.62462097 -1.2215494 -0.091054782 192 31636790 36 40 34 1375
-0.58583164 -1.256134 -0.10501875 197 31636790 38 41 53 1390
-0.53981417 -1.2775924 -0.11841623 230 31636790 45 42 111 1392
-0.50097013 -1.3165804 -0.13367958 235 31636790 47 43 33 1415
-0.61948544 -1.2104635 -0.14037502 207 31636790 39 44 49 1367
-0.60197556 -1.2893981 -0.16031894 192 31636790 39 45 21 1432
-0.54153854 -1.2798041 -0.16981673 202 31636790 40 46 73 1400
-0.49638844 -1.3035809 -0.18418598 213 31636790 42 47 77 1407
-0.63807821 -1.2442222 -0.19624397 202 31636790 40 48 29 1412
-0.5988006 -1.2811389 -0.212182 180 31636790 37 49 12 1430
-0.5575037 -1.3156142 -0.2283809 214 31636790 45 50 70 1447
-0.49821383 -1.3072768 -0.23742624 237 31636790 48 51 80 1419
-0.90860063 -1.7678508 -0.35427359 324 31636790 132 52 47 2019
-0.85693622 -1.8310057 -0.37990525 293 31636790 124 53 49 2057
-0.79557747 -1.8757875 -0.40299803 267 31636790 115 54 53 2077
-0.53758967 -1.4106702 -0.31427908 206 31636790 49 55 62 1542
-0.94629979 -1.8386749 -0.44860709 317 31636790 142 56 92 2116
-0.87199622 -1.860646 -0.46590617 307 31636790 136 57 45 2107
-0.80394167 -1.8944966 -0.48763284 300 31636790 134 58 50 2115
-0.74095774 -1.9438115 -0.51480871 354 31636790 162 59 47 2143
-0.94893497 -1.8385081 -0.53094888 347 31636790 158 60 31 2136
-0.8638379 -1.8392265 -0.54188526 324 31636790 143 61 30 2103
-0.81422871 -1.917714 -0.57762396 324 31636790 151 62 43 2162
-0.74832517 -1.9656124 -0.60671145 302 31636790 145 63 32 2189
-0.52260047 -1.0096725 0.35486805 577 31733950 82 0 1 1191
-0.48499781 -1.0314292 0.3420983 481 31733950 68 1 34 1190
-0.48779413 -1.1473993 0.36102083 344 31733950 58 2 18 1298
-0.42107415 -1.1041983 0.33010903 316 31733950 48 3 16 1227
-0.52268517 -1.0110894 0.30747256 704 31733950 98 4 22 1179
-0.51656723 -1.0973231 0.31472114 506 31733950 79 5 1 1253
-0.47801897 -1.1232079 0.3040821 387 31733950 61 6 33 1258
-0.45344442 -1.1854781 0.30340582 332 31733950 56 7 27 1305
-0.54081696 -1.0466565 0.27149293 559 31733950 82 8 5 1209
-0.52328306 -1.1126977 0.27048054 429 31733950 68 9 1 1259
-0.4946264 -1.1604877 0.2648285 355 31733950 59 10 29 1289
-0.45573527 -1.1883583 0.25478241 273 31733950 46 11 9 1298
-0.54939103 -1.0636598 0.22969253 472 31733950 70 12 48 1219
-0.54520589 -1.1581591 0.23242064 413 31733950 70 13 9 1301
-0.50993979 -1.1957793 0.22323586 333 31733950 58 14 56 1319
-0.47568566 -1.2394743 0.21552682 262 31733950 47 15 11 1345
-0.57875842 -1.120469 0.19432956 425 31733950 69 16 1 1276
-0.54912704 -1.1658021 0.18592779 325 31733950 55 17 30 1302
-0.50992453 -1.1939528 0.17479683 266 31733950 46 18 57 1310
-0.48536047 -1.2623777 0.16910617 220 31733950 41 19 60 1363
-0.58484232 -1.1321989 0.14891015 301 31733950 50 20 21 1283
-0.55607969 -1.1800817 0.13973723 252 31733950 43 21 42 1312
-0.53418589 -1.2491291 0.13246563 224 31733950 42 22 52 1365
-0.49294674 -1.2800409 0.12094717 202 31733950 38 23 94 1377
-0.60775542 -1.1760027 0.10599589 246 31733950 43 24 8 1328
-0.5705238 -1.2099127 0.094313897 235 31733950 42 25 15 1341
-0.53616172 -1.2536284 0.083082952 202 31733950 38 26 97 1366
-0.51437676 -1.3333286 0.073570833 229 31733950 47 27 58 1431
-0.60878307 -1.1765813 0.057584979 256 31733950 45 28 23 1326
-0.57032871 -1.2084054 0.045284674 172 31733950 31 29 2 1337
-0.52675056 -1.2284201 0.032969087 189 31733950 34 30 23 1337
-0.49351561 -1.2778591 0.020467065 391 31733950 73 31 53 1370
-0.62319219 -1.2042749 0.0094665894 179 31733950 33 32 26 1356
-0.57835895 -1.2242571 -0.0034266014 202 31733950 37 33 37 1354
-0.54200238 -1.2635622 -0.016414434 204 31733950 39 34 42 1375
-0.48201528 -1.2456871 -0.028655134 230 31733950 41 35 36 1336
-0.64605236 -1.2469572 -0.041705586 201 31733950 40 36 73 1405
-0.58223534 -1.230127 -0.053234342 222 31733950 41 37 25 1362
-0.55572301 -1.2940525 -0.068558641 231 31733950 46 38 84 1410
-0.50470698 -1.3043977 -0.081355125 215 31733950 42 39 32 1401
-0.62658793 -1.2070667 -0.090260118 217 31733950 40 40 34 1363
-0.59865206 -1.2633288 -0.10592538 190 31733950 37 41 46 1402
-0.55236417 -1.2852411 -0.11943706 248 31733950 49 42 112 1404
-0.49608827 -1.2800645 -0.13027854 237 31733950 45 43 33 1379
-0.6434105 -1.2384166 -0.1440718 204 31733950 40 44 39 1403
-0.58943307 -1.2425847 -0.15494512 215 31733950 41 45 37 1384
-0.57763493 -1.3421036 -0.17855017 200 31733950 43 46 88 1472
-0.50867939 -1.3116024 -0.18575685 214 31733950 43 47 106 1419
-0.64021307 -1.2297429 -0.19457619 176 31733950 34 48 21 1400
-0.61174101 -1.2881603 -0.21396255 198 31733950 41 49 6 1442
-0.56087542 -1.3012869 -0.22648695 206 31733950 42 50 70 1435
-0.51478773 -1.3262537 -0.24144192 209 31733950 44 51 63 1443
-0.9412896 -1.8041383 -0.36269614 322 31733950 137 52 52 2067
-0.86309034 -1.8150624 -0.37768897 285 31733950 119 53 45 2045
-0.81639791 -1.8924887 -0.40765473 260 31733950 115 54 44 2101
-0.69076437 -1.7797164 -0.39743462 273 31733950 104 55 45 1950
-0.9304117 -1.7808629 -0.43588662 347 31733950 147 56 64 2056
-0.87836528 -1.8446941 -0.46325266 288 31733950 126 57 41 2095
-0.81555098 -1.8895279 -0.48763284 331 31733950 148 58 46 2115
-0.76551819 -1.9718053 -0.52345693 362 31733950 172 59 65 2179
-0.93322617 -1.7811722 -0.5160346 342 31733950 147 60 26 2076
-0.88509387 -1.8548203 -0.54806936 349 31733950 158 61 30 2127
-0.82598025 -1.9126819 -0.57762396 307 31733950 143 62 50 2162
-0.7645402 -1.9717339 -0.61003745 337 31733950 163 63 37 2201
-0.51813018 -0.98616582 0.34771705 588 31831520 80 0 17 1167
-0.50618082 -1.0595461 0.35244748 513 31831520 77 1 15 1226
-0.48567593 -1.123225 0.35434556 387 31831520 63 2 22 1274
-0.43620998 -1.1231408 0.33656591 350 31831520 55 3 27 1251
-0.52887923 -1.0078633 0.30747256 772 31831520 107 4 1 1179
-0.51326746 -1.0731758 0.30869299 555 31831520 84 5 1 1229
-0.48027641 -1.1095676 0.30118147 394 31831520 61 6 57 1246
-0.44376418 -1.1391729 0.29224607 352 31831520 56 7 47 1257
-0.5417974 -1.0329628 0.2687982 628 31831520 90 8 24 1197
-0.51999539 -1.0883164 0.26532444 470 31831520 72 9 35 1235
-0.50173771 -1.1574309 0.2648285 375 31831520 62 10 32 1289
-0.47157949 -1.2074602 0.25949332 310 31831520 54 11 16 1322
-0.55590719 -1.0602688 0.22969253 508 31831520 75 12 34 1219
-0.55230194 -1.154792 0.23242064 439 31831520 74 13 1 1301
-0.51726735 -1.1926279 0.22323586 339 31831520 59 14 77 1319
-0.47465837 -1.2144678 0.21168099 294 31831520 51 15 52 1321
-0.58011514 -1.106393 0.19250201 417 31831520 67 16 1 1264
-0.57677752 -1.2052646 0.19278227 345 31831520 63 17 1 1350
-0.53619319 -1.2344339 0.18120161 260 31831520 48 18 28 1358
-0.48007327 -1.2261127 0.16463968 246 31831520 43 19 50 1327
-0.59731328 -1.1391449 0.15030292 306 31831520 51 20 26 1295
-0.56846231 -1.1874096 0.14101532 286 31831520 50 21 13 1324
-0.53231347 -1.2239232 0.13013656 235 31831520 42 22 58 1341
-0.50079161 -1.2769921 0.12094717 195 31831520 37 23 77 1377
-0.6205166 -1.182844 0.10695369 242 31831520 43 24 15 1340
-0.57793695 -1.2063892 0.094313897 244 31831520 44 25 23 1341
-0.5486213 -1.2612985 0.08381281 192 31831520 37 26 71 1378
-0.49187452 -1.2520674 0.069252208 180 31831520 33 27 48 1347
-0.6271401 -1.1940511 0.058627237 235 31831520 43 28 17 1350
-0.58291799 -1.2156974 0.045691121 188 31831520 34 29 10 1349
-0.55345941 -1.2691499 0.03415272 155 31831520 30 30 30 1385
-0.50134712 -1.2748069 0.020467065 234 31831520 44 31 28 1370
-0.63615 -1.2110516 0.0095503647 167 31831520 31 32 36 1368
-0.58066767 -1.2098668 -0.0033962326 160 31831520 29 33 27 1342
-0.54974526 -1.2602127 -0.016414434 209 31831520 39 34 45 1375
-0.51163983 -1.2985162 -0.029942039 232 31831520 45 35 36 1396
-0.64810818 -1.2323534 -0.041349381 204 31831520 40 36 73 1393
-0.58977234 -1.2265313 -0.053234342 200 31831520 37 37 16 1362
-0.55885571 -1.2796344 -0.067975163 200 31831520 39 38 83 1398
-0.51270115 -1.3012763 -0.081355125 227 31831520 44 39 55 1401
-0.63956422 -1.2137924 -0.091054782 216 31831520 41 40 33 1375
-0.60639244 -1.2596318 -0.10592538 195 31831520 38 41 46 1402
-0.57460499 -1.3146951 -0.12249955 227 31831520 47 42 122 1440
-0.51270372 -1.2992213 -0.1325459 220 31831520 43 43 41 1403
-0.63429308 -1.2027704 -0.14037502 187 31831520 35 44 49 1367
-0.61775309 -1.2819139 -0.16031894 193 31831520 40 45 16 1432
-0.56197894 -1.2839742 -0.17127229 230 31831520 46 46 86 1412
-0.52982682 -1.341652 -0.1904695 213 31831520 45 47 76 1455
-0.64774656 -1.2257915 -0.19457619 190 31831520 37 48 25 1400
-0.6196335 -1.2843826 -0.21396255 185 31831520 38 49 16 1442
-0.58312017 -1.3303795 -0.23216885 202 31831520 44 50 45 1471
-0.54031008 -1.3670806 -0.24947324 206 31831520 46 51 50 1491
-0.94128412 -1.7774481 -0.35848483 333 31831520 139 52 50 2043
-0.89473051 -1.8522103 -0.38655406 290 31831520 127 53 58 2093
-0.83745289 -1.9090042 -0.4123114 271 31831520 123 54 63 2125
-0.75780529 -1.9174801 -0.42922941 317 31831520 140 55 46 2106
-0.94681549 -1.7854812 -0.43843073 333 31831520 143 56 84 2068
-0.88457167 -1.8287349 -0.46059921 284 31831520 123 57 39 2083
-0.83651549 -1.9058727 -0.4931663 321 31831520 147 58 49 2139
-0.7690379 -1.9454054 -0.51769149 346 31831520 160 59 52 2155
-0.97142488 -1.8267249 -0.53094888 363 31831520 166 60 23 2136
-0.90151578 -1.8597882 -0.55116147 337 31831520 154 61 36 2139
-0.82840145 -1.8864019 -0.57121181 301 31831520 137 62 52 2138
-0.78509253 -1.9884541 -0.61668932 316 31831520 156 63 42 2225
-0.52417141 -0.98296809 0.34771705 588 31929120 80 0 28 1167
-0.50263649 -1.0357399 0.345548 571 31929120 83 1 5 1202
-0.4879193 -1.1096722 0.35100794 379 31929120 60 2 32 1262
-0.45159382 -1.1419386 0.34302282 381 31929120 62 3 22 1275
-0.53505343 -1.0045992 0.30747256 739 31929120 103 4 11 1179
-0.51476687 -1.0595586 0.30567887 584 31929120 86 5 1 1217
-0.49176645 -1.1172574 0.3040821 430 31929120 68 6 74 1258
-0.44644257 -1.1255795 0.28945613 367 31929120 57 7 43 1245
-0.54812533 -1.029619 0.2687982 686 31929120 98 8 17 1197
-0.52666336 -1.0851054 0.26532444 526 31929120 80 9 13 1235
-0.49935621 -1.132838 0.25989768 387 31929120 62 10 38 1265
-0.47897947 -1.2045438 0.25949332 322 31929120 56 11 3 1322
-0.56240243 -1.0568378 0.22969253 512 31929120 76 12 28 1219
-0.5542177 -1.1407614 0.23027685 434 31929120 72 13 2 1289
-0.52457547 -1.1894315 0.22323586 333 31929120 58 14 69 1319
-0.48210129 -1.2115324 0.21168099 323 31929120 56 15 36 1321
-0.57017761 -1.0714035 0.18701935 424 31929120 64 16 1 1228
-0.56339186 -1.1589757 0.18592779 339 31929120 57 17 40 1302
-0.52934265 -1.1984841 0.17639802 336 31929120 59 18 57 1322
-0.49640602 -1.2452657 0.16761735 225 31929120 41 19 38 1351
-0.6098913 -1.14598 0.15169568 326 31929120 56 20 24 1307
-0.58617371 -1.2053596 0.14357148 288 31929120 52 21 28 1348
-0.54464388 -1.2315568 0.13130111 257 31929120 47 22 56 1353
-0.4953205 -1.2405908 0.11778515 212 31929120 38 23 104 1341
-0.622141 -1.1684561 0.10599589 248 31929120 44 24 16 1328
-0.59580398 -1.2243474 0.096001841 228 31929120 42 25 23 1365
-0.54181558 -1.2250459 0.081623219 208 31929120 37 26 90 1342
-0.50844842 -1.2712801 0.070486099 205 31929120 39 27 70 1371
-0.61189651 -1.1478631 0.056542717 259 31929120 44 28 7 1302
-0.61137271 -1.2552266 0.047316898 182 31929120 36 29 1 1397
-0.56609905 -1.2766967 0.034448627 184 31929120 36 30 18 1397
-0.51361954 -1.2828456 0.020646339 219 31929120 42 31 35 1382
-0.6379236 -1.1965367 0.0094665894 154 31929120 28 32 40 1356
-0.61437309 -1.2602133 -0.0035480761 215 31929120 42 33 16 1402
-0.56719774 -1.2787529 -0.016700938 170 31929120 33 34 56 1399
-0.51513129 -1.2842176 -0.029684659 230 31929120 44 35 43 1384
-0.64436132 -1.2071903 -0.040636975 189 31929120 35 36 64 1369
-0.61307442 -1.2552125 -0.054641418 199 31929120 39 37 22 1398
-0.56669688 -1.2761812 -0.067975163 216 31929120 42 38 57 1398
-0.52067596 -1.298106 -0.081355125 228 31929120 45 39 41 1401
-0.65829295 -1.2309625 -0.092644103 179 31929120 35 40 38 1399
-0.6088537 -1.2451379 -0.10501875 206 31929120 40 41 30 1390
-0.58266103 -1.3111446 -0.12249955 220 31929120 46 42 119 1440
-0.52511919 -1.3071361 -0.13367958 216 31929120 43 43 50 1415
-0.65292656 -1.2199036 -0.14283952 200 31929120 39 44 46 1391
-0.62036467 -1.2673889 -0.1589755 202 31929120 41 45 32 1420
-0.56016088 -1.2587368 -0.16836116 211 31929120 41 46 98 1388
-0.51586151 -1.2831851 -0.1826151 203 31929120 40 47 102 1395
-0.66648865 -1.2427388 -0.19791177 230 31929120 47 48 33 1424
-0.61183685 -1.2485868 -0.20862091 168 31929120 33 49 23 1406
-0.60091913 -1.3484235 -0.2359568 223 31929120 50 50 62 1495
-0.53102416 -1.3198365 -0.24144192 214 31929120 45 51 67 1443
-0.94098705 -1.7508268 -0.35427359 322 31929120 131 52 31 2019
-0.90088367 -1.8360976 -0.38433778 291 31929120 126 53 54 2081
-0.8347649 -1.8715767 -0.40532637 290 31929120 126 54 55 2089
-0.76955646 -1.9127942 -0.42922941 293 31929120 130 55 58 2106
-0.95219553 -1.7693113 -0.43588662 308 31929120 130 56 69 2056
-0.90609688 -1.8442801 -0.46590617 295 31929120 131 57 35 2107
-0.84343547 -1.8900409 -0.49039957 275 31929120 124 58 49 2127
-0.77226269 -1.9190371 -0.511926 336 31929120 152 59 56 2131
-0.95501363 -1.7695858 -0.5160346 381 31929120 164 60 20 2076
-0.90778869 -1.8438191 -0.54806936 361 31929120 163 61 26 2127
-0.85881847 -1.92352 -0.58403605 331 31929120 158 62 43 2186
-0.78437889 -1.9515052 -0.60671145 292 31929120 140 63 29 2189
-0.53019297 -0.97973335 0.34771705 625 32028590 85 0 30 1167
-0.52422631 -1.0635638 0.35589719 550 32028590 84 1 1 1238
-0.49001476 -1.0961345 0.34767029 402 32028590 63 2 35 1250
-0.44132748 -1.0962607 0.33010903 363 32028590 55 3 19 1227
-0.53569901 -0.99110597 0.30434307 779 32028590 106 4 3 1167
-0.52125853 -1.0563802 0.30567887 602 32028590 89 5 1 1217
-0.49861255 -1.1142188 0.3040821 428 32028590 68 6 46 1258
-0.45334059 -1.1228189 0.28945613 370 32028590 57 7 40 1245
-0.54887444 -1.0159483 0.26610351 685 32028590 96 8 1 1185
-0.52294761 -1.0608296 0.26016834 696 32028590 102 9 11 1211
-0.50629777 -1.1297526 0.25989768 395 32028590 63 10 40 1265
-0.47753185 -1.1797684 0.25478241 312 32028590 53 11 8 1298
-0.56887645 -1.053367 0.22969253 537 32028590 80 12 22 1219
-0.56120682 -1.1373392 0.23027685 478 32028590 79 13 1 1289
-0.53670263 -1.1969821 0.22526683 341 32028590 60 14 64 1331
-0.47618541 -1.1756159 0.20591225 286 32028590 47 15 38 1285
-0.57674092 -1.0678847 0.18701935 416 32028590 63 16 1 1228
-0.57575059 -1.1661466 0.18764141 366 32028590 63 17 18 1314
-0.54155809 -1.2060628 0.17799923 337 32028590 60 18 53 1334
-0.5040375 -1.2421963 0.16761735 251 32028590 46 19 68 1351
-0.60558331 -1.1212422 0.14891015 343 32028590 56 20 26 1283
-0.58827472 -1.1910423 0.14229341 285 32028590 51 21 35 1336
-0.5521903 -1.2281917 0.13130111 239 32028590 44 22 73 1353
-0.5074237 -1.2486023 0.11883915 204 32028590 37 23 79 1353
-0.6236124 -1.1540931 0.10503811 223 32028590 39 24 26 1316
-0.58209008 -1.1777439 0.092625953 241 32028590 42 25 51 1317
-0.57388204 -1.2763197 0.085272543 222 32028590 44 26 84 1402
-0.51623929 -1.2681364 0.070486099 207 32028590 39 27 78 1371
-0.63604134 -1.1757207 0.058106109 248 32028590 44 28 25 1338
-0.61906314 -1.2514516 0.047316898 156 32028590 30 29 3 1397
-0.55913234 -1.2403893 0.033560906 185 32028590 34 30 33 1361
-0.53053737 -1.3018929 0.021004885 196 32028590 39 31 46 1406
-0.65667385 -1.2137079 0.0096341399 168 32028590 32 32 25 1380
-0.61676943 -1.2456658 -0.0035177076 222 32028590 43 33 12 1390
-0.56023616 -1.242433 -0.01627118 186 32028590 35 34 62 1363
-0.52753609 -1.2921398 -0.029942039 189 32028590 37 35 36 1396
-0.65175635 -1.2032138 -0.040636975 192 32028590 36 36 79 1369
-0.6154362 -1.2406852 -0.054172389 201 32028590 39 37 18 1386
-0.5597223 -1.239907 -0.066224732 216 32028590 40 38 87 1362
-0.52410334 -1.2837956 -0.080658294 227 32028590 44 39 32 1389
-0.6544112 -1.2058525 -0.091054782 208 32028590 39 40 30 1375
-0.6111601 -1.2306616 -0.1041121 209 32028590 40 41 27 1378
-0.57100523 -1.26396 -0.11841623 202 32028590 39 42 102 1392
-0.53312975 -1.3038894 -0.13367958 244 32028590 49 43 43 1415
-0.6603995 -1.2158743 -0.14283952 201 32028590 39 44 41 1391
-0.63874584 -1.2849145 -0.1616624 171 32028590 36 45 18 1444
-0.58751214 -1.2986863 -0.17418344 210 32028590 43 46 91 1436
-0.54625106 -1.3350492 -0.1904695 206 32028590 44 47 82 1455
-0.68546265 -1.2595017 -0.20124736 205 32028590 43 48 39 1448
-0.6353482 -1.2766819 -0.21396255 156 32028590 32 49 6 1442
-0.5798431 -1.2799489 -0.22459298 191 32028590 39 50 66 1423
-0.54807907 -1.3384503 -0.24545759 222 32028590 48 51 80 1467
-0.95171219 -1.7450202 -0.35427359 340 32028590 138 52 50 2019
-0.90687299 -1.8199795 -0.3821215 302 32028590 129 53 60 2069
-0.85595518 -1.8878623 -0.4099831 293 32028590 131 54 55 2113
-0.79018211 -1.9297802 -0.43412092 307 32028590 139 55 36 2130
-0.96865475 -1.7737279 -0.43843073 342 32028590 146 56 80 2068
-0.91217124 -1.8282138 -0.46325266 314 32028590 138 57 39 2095
-0.8453691 -1.8635626 -0.48486617 311 32028590 137 58 46 2103
-0.79726803 -1.946601 -0.52057415 320 32028590 150 59 51 2167
-0.98818541 -1.8044716 -0.52796596 392 32028590 177 60 27 2124
-0.92945552 -1.8589557 -0.55425352 348 32028590 161 61 33 2151
-0.85626733 -1.8866242 -0.57441789 320 32028590 148 62 38 2150
-0.80070388 -1.9573271 -0.61003745 305 32028590 148 63 48 2201
-0.53068095 -0.96642101 0.34414157 703 32126270 94 0 35 1155
-0.51016426 -1.0192161 0.3420983 597 32126270 85 1 10 1190
-0.50626856 -1.114095 0.35434556 414 32126270 67 2 17 1274
-0.45680943 -1.1149213 0.33656591 374 32126270 59 3 23 1251
-0.54177022 -0.9878003 0.30434307 873 32126270 119 4 1 1167
-0.52773052 -1.0531619 0.30567887 652 32126270 97 5 1 1217
-0.5102613 -1.1217376 0.30698273 475 32126270 77 6 52 1270
-0.45134985 -1.0984256 0.28387627 376 32126270 56 7 40 1221
-0.55509782 -1.0125613 0.26610351 740 32126270 104 8 9 1185
-0.53469324 -1.0680808 0.26274639 651 32126270 97 9 11 1223
-0.51808876 -1.1373121 0.26236311 423 32126270 69 10 20 1277
-0.48924339 -1.1876957 0.25713786 371 32126270 64 11 7 1310
-0.56966543 -1.0395217 0.22743139 541 32126270 79 12 42 1207
-0.56817484 -1.1338743 0.23027685 452 32126270 75 13 8 1289
-0.52932233 -1.161381 0.21917397 327 32126270 55 14 56 1295
-0.50144649 -1.2164761 0.2136039 266 32126270 47 15 22 1333
-0.59468216 -1.085127 0.19067447 451 32126270 71 16 1 1252
-0.57757187 -1.1519747 0.18592779 350 32126270 59 17 33 1302
-0.53413397 -1.17026 0.17319565 315 32126270 53 18 59 1298
-0.51619458 -1.2500862 0.16910617 254 32126270 47 19 47 1363
-0.61245173 -1.1175052 0.14891015 318 32126270 52 20 26 1283
-0.59557176 -1.1874102 0.14229341 290 32126270 52 21 16 1336
-0.55971593 -1.2247804 0.13130111 257 32126270 47 22 73 1353
-0.52421206 -1.2675577 0.12094717 217 32126270 41 23 86 1377
-0.63643289 -1.1607335 0.10599589 249 32126270 44 24 17 1328
-0.60541421 -1.2062453 0.095157869 262 32126270 48 25 40 1353
-0.55680799 -1.2183048 0.081623219 187 32126270 34 26 88 1342
-0.51483768 -1.2428015 0.069252208 218 32126270 39 27 45 1347
-0.63747448 -1.1612866 0.057584979 251 32126270 44 28 1 1326
-0.60519624 -1.2047619 0.045691121 178 32126270 32 29 2 1349
-0.56173581 -1.2260292 0.033264998 170 32126270 31 30 12 1349
-0.54770792 -1.32078 0.021363433 176 32126270 36 31 38 1430
-0.64678407 -1.1780996 0.0093828142 172 32126270 31 32 25 1344
-0.62440109 -1.241858 -0.0035177076 216 32126270 42 33 22 1390
-0.5728485 -1.2498802 -0.016414434 196 32126270 37 34 81 1375
-0.53545457 -1.2888786 -0.029942039 187 32126270 37 35 58 1396
-0.63601649 -1.157146 -0.039212156 165 32126270 29 36 85 1321
-0.61224884 -1.2154677 -0.053234342 208 32126270 39 37 24 1362
-0.58731329 -1.2800246 -0.068558641 208 32126270 41 38 81 1410
-0.54116243 -1.3026818 -0.082051963 212 32126270 42 39 28 1413
-0.66179782 -1.2018144 -0.091054782 230 32126270 43 40 39 1375
-0.62408763 -1.2375727 -0.10501875 173 32126270 33 41 56 1390
-0.57875001 -1.2604326 -0.11841623 226 32126270 44 42 106 1392
-0.54570925 -1.3116235 -0.13481326 213 32126270 43 43 41 1427
-0.64480174 -1.1699831 -0.13791049 218 32126270 39 44 32 1343
-0.61975008 -1.2277451 -0.15494512 197 32126270 38 45 25 1384
-0.59049356 -1.2842346 -0.17272787 207 32126270 42 46 84 1424
-0.54528719 -1.3097067 -0.18732774 178 32126270 36 47 96 1431
-0.67594421 -1.2240636 -0.19624397 227 32126270 45 48 38 1412
-0.6378175 -1.2621679 -0.212182 163 32126270 33 49 16 1430
-0.60255343 -1.3086574 -0.23027489 190 32126270 40 50 51 1459
-0.54718059 -1.3132206 -0.24144192 175 32126270 37 51 69 1443
-0.95096141 -1.7184744 -0.35006231 339 32126270 135 52 43 1995
-0.91269869 -1.8038577 -0.37990525 292 32126270 123 53 56 2057
-0.86752278 -1.8825748 -0.4099831 291 32126270 130 54 58 2113
-0.79748976 -1.9140509 -0.43167514 285 32126270 128 55 39 2118
-0.9795199 -1.767751 -0.43843073 337 32126270 144 56 69 2068
-0.92866081 -1.8330221 -0.46590617 304 32126270 135 57 42 2107
-0.86167669 -1.8689443 -0.48763284 310 32126270 138 58 52 2115
-0.80023509 -1.920168 -0.51480871 311 32126270 143 59 57 2143
-0.99359339 -1.7882138 -0.52498311 365 32126270 163 60 29 2112
-0.93034685 -1.8325404 -0.54806936 337 32126270 152 61 35 2127
-0.88235837 -1.9128361 -0.58403605 317 32126270 151 62 54 2186
-0.80826783 -1.9417328 -0.60671145 314 32126270 150 63 51 2189
-0.54217589 -0.97315329 0.34771705 810 32224260 110 0 8 1167
-0.51640844 -1.0160666 0.3420983 621 32224260 88 1 4 1190
-0.51309496 -1.1109675 0.35434556 413 32224260 67 2 31 1274
-0.45919445 -1.1014299 0.33333749 373 32224260 57 3 5 1239
-0.53655475 -0.96421152 0.29808408 928 32224260 121 4 27 1143
-0.52364826 -1.0291992 0.29965073 763 32224260 109 5 1 1193
-0.51224822 -1.1080163 0.3040821 460 32224260 73 6 49 1258
-0.47158724 -1.1279392 0.29224607 409 32224260 65 7 46 1257
-0.55561632 -0.99891722 0.26340878 767 32224260 106 8 6 1173
-0.54123682 -1.0647799 0.26274639 659 32224260 99 9 1 1223
-0.51518947 -1.1127971 0.25743222 455 32224260 71 10 41 1253
-0.47832859 -1.1412636 0.24771601 392 32224260 62 11 16 1262
-0.58748698 -1.0566067 0.23195365 569 32224260 86 12 24 1231
-0.55370504 -1.088274 0.22170176 486 32224260 75 13 28 1241
-0.53146762 -1.1473798 0.21714301 350 32224260 58 14 69 1283
-0.50431997 -1.2024533 0.21168099 310 32224260 54 15 40 1321
-0.59556556 -1.0710922 0.1888469 440 32224260 68 16 1 1240
-0.5792411 -1.1378248 0.18421417 368 32224260 61 17 32 1290
-0.55631757 -1.1993262 0.17799923 301 32224260 53 18 48 1334
-0.51924318 -1.2359176 0.16761735 242 32224260 44 19 49 1351
-0.62508941 -1.124143 0.15030292 334 32224260 56 20 20 1295
-0.60826117 -1.1943659 0.14357148 276 32224260 50 21 28 1348
-0.5521282 -1.1888267 0.1278075 294 32224260 51 22 46 1317
-0.51807177 -1.2312634 0.11778515 224 32224260 40 23 94 1341
-0.62609762 -1.1254473 0.10312251 287 32224260 48 24 24 1292
-0.61280417 -1.2025079 0.095157869 272 32224260 50 25 20 1353
-0.56931859 -1.2257286 0.082353085 199 32224260 37 26 73 1354
-0.53641677 -1.2727492 0.071103044 166 32224260 32 27 59 1383
-0.65042138 -1.167827 0.058106109 245 32224260 44 28 1 1338
-0.6071279 -1.1903419 0.045284674 186 32224260 33 29 1 1337
-0.56418425 -1.211684 0.032969087 192 32224260 34 30 36 1337
-0.55113775 -1.3063394 0.021184159 184 32224260 37 31 56 1418
-0.67151845 -1.2055582 0.0096341399 170 32224260 32 32 43 1380
-0.61018443 -1.1952521 -0.0033962326 179 32224260 32 33 27 1342
-0.57544059 -1.2354645 -0.01627118 175 32224260 32 34 56 1363
-0.5433529 -1.2855688 -0.029942039 204 32224260 40 35 44 1396
-0.66647255 -1.1951252 -0.040636975 185 32224260 35 36 69 1369
-0.62515515 -1.2223638 -0.053703364 195 32224260 37 37 9 1374
-0.58502597 -1.2546709 -0.067391686 211 32224260 41 38 93 1386
-0.53515434 -1.2662327 -0.079961464 205 32224260 39 39 51 1377
-0.66331959 -1.1872782 -0.090260118 214 32224260 40 40 36 1363
-0.64257598 -1.2550216 -0.10683202 187 32224260 37 41 38 1414
-0.57636136 -1.2351876 -0.11637457 226 32224260 42 42 122 1368
-0.53977716 -1.275246 -0.13141222 219 32224260 42 43 48 1391
-0.66944492 -1.1972603 -0.14160727 184 32224260 35 44 39 1379
-0.64902681 -1.2663673 -0.16031894 189 32224260 39 45 8 1432
-0.58827764 -1.2590044 -0.16981673 218 32224260 43 46 83 1400
-0.53939331 -1.2734723 -0.1826151 184 32224260 36 47 88 1395
-0.67763394 -1.2095258 -0.19457619 213 32224260 42 48 33 1400
-0.65638441 -1.2793478 -0.21574311 175 32224260 37 49 25 1454
-0.60554999 -1.2942026 -0.2283809 209 32224260 44 50 52 1447
-0.57369715 -1.3534089 -0.24947324 199 32224260 44 51 65 1491
-0.96727133 -1.7229085 -0.35216796 342 32224260 138 52 37 2007
-0.91836083 -1.7877331 -0.37768897 316 32224260 132 53 52 2045
-0.86907309 -1.8558942 -0.40532637 289 32224260 126 54 69 2089
-0.80921912 -1.9091215 -0.43167514 281 32224260 126 55 41 2118
-1.0075883 -1.7923756 -0.44606298 341 32224260 151 56 65 2104
-0.92383164 -1.7960685 -0.45794573 310 32224260 133 57 44 2071
-0.87808204 -1.8741957 -0.49039957 294 32224260 133 58 42 2127
-0.80745506 -1.9044971 -0.511926 326 32224260 148 59 59 2131
-1.0102546 -1.7922091 -0.52796596 371 32224260 167 60 24 2124
-0.94157356 -1.8267974 -0.54806936 324 32224260 146 61 32 2127
-0.88917065 -1.8969154 -0.58082998 310 32224260 146 62 48 2174
-0.81567067 -1.9261196 -0.60338545 292 32224260 138 63 43 2177
-0.53686404 -0.94986355 0.34056604 839 32322800 110 0 21 1143
-0.51736295 -1.0026649 0.33864856 617 32322800 86 1 1 1178
-0.51990211 -1.1077983 0.35434556 434 32322800 70 2 25 1274
-0.47045681 -1.1092317 0.33656591 389 32322800 61 3 23 1251
-0.53107077 -0.94072479 0.29182512 1086 32322800 136 4 21 1119
-0.52995348 -1.0259669 0.29965073 735 32322800 105 5 1 1193
-0.51903719 -1.1048522 0.3040821 538 32322800 85 6 54 1258
-0.48306727 -1.1357645 0.29503602 424 32322800 68 7 33 1269
-0.55598837 -0.98530507 0.26071405 811 32322800 109 8 8 1161
-0.54238546 -1.0510241 0.26016834 639 32322800 94 9 14 1211
-0.52700704 -1.120242 0.25989768 464 32322800 74 10 15 1265
-0.47147787 -1.1058357 0.24064963 438 32322800 66 11 15 1226
-0.5823791 -1.0324527 0.22743139 578 32322800 84 12 43 1207
-0.57120931 -1.1058364 0.22598931 510 32322800 82 13 1 1265
-0.5435344 -1.1547979 0.21917397 355 32322800 60 14 66 1295
-0.49774399 -1.1666517 0.20591225 325 32322800 54 15 38 1285
-0.61378056 -1.0880774 0.19250201 491 32322800 78 16 1 1264
-0.59711796 -1.1553514 0.18764141 399 32322800 69 17 20 1314
-0.55859554 -1.1851324 0.17639802 338 32322800 59 18 55 1322
-0.52213752 -1.221759 0.16612852 255 32322800 46 19 39 1339
-0.63783139 -1.1306673 0.15169568 339 32322800 58 20 10 1307
-0.6100983 -1.1800122 0.14229341 318 32322800 57 21 14 1336
-0.56450945 -1.1962177 0.12897204 287 32322800 51 22 68 1329
-0.54443097 -1.2720188 0.12200117 206 32322800 40 23 79 1389
-0.66238737 -1.1736705 0.10791149 286 32322800 52 24 11 1352
-0.62567151 -1.2093568 0.096001841 271 32322800 50 25 21 1365
-0.58194101 -1.2330443 0.083082952 213 32322800 40 26 75 1366
-0.5442161 -1.2694339 0.071103044 195 32322800 37 27 75 1383
-0.64577967 -1.1429385 0.057063844 206 32322800 36 28 13 1314
-0.6419934 -1.2398447 0.047316898 203 32322800 40 29 1 1397
-0.58699948 -1.2407314 0.033856813 167 32322800 31 30 27 1373
-0.55441105 -1.2919068 0.021004885 168 32322800 33 31 52 1406
-0.67890298 -1.2014151 0.0096341399 159 32322800 30 32 39 1380
-0.62302858 -1.2021397 -0.0034266014 189 32322800 35 33 33 1354
-0.57787752 -1.2210646 -0.016127925 188 32322800 34 34 80 1351
-0.55596918 -1.2932326 -0.030199422 195 32322800 39 35 29 1408
-0.6796993 -1.2014531 -0.040993176 190 32322800 36 36 99 1381
-0.63816887 -1.2291468 -0.054172389 212 32322800 41 37 18 1386
-0.60810864 -1.2835526 -0.069142118 219 32322800 44 38 90 1422
-0.55710757 -1.2959429 -0.082051963 216 32322800 43 39 32 1413
-0.65878421 -1.162352 -0.088670805 211 32322800 38 40 26 1339
-0.63370901 -1.2192037 -0.1041121 192 32322800 36 41 46 1378
-0.59417391 -1.2532355 -0.11841623 200 32322800 39 42 115 1392
-0.54759175 -1.2719101 -0.13141222 228 32322800 44 43 43 1391
-0.67088932 -1.1827475 -0.14037502 211 32322800 39 44 50 1367
-0.65128112 -1.2517827 -0.1589755 197 32322800 40 45 16 1420
-0.60110015 -1.2661314 -0.17127229 222 32322800 44 46 69 1412
-0.55661118 -1.2919905 -0.18575685 215 32322800 43 47 98 1419
-0.67329907 -1.184682 -0.19124059 210 32322800 40 48 39 1376
-0.6587401 -1.264771 -0.21396255 177 32322800 37 49 8 1442
-0.61856735 -1.3011646 -0.23027489 181 32322800 38 50 45 1459
-0.57262272 -1.3281353 -0.24545759 165 32322800 36 51 75 1467
-0.97782469 -1.716941 -0.35216796 316 32322800 127 52 39 2007
-0.91840655 -1.7611504 -0.37325647 315 32322800 129 53 59 2021
-0.88044429 -1.8505268 -0.40532637 283 32322800 123 54 54 2089
-0.81626701 -1.8933322 -0.42922941 308 32322800 136 55 39 2106
-1.0011392 -1.7555977 -0.43843073 353 32322800 151 56 83 2068
-0.95108491 -1.821488 -0.46590617 306 32322800 136 57 57 2107
-0.87450922 -1.8371432 -0.48209944 292 32322800 127 58 40 2091
-0.82373828 -1.9102033 -0.51480871 323 32322800 148 59 54 2143
-1.0212325 -1.7859766 -0.52796596 398 32322800 180 60 25 2124
-0.95276487 -1.8209856 -0.54806936 343 32322800 155 61 32 2127
-0.89582103 -1.8809838 -0.57762396 315 32322800 147 62 30 2162
-0.82747376 -1.9210784 -0.60338545 316 32322800 150 63 38 2177
-0.53698474 -0.93661404 0.33699057 892 32419730 114 0 45 1131
-0.5341711 -1.0198343 0.345548 680 32419730 98 1 7 1202
-0.51676768 -1.0837789 0.34767029 477 32419730 74 2 27 1250
-0.48183206 -1.1169363 0.33979437 436 32419730 70 3 31 1263
-0.51380527 -0.89723623 0.27930716 1257 32419730 144 4 73 1071
-0.53084487 -1.0124089 0.29663664 838 32419730 117 5 1 1181
-0.51577544 -1.0806297 0.29828086 526 32419730 80 6 44 1234
-0.4900271 -1.132779 0.29503602 437 32419730 70 7 31 1269
-0.56202364 -0.98187506 0.26071405 907 32419730 122 8 1 1161
-0.54882419 -1.0476763 0.26016834 644 32419730 94 9 18 1211
-0.52880639 -1.1063912 0.25743222 517 32419730 81 10 31 1253
-0.50634098 -1.1676939 0.25478241 365 32419730 61 11 16 1298
-0.58870316 -1.0288599 0.22743139 594 32419730 87 12 6 1207
-0.58346665 -1.1127673 0.22813308 521 32419730 85 13 5 1277
-0.54040551 -1.1301017 0.21511205 389 32419730 63 14 54 1271
-0.5190379 -1.1961739 0.21168099 329 32419730 57 15 38 1321
-0.60277438 -1.0534092 0.18701935 456 32419730 69 16 2 1228
-0.59867805 -1.1411483 0.18592779 397 32419730 67 17 26 1302
-0.57612962 -1.2031353 0.17960042 357 32419730 65 18 54 1346
-0.52013135 -1.1966914 0.16315086 263 32419730 45 19 57 1315
-0.62107813 -1.0853528 0.14612462 340 32419730 54 20 33 1259
-0.60069263 -1.1445513 0.13845915 317 32419730 54 21 13 1300
-0.5821653 -1.2142705 0.13130111 276 32419730 50 22 54 1353
-0.54745483 -1.257694 0.12094717 218 32419730 41 23 74 1377
-0.65174741 -1.1384413 0.10503811 283 32419730 49 24 16 1316
-0.63308018 -1.205495 0.096001841 254 32419730 47 25 41 1365
-0.58431727 -1.2186499 0.082353085 233 32419730 43 26 75 1354
-0.55199492 -1.2660707 0.071103044 166 32419730 32 27 55 1383
-0.646819 -1.1285532 0.056542717 246 32419730 42 28 17 1302
-0.63842911 -1.21465 0.046504006 194 32419730 37 29 14 1373
-0.58420783 -1.2154818 0.033264998 164 32419730 30 30 24 1349
-0.55272889 -1.2664868 0.020646339 157 32419730 30 31 37 1382
-0.6743269 -1.1764054 0.0094665894 174 32419730 32 32 31 1356
-0.62480605 -1.1876742 -0.0033962326 179 32419730 32 33 29 1342
-0.6113556 -1.2715666 -0.016844191 215 32419730 43 34 51 1411
-0.54947615 -1.2568191 -0.029427277 192 32419730 36 35 51 1372
-0.67511833 -1.1764531 -0.040280771 174 32419730 32 36 71 1357
-0.62333691 -1.1827766 -0.052296288 205 32419730 37 37 32 1338
-0.60557681 -1.2581973 -0.067975163 208 32419730 41 38 73 1398
-0.56504881 -1.2925001 -0.082051963 195 32419730 39 39 30 1413
-0.68977493 -1.1998098 -0.091849439 214 32419730 41 40 56 1387
-0.64676154 -1.2258755 -0.10501875 200 32419730 39 41 51 1390
-0.61222917 -1.2711103 -0.12045789 212 32419730 42 42 118 1416
-0.55538571 -1.2685262 -0.13141222 220 32419730 43 43 35 1391
-0.6781339 -1.1786088 -0.14037502 205 32419730 38 44 50 1367
-0.66451818 -1.2583075 -0.16031894 182 32419730 37 45 29 1432
-0.61403209 -1.2731479 -0.17272787 197 32419730 40 46 90 1424
-0.57407624 -1.3103446 -0.18889862 210 32419730 44 47 97 1443
-0.69242567 -1.2011191 -0.19457619 217 32419730 42 48 25 1400
-0.66648817 -1.2607052 -0.21396255 174 32419730 36 49 18 1442
-0.62653947 -1.2973447 -0.23027489 193 32419730 41 50 70 1459
-0.5855118 -1.3354318 -0.24746542 185 32419730 41 51 59 1479
-0.98834121 -1.7109089 -0.35216796 266 32419730 107 52 52 2007
-0.94022995 -1.7763288 -0.37768897 293 32419730 122 53 56 2045
-0.89178234 -1.8450897 -0.40532637 256 32419730 112 54 63 2089
-0.82786894 -1.8882881 -0.42922941 302 32419730 134 55 48 2106
-1.0118924 -1.7494217 -0.43843073 345 32419730 148 56 69 2068
-0.95128292 -1.794937 -0.46059921 293 32419730 127 57 43 2083
-0.90101516 -1.8632792 -0.49039957 285 32419730 129 58 40 2127
-0.82140905 -1.8731092 -0.5061605 346 32419730 153 59 46 2107
-1.0088459 -1.7394583 -0.5160346 372 32419730 160 60 18 2076
-0.9639203 -1.8151052 -0.54806936 345 32419730 156 61 32 2127
-0.8972733 -1.8546325 -0.57121181 324 32419730 148 62 45 2138
-0.84849793 -1.9370874 -0.61003745 300 32419730 145 63 44 2201
-0.5599966 -0.9630087 0.34771705 755 32519140 103 0 13 1167
-0.53502345 -1.006389 0.3420983 740 32519140 105 1 13 1190
-0.52340788 -1.0805876 0.34767029 502 32519140 78 2 37 1250
-0.48867637 -1.1139588 0.33979437 458 32519140 73 3 36 1263
-0.50184542 -0.86401403 0.26991865 1448 32519140 155 4 149 1035
-0.54250377 -1.0193863 0.29965073 839 32519140 119 5 1 1193
-0.53255635 -1.0983996 0.3040821 530 32519140 84 6 48 1258
-0.50166792 -1.1404341 0.29782593 416 32519140 68 7 39 1281
-0.56216657 -0.96829534 0.25801933 979 32519140 129 8 19 1149
-0.53873628 -1.013245 0.25243419 671 32519140 93 9 1 1175
-0.53558511 -1.1031257 0.25743222 485 32519140 76 10 32 1253
-0.50400174 -1.1430322 0.25007147 367 32519140 60 11 19 1274
-0.58317399 -1.0048426 0.22290915 648 32519140 91 12 21 1183
-0.57918966 -1.0883205 0.22384553 518 32519140 81 13 1 1253
-0.55249709 -1.1374028 0.21714301 393 32519140 65 14 76 1283
-0.52158618 -1.1821296 0.20975806 340 32519140 58 15 27 1309
-0.6270867 -1.0804635 0.19250201 465 32519140 74 16 1 1264
-0.61125094 -1.1479368 0.18764141 400 32519140 69 17 26 1314
-0.56789476 -1.1674938 0.17479683 350 32519140 60 18 55 1310
-0.54190439 -1.2261505 0.16761735 268 32519140 49 19 52 1351
-0.63370907 -1.0918299 0.14751737 337 32519140 54 20 18 1271
-0.60770416 -1.140844 0.13845915 320 32519140 54 21 23 1300
-0.57914639 -1.1892002 0.12897204 263 32519140 46 22 49 1329
-0.54548556 -1.2324495 0.11883915 224 32519140 41 23 77 1353
-0.67674023 -1.1654536 0.10791149 280 32519140 51 24 22 1352
-0.63483459 -1.1910244 0.095157869 255 32519140 47 25 15 1353
-0.59178376 -1.2150416 0.082353085 231 32519140 42 26 79 1354
-0.559753 -1.2626599 0.071103044 198 32519140 38 27 60 1383
-0.67180705 -1.1556571 0.058106109 215 32519140 39 28 1 1338
-0.65151495 -1.2212915 0.046910454 193 32519140 37 29 1 1385
-0.59691793 -1.2226545 0.033560906 217 32519140 40 30 38 1361
-0.55075592 -1.2411368 0.020287791 184 32519140 34 31 45 1358
-0.67550129 -1.1618719 0.0093828142 177 32519140 32 32 37 1344
-0.63773376 -1.1944036 -0.0034266014 181 32519140 33 33 19 1354
-0.61388069 -1.2570094 -0.016700938 200 32519140 39 34 59 1399
-0.57179731 -1.2863126 -0.030199422 201 32519140 40 35 33 1408
-0.70042557 -1.2033882 -0.041349381 189 32519140 37 36 73 1393
-0.64754891 -1.2106496 -0.053703364 186 32519140 35 37 16 1374
-0.63434255 -1.2975293 -0.070309073 194 32519140 41 38 75 1446
-0.55350488 -1.2452207 -0.079264633 227 32519140 42 39 62 1365
-0.67299843 -1.1541802 -0.088670805 194 32519140 35 40 49 1339
-0.66556793 -1.2429812 -0.10683202 195 32519140 39 41 52 1414
-0.60425389 -1.2351097 -0.11739541 230 32519140 44 42 116 1380
-0.56801713 -1.2760084 -0.1325459 213 32519140 42 43 46 1403
-0.72746676 -1.2465922 -0.14900084 232 32519140 49 44 33 1451
-0.65532696 -1.2226759 -0.15628858 207 32519140 40 45 15 1396
-0.62183237 -1.2693564 -0.17272787 191 32519140 39 46 81 1424
-0.57242399 -1.2850628 -0.18575685 169 32519140 34 47 87 1419
-0.67579001 -1.1558131 -0.187905 197 32519140 36 48 24 1352
-0.65737927 -1.2252208 -0.20862091 174 32519140 34 49 19 1406
-0.61361384 -1.2509214 -0.222699 183 32519140 36 50 80 1411
-0.57924384 -1.2993966 -0.24144192 176 32519140 37 51 66 1443
-1.0167365 -1.7353917 -0.35848483 49 32519140 21 52 64 2043
-0.95111156 -1.7705262 -0.37768897 315 32519140 132 53 50 2045
-0.89789921 -1.8290159 -0.40299803 274 32519140 118 54 60 2077
-0.84422272 -1.893903 -0.43167514 309 32519140 138 55 45 2118
-1.004806 -1.7128345 -0.43079847 347 32519140 143 56 84 2032
-0.97890937 -1.8199863 -0.46855965 310 32519140 139 57 56 2119
-0.90213567 -1.8367541 -0.48486617 311 32519140 137 58 48 2103
-0.84237379 -1.8893119 -0.511926 342 32519140 155 59 57 2131
-1.0195 -1.7332354 -0.5160346 393 32519140 169 60 26 2076
-0.97503942 -1.8091565 -0.54806936 370 32519140 167 61 40 2127
-0.91373616 -1.8594705 -0.57441789 321 32519140 148 62 51 2150
-0.84160453 -1.8897144 -0.59673357 286 32519140 132 63 35 2153
-0.57171392 -0.96942139 0.35129255 743 32618160 103 0 11 1179
-0.53573114 -0.99297208 0.33864856 778 32618160 108 1 1 1178
-0.51985186 -1.0566705 0.34099501 537 32618160 81 2 31 1226
-0.49550229 -1.1109394 0.33979437 451 32618160 72 3 12 1263
-0.5012576 -0.85093677 0.26678914 1534 32618160 160 4 272 1023
-0.537709 -0.99559826 0.29362252 884 32618160 121 5 1 1169
-0.53414178 -1.0846651 0.30118147 594 32618160 92 6 59 1246
-0.49436125 -1.105372 0.28945613 487 32618160 75 7 53 1245
-0.56809735 -0.96482772 0.25801933 1072 32618160 142 8 20 1149
-0.55050868 -1.0202343 0.25501224 671 32618160 95 9 11 1187
-0.53714967 -1.0892857 0.2549668 625 32618160 96 10 38 1241
-0.52063227 -1.1613923 0.25478241 425 32618160 72 11 13 1298
-0.59530652 -1.0114018 0.22517027 648 32618160 93 12 19 1195
-0.59146738 -1.0951349 0.22598931 547 32618160 88 13 1 1265
-0.55946565 -1.1339914 0.21714301 435 32618160 71 14 46 1283
-0.52882975 -1.178907 0.20975806 354 32618160 61 15 44 1309
-0.62167215 -1.0561537 0.1888469 498 32618160 77 16 5 1240
-0.5956974 -1.1023687 0.18078694 432 32618160 69 17 17 1266
-0.58031529 -1.1746497 0.17639802 338 32618160 59 18 42 1322
-0.54453766 -1.2119411 0.16612852 272 32618160 49 19 62 1339
-0.65248901 -1.108464 0.15030292 341 32618160 57 20 31 1295
-0.626041 -1.1580862 0.14101532 320 32618160 56 21 41 1324
-0.58643228 -1.1856242 0.12897204 282 32618160 50 22 60 1329
-0.56284744 -1.2508812 0.12094717 239 32618160 45 23 85 1377
-0.65959883 -1.1200503 0.1040803 288 32618160 49 24 11 1304
-0.62504512 -1.1555207 0.092625953 283 32618160 49 25 38 1317
-0.59391725 -1.2006515 0.081623219 250 32618160 45 26 79 1342
-0.57241404 -1.2701274 0.071719989 191 32618160 37 27 69 1395
-0.66670805 -1.1308582 0.057063844 221 32618160 38 28 15 1314
-0.6589964 -1.2172709 0.046910454 213 32618160 41 29 1 1385
-0.60440874 -1.2189687 0.033560906 183 32618160 34 30 34 1361
-0.56329507 -1.2486713 0.020467065 176 32618160 33 31 59 1370
-0.68871248 -1.1680418 0.0094665894 187 32618160 34 32 22 1356
-0.66220099 -1.2221202 -0.0035177076 185 32618160 36 33 28 1390
-0.61091876 -1.23172 -0.016414434 171 32618160 32 34 51 1375
-0.57967919 -1.2827799 -0.030199422 188 32618160 37 35 62 1408
-0.68950438 -1.1680799 -0.040280771 197 32618160 36 36 68 1357
-0.67784601 -1.2488073 -0.055579465 199 32618160 40 37 18 1422
-0.63696182 -1.2828772 -0.069725595 202 32618160 42 38 58 1434
-0.57100111 -1.2636349 -0.080658294 193 32618160 37 39 28 1389
-0.68616235 -1.1603354 -0.089465462 207 32618160 38 40 52 1351
-0.6674692 -1.2283602 -0.10592538 204 32618160 40 41 57 1402
-0.6065008 -1.2206711 -0.11637457 215 32618160 40 42 117 1368
-0.57583588 -1.2724991 -0.1325459 200 32618160 39 43 32 1403
-0.67430794 -1.1393811 -0.13667823 207 32618160 37 44 40 1331
-0.66851443 -1.2291074 -0.15763204 171 32618160 34 45 24 1408
-0.61899793 -1.2441881 -0.16981673 182 32618160 36 46 89 1400
-0.59011298 -1.3032012 -0.18889862 202 32618160 42 47 86 1443
-0.76772279 -1.2947485 -0.21125415 190 32618160 44 48 16 1520
-0.67055941 -1.2315866 -0.21040146 161 32618160 32 49 11 1418
-0.63184524 -1.2683456 -0.22648695 236 32618160 48 50 56 1435
-0.58232266 -1.285042 -0.23943409 202 32618160 41 51 58 1431
-1.0273656 -1.7291205 -0.35848483 307 32618160 128 52 48 2043
-0.95066798 -1.7439471 -0.37325647 319 32618160 130 53 51 2021
-0.90910494 -1.823472 -0.40299803 297 32618160 128 54 63 2077
-0.84128094 -1.856585 -0.42433789 316 32618160 137 55 37 2082
-1.0332844 -1.7368726 -0.43843073 335 32618160 143 56 61 2068
-0.97323793 -1.7831281 -0.46059921 309 32618160 134 57 36 2083
-0.9081769 -1.8207351 -0.48209944 330 32618160 144 58 48 2091
-0.85395056 -1.8841076 -0.511926 342 32618160 155 59 46 2131
-1.0420246 -1.7469119 -0.52200031 373 32618160 164 60 29 2100
-0.98612183 -1.8031398 -0.54806936 344 32618160 155 61 40 2127
-0.92512846 -1.8538289 -0.57441789 315 32618160 145 62 57 2150
-0.88171566 -1.9475362 -0.61668932 325 32618160 161 63 42 2225
-0.56589264 -0.94623321 0.34414157 828 32716300 110 0 1 1155
-0.54181379 -0.98966622 0.33864856 872 32716300 121 1 1 1178
-0.53147733 -1.0637721 0.34433267 586 32716300 90 2 31 1238
-0.4927645 -1.0868258 0.33333749 496 32716300 76 3 7 1239
-0.51835138 -0.86773592 0.27304813 1395 32716300 153 4 130 1047
-0.52147859 -0.95153648 0.28156617 1081 32716300 136 5 1 1121
-0.53557891 -1.0709529 0.29828086 629 32716300 96 6 56 1234
-0.48664379 -1.0704436 0.28108633 469 32716300 69 7 33 1209
-0.55002731 -0.9211641 0.24724047 1251 32716300 152 8 14 1101
-0.55675834 -1.0168372 0.25501224 720 32716300 101 9 8 1187
-0.5438233 -1.0859693 0.2549668 640 32716300 99 10 12 1241
-0.51799053 -1.1367613 0.25007147 445 32716300 72 11 6 1274
-0.59546101 -0.99761057 0.22290915 704 32716300 99 12 15 1183
-0.5925014 -1.081131 0.22384553 633 32716300 99 13 17 1253
-0.55581772 -1.1093892 0.21308109 440 32716300 70 14 62 1259
-0.53113931 -1.1648625 0.20783515 365 32716300 61 15 45 1297
-0.63421971 -1.0625031 0.19067447 498 32716300 78 16 1 1252
-0.60245019 -1.0986929 0.18078694 443 32716300 71 17 9 1266
-0.57684606 -1.149807 0.17319565 393 32716300 66 18 56 1298
-0.54701704 -1.1977459 0.16463968 263 32716300 46 19 47 1327
-0.66538721 -1.1146736 0.15169568 370 32716300 63 20 1 1307
-0.6273967 -1.1437618 0.13973723 359 32716300 62 21 17 1312
-0.59905678 -1.1926763 0.13013656 310 32716300 56 22 56 1341
-0.55559677 -1.2147923 0.11778515 236 32716300 43 23 79 1341
-0.678725 -1.1365216 0.10599589 282 32716300 50 24 18 1328
-0.64364284 -1.1726508 0.094313897 300 32716300 54 25 32 1341
-0.60664964 -1.2076881 0.082353085 244 32716300 45 26 75 1354
-0.56023288 -1.2230096 0.069252208 203 32716300 37 27 65 1347
-0.69209003 -1.1576158 0.058627237 240 32716300 44 28 13 1350
-0.64335573 -1.1711583 0.045284674 207 32716300 37 29 8 1337
-0.60648191 -1.2045225 0.033264998 175 32716300 32 30 18 1349
-0.59095007 -1.2888186 0.021184159 187 32716300 38 31 34 1418
-0.67739213 -1.1328968 0.0092152636 183 32716300 32 32 23 1320
