# .PCD v0.7 - Point Cloud Data file format
VERSION 0.7
FIELDS x y z intensity t reflectivity ring noise range
SIZE 4 4 4 4 4 2 1 2 4
TYPE F F F F U U U U U
COUNT 1 1 1 1 1 1 1 1 1
WIDTH 779
HEIGHT 1
VIEWPOINT 0 0 0 1 0 0 0
POINTS 779
DATA ascii
13.600657 6.2008462 -4.3118362 365 94027090 8843 63 68 15557
9.3725815 3.0427594 3.0758212 586 94124310 6247 0 89 10323
9.4959011 3.4877441 3.0363379 325 94124310 3625 1 124 10562
9.641058 3.957969 3.0177782 106 94124310 1254 2 59 10850
9.6693974 4.4020643 2.9677527 316 94124310 3841 3 42 11031
9.7085772 3.1572711 2.7578645 357 94124310 3995 4 91 10575
9.8625584 3.6175303 2.7259927 102 94124310 1207 5 60 10853
9.9097881 4.0638456 2.6680908 312 94124310 3805 6 86 11038
0 0 0 5 94124310 0 7 79 0
10.093796 3.2846892 2.4461312 50 94124310 596 8 91 10893
10.120404 3.7165163 2.3715925 325 94124310 3964 9 85 11039
10.242422 4.1937814 2.3234646 74 94124310 942 10 42 11309
10.012562 4.5355268 2.2003934 21 94124310 260 11 34 11210
10.327295 3.3624678 2.0838144 398 94124310 4865 12 137 11059
10.424346 3.8235908 2.0160391 170 94124310 2171 13 62 11285
10.572742 4.3266621 1.9617339 246 94124310 3305 14 115 11591
10.413984 4.7142982 1.855774 28 94124310 382 15 60 11581
10.683446 3.4782209 1.7312998 307 94124310 3962 16 48 11368
10.755638 3.9423385 1.6527867 166 94124310 2228 17 75 11574
10.87888 4.4450717 1.582245 481 94124310 6767 18 84 11858
10.943696 4.9460402 1.5016083 43 94124310 630 19 117 12103
11.071828 3.6044531 1.3606186 52 94124310 717 20 95 11723
11.140059 4.0812583 1.270842 377 94124310 5370 21 95 11932
11.265525 4.5968595 1.186368 498 94124310 7449 22 72 12225
11.121531 5.0191689 1.0758764 274 94124310 4110 23 125 12249
11.371072 3.6994581 0.95747495 262 94124310 3775 24 82 11996
11.507783 4.2125602 0.86401659 534 94124310 8061 25 102 12285
11.432162 4.6643896 0.75236905 20 94124310 306 26 113 12370
11.005397 4.9588985 0.62141901 209 94124310 3055 27 98 12087
11.750086 3.8164175 0.53702551 489 94124310 7480 28 103 12366
11.921678 4.3593526 0.43018746 487 94124310 7848 29 54 12701
11.916342 4.8488426 0.31733671 30 94124310 489 30 55 12869
11.818357 5.3199987 0.19364533 75 94124310 1264 31 86 12962
12.166257 3.9508853 0.089304291 529 94124310 8656 32 119 12792
12.340557 4.5073953 -0.033248663 527 94124310 9098 33 106 13138
12.366155 5.0301137 -0.15938115 27 94124310 486 34 86 13351
12.796151 5.7502146 -0.30096468 412 94124310 8112 35 111 14032
12.335222 3.9990923 -0.38508654 46 94124310 771 36 135 12973
12.837683 4.6783075 -0.53445405 537 94124310 10046 37 84 13674
13.05316 5.3031917 -0.68587816 494 94124310 9821 38 166 14106
13.295524 5.9748964 -0.84787029 480 94124310 10241 39 74 14601
13.097119 4.2347355 -0.91352779 525 94124310 9989 40 123 13795
13.367616 4.8645554 -1.0778399 323 94124310 6574 41 113 14266
13.582183 5.5137029 -1.2515371 404 94124310 8754 42 179 14712
13.819331 6.2013063 -1.4374099 396 94124310 9176 43 70 15215
13.607029 4.3943605 -1.4761454 446 94124310 9217 44 112 14375
13.665421 4.9667177 -1.6381193 17 94124310 370 45 85 14632
14.181439 5.7483244 -1.8699248 439 94124310 10429 46 139 15416
13.951627 6.256578 -2.0189767 315 94124310 7487 47 143 15423
14.226106 4.5811324 -2.0975313 473 94124310 10774 48 112 15092
14.235787 5.1669869 -2.2722764 14 94124310 338 49 69 15314
14.834887 6.0041518 -2.557961 398 94124310 10464 50 73 16207
14.113599 6.3244805 -2.6247396 313 94124310 7710 51 80 15687
14.873147 4.7748871 -2.7841797 390 94124310 9823 52 95 15867
15.172956 5.4984498 -3.032778 286 94124310 7712 53 115 16421
15.563521 6.293364 -3.3204167 392 94124310 11487 54 89 17113
13.481455 6.0414915 -3.0755327 478 94124310 10895 55 60 15090
15.582954 4.993166 -3.5498474 349 94124310 9779 56 138 16744
15.93045 5.7635193 -3.8411274 300 94124310 9061 57 81 17371
15.88446 6.4195933 -4.0594568 241 94124310 7482 58 74 17607
13.66631 6.1228995 -3.7059982 439 94124310 10453 59 88 15427
16.421476 5.2406826 -4.4235797 21 94124310 656 60 34 17796
16.842283 6.0774617 -4.7749286 281 94124310 9633 61 57 18531
16.213686 6.5490265 -4.8480868 177 94124310 5842 62 66 18146
13.817289 6.1974936 -4.3683777 362 94124310 9002 63 69 15761
9.3474083 2.9713125 3.0615191 600 94221390 6336 0 95 10275
9.4846849 3.4177241 3.0259888 392 94221390 4344 1 113 10526
9.6224041 3.88149 3.0044274 87 94221390 1021 2 59 10802
9.6540346 4.3237548 2.954839 324 94221390 3903 3 48 10983
9.6725731 3.0800657 2.7422171 430 94221390 4757 4 87 10515
9.8080645 3.5294166 2.7048938 54 94221390 621 5 49 10769
9.9129362 3.9942603 2.6622896 348 94221390 4223 6 100 11014
10.057062 4.4920416 2.6330047 76 94221390 979 7 73 11325
10.102619 3.2191427 2.4434364 27 94221390 323 8 84 10881
10.120966 3.6464036 2.3664362 345 94221390 4189 9 88 11015
10.22438 4.1133232 2.3136027 127 94221390 1604 10 56 11261
0 0 0 6 94221390 0 11 48 0
10.336504 3.2954576 2.0815532 340 94221390 4149 12 123 11047
10.447611 3.7595561 2.0160391 235 94221390 2997 13 81 11285
10.544226 4.2396469 1.9515791 193 94221390 2568 14 98 11531
10.485997 4.6695848 1.8634658 39 94221390 532 15 78 11629
10.636788 3.3909891 1.7203344 375 94221390 4791 16 60 11296
10.835507 3.8963637 1.6613549 98 94221390 1327 17 114 11634
10.872839 4.364944 1.5774413 442 94221390 6179 18 103 11822
10.756229 4.7820525 1.4718317 32 94221390 455 19 79 11863
11.048312 3.5219696 1.3550475 92 94221390 1257 20 92 11675
11.108749 3.9926488 1.2644515 342 94221390 4821 21 112 11872
11.249176 4.509872 1.18171 521 94221390 7729 22 90 12177
11.250447 4.9944854 1.0853624 110 94221390 1674 23 158 12357
11.404955 3.6332476 0.95843273 195 94221390 2815 24 87 12008
11.477084 4.1216412 0.8597967 522 94221390 7805 25 87 12225
11.69404 4.687747 0.7676962 352 94221390 5606 26 126 12622
11.397171 5.0515275 0.64177823 252 94221390 3927 27 115 12483
11.727583 3.7297149 0.53494102 415 94221390 6302 28 79 12318
11.891758 4.265873 0.42815527 519 94221390 8286 29 54 12641
11.856756 4.7400088 0.31496945 24 94221390 387 30 34 12773
11.850779 5.2473822 0.19364533 160 94221390 2692 31 87 12962
12.144528 3.8616152 0.088969186 487 94221390 7911 32 105 12744
12.345387 4.4234948 -0.033187926 530 94221390 9115 33 115 13114
12.419071 4.963047 -0.15966767 22 94221390 396 34 98 13375
12.754382 5.6376386 -0.29916301 455 94221390 8852 35 112 13948
12.268068 3.8942971 -0.3822369 50 94221390 824 36 152 12877
12.7984 4.5752306 -0.53163987 539 94221390 9980 37 72 13602
12.974136 5.1785669 -0.6800434 65 94221390 1268 38 136 13986
13.266192 5.8641438 -0.84368926 475 94221390 10031 39 95 14529
13.06578 4.1362247 -0.90955448 519 94221390 9790 40 120 13735
13.329597 4.7583046 -1.0724001 510 94221390 10274 41 120 14194
13.571336 5.4125433 -1.2474537 436 94221390 9383 42 190 14664
13.824334 6.1019239 -1.4340087 478 94221390 11016 43 102 15179
13.633737 4.3107867 -1.4761454 442 94221390 9133 44 118 14375
13.886583 4.9508505 -1.6609579 90 94221390 1990 45 66 14836
14.13898 5.6303535 -1.8597357 458 94221390 10767 46 114 15332
14.185682 6.2572784 -2.0472527 295 94221390 7215 47 114 15639
14.174611 4.4687448 -2.0858567 446 94221390 10043 48 127 15008
14.177785 5.047698 -2.2580321 20 94221390 471 49 78 15218
14.783359 5.8779888 -2.542809 398 94221390 10339 50 79 16111
14.357832 6.328424 -2.6628885 328 94221390 8315 51 83 15915
14.868354 4.6729112 -2.7778628 411 94221390 10304 52 100 15831
14.80636 5.2630463 -2.9529922 14 94221390 362 53 97 15989
15.536201 6.1716733 -3.3064466 355 94221390 10317 54 83 17041
13.765523 6.0676422 -3.1317849 323 94221390 7629 55 101 15366
15.534969 4.8728871 -3.5320385 391 94221390 10850 56 125 16660
15.899342 5.6421804 -3.825207 319 94221390 9555 57 81 17299
16.194868 6.4297261 -4.1286249 171 94221390 5497 58 65 17907
13.863514 6.1093903 -3.7492392 478 94221390 11650 59 84 15607
16.353472 5.1086311 -4.3967338 252 94221390 7875 60 36 17688
16.780882 5.939188 -4.7471004 274 94221390 9285 61 51 18423
16.479284 6.5389833 -4.9154143 181 94221390 6143 62 60 18398
14.055485 6.2010207 -4.431571 301 94221390 7705 63 70 15989
9.3545256 2.9104986 3.0579436 572 94319120 6028 0 83 10263
9.4512939 3.3403132 3.0087402 455 94319120 4986 1 96 10466
9.6567545 3.8266213 3.0077651 46 94319120 533 2 53 10814
9.6592293 4.2551184 2.9483821 318 94319120 3825 3 65 10959
9.6691704 3.0137634 2.7359581 478 94319120 5263 4 90 10491
9.7857237 3.4537063 2.6928377 38 94319120 442 5 67 10721
9.8939505 3.9162185 2.650687 366 94319120 4403 6 102 10966
10.009636 4.3973875 2.6134748 121 94319120 1534 7 69 11241
10.122181 3.1570938 2.4434364 16 94319120 191 8 96 10881
10.109999 3.5725195 2.3587019 307 94319120 3704 9 81 10979
10.21666 4.0375609 2.3062065 188 94319120 2373 10 74 11225
10.315335 4.5209508 2.2545691 134 94319120 1764 11 32 11486
10.322781 3.2214396 2.0747697 286 94319120 3466 12 127 11011
10.425946 3.679662 2.0074639 306 94319120 3867 13 86 11237
10.581041 4.1792135 1.9536101 148 94319120 1973 14 108 11543
10.384253 4.548131 1.8403907 17 94319120 229 15 72 11485
10.612108 3.3115273 1.7130241 472 94319120 5978 16 60 11248
10.803206 3.8100533 1.6527867 66 94319120 889 17 76 11574
10.866227 4.285059 1.5726378 447 94319120 6214 18 71 11786
10.883558 4.7588973 1.4852312 26 94319120 378 19 73 11971
11.024204 3.4399111 1.3494765 139 94319120 1881 20 96 11627
11.121786 3.920445 1.2631735 295 94319120 4149 21 116 11860
11.254411 4.4320107 1.1793809 526 94319120 7775 22 69 12153
11.204197 4.8918786 1.0779845 25 94319120 376 23 118 12273
11.392775 3.5525172 0.95555937 131 94319120 1883 24 76 11972
11.468287 4.0392118 0.85726476 516 94319120 7669 25 94 12189
11.644569 4.5851865 0.76258713 550 94319120 8643 26 130 12538
11.592738 5.0533319 0.65103245 200 94319120 3211 27 85 12663
11.727354 3.6505589 0.53389871 353 94319120 5338 28 94 12294
11.883769 4.1808853 0.42693591 497 94319120 7904 29 63 12605
12.08661 4.7460928 0.32029578 165 94319120 2777 30 50 12989
11.904755 5.1841497 0.19400388 282 94319120 4761 31 77 12986
12.13362 3.7763274 0.088717856 476 94319120 7684 32 136 12708
12.315691 4.3277702 -0.033036083 535 94319120 9116 33 121 13054
12.315256 4.8341393 -0.15794863 26 94319120 459 34 92 13231
12.755726 5.5449247 -0.29839087 454 94319120 8789 35 99 13912
12.21155 3.7940361 -0.37974346 31 94319120 502 36 154 12793
12.814917 4.4926486 -0.53117085 498 94319120 9200 37 102 13590
12.77133 5.0069904 -0.66779029 29 94319120 552 38 85 13734
13.268966 5.7683058 -0.84159881 418 94319120 8783 39 101 14493
13.090913 4.0559764 -0.90955448 494 94319120 9318 40 119 13735
13.302073 4.6566586 -1.0678669 495 94319120 9886 41 130 14134
13.548627 5.3073645 -1.2423496 309 94319120 6582 42 160 14604
13.81768 5.9979572 -1.429474 486 94319120 11131 43 95 15131
13.602915 4.2094069 -1.4699841 483 94319120 9901 44 97 14315
13.849162 4.841938 -1.6528974 474 94319120 10338 45 83 14764
14.139981 5.5304761 -1.855369 444 94319120 10390 46 110 15296
14.387521 6.2411351 -2.070816 378 94319120 9454 47 138 15819
14.167699 4.3711767 -2.0808532 447 94319120 10014 48 145 14972
14.286918 4.9879913 -2.2704959 19 94319120 453 49 74 15302
14.752922 5.7613068 -2.5314455 397 94319120 10224 50 64 16039
14.591781 6.3248997 -2.6990294 340 94319120 8852 51 95 16131
14.783829 4.546864 -2.7568064 411 94319120 10146 52 113 15711
14.82724 5.1682158 -2.9507761 20 94319120 514 53 100 15977
15.486044 6.0419993 -3.2878199 333 94319120 9574 54 67 16945
14.761824 6.3989115 -3.3494565 266 94319120 7196 55 66 16434
15.508522 4.7602687 -3.5193181 464 94319120 12780 56 139 16600
15.933661 5.544518 -3.825207 95 94319120 2853 57 78 17299
15.79886 6.1605515 -4.0179563 27 94319120 835 58 60 17427
14.103813 6.1122174 -3.8040113 454 94319120 11388 59 97 15835
16.32893 4.9912028 -4.3818192 232 94319120 7197 60 47 17628
16.718424 5.801898 -4.7192717 231 94319120 7764 61 62 18315
16.745361 6.5259242 -4.9827414 161 94319120 5616 62 63 18650
14.273082 6.192677 -4.4881124 349 94319120 9163 63 65 16193
9.3612499 2.8497097 3.054368 581 94415060 6108 0 89 10251
9.4607515 3.2784948 3.0052903 536 94415060 5859 1 111 10454
9.59412 3.7338531 2.9810641 34 94415060 386 2 46 10718
9.6639452 4.1865816 2.941925 340 94415060 4061 3 44 10935
9.6653194 2.9476192 2.7296991 519 94415060 5687 4 101 10467
9.9055214 3.427783 2.7199645 26 94415060 300 5 50 10829
9.874382 3.8385606 2.6390846 316 94415060 3769 6 99 10918
10.004288 4.322001 2.6051052 180 94415060 2263 7 85 11205
9.995966 3.050554 2.4084051 91 94415060 1050 8 84 10725
10.109582 3.5027452 2.3535461 272 94415060 3268 9 77 10955
10.230293 3.9705474 2.303741 243 94415060 3060 10 74 11213
10.321269 4.4482579 2.2498581 176 94415060 2318 11 67 11462
10.31981 3.1511562 2.0702477 255 94415060 3079 12 104 10987
10.426012 3.607898 2.0031762 353 94415060 4442 13 82 11213
10.573407 4.1013799 1.9475173 116 94415060 1537 14 108 11507
10.673057 4.5967789 1.8865408 110 94415060 1531 15 60 11773
10.620885 3.2428868 1.7111965 462 94415060 5839 16 60 11236
10.725358 3.708761 1.6373641 87 94415060 1146 17 100 11466
10.881225 4.2140093 1.5710366 395 94415060 5480 18 81 11774
10.803164 4.6449933 1.4703429 32 94415060 454 19 79 11851
11.022305 3.3652425 1.3466909 206 94415060 2776 20 94 11603
11.123077 3.8443339 1.2606173 237 94415060 3321 21 111 11836
11.247975 4.3499479 1.1758872 525 94415060 7713 22 81 12117
11.234001 4.8230391 1.0779845 36 94415060 540 23 135 12273
11.368594 3.4685831 0.95172822 92 94415060 1313 24 77 11924
11.470226 3.9609535 0.85557687 477 94415060 7058 25 118 12165
11.638969 4.5006905 0.76039755 532 94415060 8310 26 148 12502
11.634542 4.9868259 0.65164936 36 94415060 580 27 104 12675
11.738064 3.5750396 0.53337759 295 94415060 4453 28 98 12282
11.886523 4.1000676 0.42612302 486 94415060 7686 29 45 12581
12.048347 4.6459446 0.31852037 494 94415060 8235 30 51 12917
11.925309 5.1062827 0.1938246 308 94415060 5191 31 74 12974
12.110647 3.6878235 0.088382758 475 94415060 7614 32 110 12660
12.307978 4.2403946 -0.032944977 532 94415060 9018 33 103 13018
12.434255 4.7930093 -0.15909465 36 94415060 643 34 89 13327
12.723318 5.438261 -0.2968466 481 94415060 9213 35 114 13840
12.360838 3.7574096 -0.38366169 33 94415060 547 36 147 12925
12.774203 4.3905478 -0.52835667 532 94415060 9728 37 77 13518
12.801812 4.9285326 -0.66779029 22 94415060 416 38 106 13734
13.271062 5.6726542 -0.8395083 437 94415060 9137 39 96 14457
13.046802 3.9547358 -0.90478653 545 94415060 10172 40 123 13663
13.273808 4.5555296 -1.0633336 526 94415060 10421 41 104 14074
13.1792 5.0695968 -1.2055998 29 94415060 575 42 156 14172
13.788299 5.8849235 -1.422672 469 94415060 10646 43 64 15059
13.582789 4.1120276 -1.4650551 482 94415060 9808 44 136 14267
13.822208 4.7375383 -1.64618 449 94415060 9713 45 89 14704
14.118052 5.4222574 -1.8480912 417 94415060 9680 46 119 15236
14.403659 6.1434026 -2.0676742 419 94415060 10447 47 143 15795
14.148746 4.2704277 -2.074182 452 94415060 10071 48 96 14924
14.44076 4.9425054 -2.290082 360 94415060 8564 49 54 15434
14.72161 5.6452198 -2.5200818 423 94415060 10794 50 72 15967
14.869755 6.3372931 -2.7432017 281 94415060 7561 51 82 16395
14.811449 4.4560661 -2.7568064 365 94415060 9009 52 120 15711
14.758231 5.04282 -2.9308295 11 94415060 283 53 90 15869
15.46786 5.9258075 -3.2761779 342 94415060 9759 54 80 16885
14.995344 6.3911266 -3.3934805 263 94415060 7302 55 71 16650
15.470047 4.6447868 -3.5040536 351 94415060 9582 56 141 16528
15.535407 5.2992949 -3.7217212 21 94415060 604 57 77 16831
16.272552 6.2305059 -4.1286249 274 94415060 8801 58 60 17907
14.355377 6.116888 -3.861666 361 94415060 9333 59 96 16075
16.292431 4.8709407 -4.3639226 233 94415060 7196 60 61 17556
16.731754 5.6917381 -4.7130876 250 94415060 8348 61 56 18291
17.076691 6.5346394 -5.0693049 174 94415060 6280 62 66 18974
14.544125 6.204514 -4.5612836 361 94415060 9788 63 67 16457
9.3566017 2.7856793 3.0472171 581 94513670 6079 0 92 10227
9.4480419 3.2092931 2.994941 572 94513670 6208 1 126 10418
9.573781 3.6584563 2.9677136 40 94513670 450 2 50 10670
9.6681852 4.1181479 2.9354682 344 94513670 4101 3 61 10911
9.6277161 2.871702 2.7140517 574 94513670 6218 4 97 10407
9.8383694 3.3370914 2.6958518 59 94513670 675 5 51 10733
9.8868704 3.7737479 2.636184 287 94513670 3414 6 114 10906
9.9661646 4.2331576 2.5883656 249 94513670 3089 7 87 11133
10.003291 2.9858179 2.4057102 176 94513670 2023 8 83 10713
10.153078 3.4481854 2.3587019 206 94513670 2488 9 66 10979
10.177645 3.878427 2.286483 304 94513670 3759 10 57 11129
10.337535 4.3802533 2.2475028 123 94513670 1618 11 63 11450
10.327658 3.0844033 2.0679865 173 94513670 2081 12 142 10975
10.40323 3.528687 1.9946014 418 94513670 5215 13 80 11165
10.565216 4.023797 1.9414244 59 94513670 778 14 104 11471
10.646523 4.5081105 1.8769261 412 94513670 5656 15 80 11713
10.617855 3.1708701 1.7075416 464 94513670 5839 16 66 11212
10.781658 3.6543193 1.642505 122 94513670 1616 17 100 11502
10.862412 4.1302571 1.5646319 321 94513670 4417 18 83 11726
10.985009 4.6435256 1.4911865 35 94513670 509 19 85 12019
10.951381 3.2702646 1.3355488 290 94513670 3840 20 120 11507
11.135156 3.7721832 1.2593392 177 94513670 2476 21 100 11824
11.229792 4.2638912 1.1712291 505 94513670 7358 22 104 12069
11.175282 4.7168317 1.0695524 25 94513670 368 23 133 12177
11.378201 3.3953409 0.95077044 57 94513670 814 24 75 11912
11.471637 3.8828232 0.85388893 446 94513670 6576 25 102 12141
11.610375 4.4079337 0.7567482 553 94513670 8553 26 168 12442
11.576571 4.8781157 0.64671379 32 94513670 509 27 96 12579
11.71382 3.4892588 0.53129303 261 94513670 3912 28 77 12234
11.877374 4.015533 0.42490372 499 94513670 7860 29 65 12545
12.065407 4.5676827 0.31822446 521 94513670 8670 30 47 12905
11.978534 5.0423245 0.19418314 111 94513670 1878 31 100 12998
12.144547 3.6168697 0.08846654 452 94513670 7256 32 129 12672
12.288287 4.1494379 -0.032823499 537 94513670 9034 33 114 12970
12.519543 4.7378588 -0.15981092 419 94513670 7512 34 99 13387
12.701144 5.3368526 -0.29555967 484 94513670 9193 35 99 13780
12.337671 3.6678224 -0.3822369 35 94513670 577 36 136 12877
12.789539 4.3082561 -0.52788764 509 94513670 9289 37 90 13506
12.742118 4.815989 -0.66312248 20 94513670 376 38 90 13638
13.217265 5.5539908 -0.83393365 439 94513670 9059 39 90 14361
13.024901 3.8609955 -0.90160787 567 94513670 10508 40 128 13615
13.244803 4.4549241 -1.0588006 493 94513670 9681 41 120 14014
13.310728 5.0266523 -1.2147872 31 94513670 624 42 162 14280
13.747036 5.7678552 -1.4147362 468 94513670 10498 43 100 14975
13.561982 4.0150537 -1.460126 447 94513670 9039 44 110 14219
13.805802 4.6374497 -1.6408062 465 94513670 9991 45 99 14656
14.017311 5.2851009 -1.8306243 51 94513670 1161 46 119 15092
14.397197 6.0365071 -2.0613906 431 94513670 10685 47 126 15747
14.129092 4.1700768 -2.0675108 464 94513670 10273 48 87 14876
14.414558 4.8349361 -2.2811792 393 94513670 9294 49 90 15374
14.711612 5.5380845 -2.5125058 405 94513670 10271 50 79 15919
15.061127 6.3099375 -2.7713115 404 94513670 11090 51 87 16563
14.747844 4.338429 -2.7399614 394 94513670 9608 52 112 15615
15.068477 5.0457897 -2.9862363 195 94513670 5105 53 85 16169
15.4268 5.8017797 -3.2598796 337 94513670 9519 54 88 16801
15.261822 6.3943324 -3.4448411 248 94513670 7092 55 85 16902
15.464499 4.5398669 -3.4964213 320 94513670 8697 56 144 16492
15.345646 5.1296678 -3.6686518 16 94513670 451 57 72 16591
16.212105 6.0935678 -4.1037245 270 94513670 8567 58 65 17799
15.402587 6.4517298 -4.1326432 210 94513670 6217 59 105 17203
16.255072 4.7513142 -4.3460255 262 94513670 7997 60 45 17484
16.293375 5.4312992 -4.5801287 12 94513670 393 61 64 17775
17.116465 6.4297357 -5.0693049 230 94513670 8297 62 63 18974
14.783944 6.1998773 -4.6244774 330 94513670 9197 63 72 16685
9.3405228 2.7186124 3.0364907 605 94611710 6285 0 94 10191
9.4130306 3.1331117 2.9776926 589 94611710 6320 1 116 10358
9.6068401 3.6036921 2.9710512 103 94611710 1180 2 66 10682
9.6826115 4.0542836 2.9322398 281 94611710 3333 3 54 10899
9.6340332 2.8093302 2.7109222 596 94611710 6441 4 104 10395
9.8145704 3.2620075 2.6837952 182 94611710 2072 5 53 10685
9.9098396 3.7130122 2.636184 230 94611710 2735 6 121 10906
9.9811811 4.1674299 2.5855756 284 94611710 3516 7 82 11121
9.9989719 2.9178312 2.4003208 278 94611710 3178 8 97 10689
10.140684 3.3747206 2.3509681 165 94611710 1980 9 79 10943
10.201251 3.8159053 2.286483 355 94611710 4401 10 78 11129
10.353355 4.3122168 2.2451472 99 94611710 1289 11 55 11438
10.335076 3.0176725 2.0657253 107 94611710 1285 12 123 10963
10.413481 3.4610636 1.9924575 454 94611710 5650 13 94 11153
10.578629 3.9547529 1.9393934 66 94611710 867 14 113 11459
10.630242 4.4244938 1.8692346 386 94611710 5256 15 78 11665
10.625727 3.1023364 1.705714 415 94611710 5212 16 61 11200
10.792605 3.584352 1.6407914 197 94611710 2603 17 93 11490
10.909835 4.071846 1.5678343 262 94611710 3620 18 93 11750
10.980307 4.5623293 1.48672 500 94611710 7182 19 98 11983
10.948359 3.196326 1.3327632 377 94611710 4973 20 97 11483
11.192064 3.715065 1.2631735 113 94611710 1591 21 101 11860
11.199786 4.1740518 1.1654065 489 94611710 7056 22 84 12009
11.204013 4.6481724 1.0695524 31 94611710 457 23 137 12177
11.43327 3.3355119 0.9536438 68 94611710 975 24 84 11948
11.472522 3.8048253 0.85220098 376 94611710 5521 25 112 12117
11.603532 4.3240628 0.75455856 545 94611710 8385 26 132 12406
11.561996 4.7886481 0.64424598 26 94611710 410 27 102 12531
11.75803 3.4240224 0.53233534 159 94611710 2395 28 73 12258
11.867635 3.9312654 0.42368439 493 94611710 7720 29 70 12509
12.025736 4.4684939 0.31644899 536 94611710 8835 30 61 12833
12.109033 5.010016 0.19579661 26 94611710 452 31 77 13106
12.085862 3.5188029 0.087880105 378 94611710 5990 32 110 12588
12.267946 4.0588832 -0.032702029 508 94611710 8481 33 130 12922
12.480888 4.6358829 -0.15895139 465 94611710 8245 34 111 13315
12.678207 5.2359214 -0.29427275 426 94611710 8022 35 92 13720
12.313871 3.578661 -0.38081208 26 94611710 424 36 145 12829
12.770186 4.2146673 -0.52601153 507 94611710 9185 37 105 13458
12.973704 4.8127508 -0.67362511 378 94611710 7246 38 169 13854
13.195731 5.4499211 -0.83044946 483 94611710 9884 39 88 14301
13.013845 3.7710059 -0.89922386 535 94611710 9865 40 115 13579
13.24916 4.3660817 -1.0569873 539 94611710 10544 41 145 13990
13.13952 4.8700881 -1.1964123 18 94611710 349 42 158 14064
13.749037 5.669734 -1.4113352 480 94611710 10720 43 77 14939
13.540498 3.9184906 -1.455197 462 94611710 9275 44 134 14171
13.777362 4.5340133 -1.6340889 457 94611710 9738 45 107 14596
13.792542 5.1039147 -1.7971462 27 94611710 594 46 108 14816
14.34597 5.9117923 -2.0488236 380 94611710 9299 47 159 15651
14.097324 4.0668344 -2.0591719 473 94611710 10384 48 112 14816
14.410131 4.7352848 -2.2758374 403 94611710 9490 49 67 15338
14.700854 5.4312849 -2.5049298 253 94611710 6377 50 94 15871
15.001101 6.1768637 -2.7532408 400 94611710 10839 51 82 16455
14.706063 4.2282696 -2.7273276 413 94611710 9974 52 134 15543
15.054329 4.9385319 -2.9773712 365 94611710 9487 53 111 16121
15.406891 5.6866326 -3.2482381 354 94611710 9926 54 95 16741
15.50717 6.3855591 -3.4913104 256 94611710 7499 55 52 17130
15.446974 4.4319563 -3.4862449 355 94611710 9593 56 141 16444
15.67712 5.1337466 -3.7402956 29 94611710 842 57 64 16915
16.205368 5.9778132 -4.0926576 288 94611710 9089 58 62 17751
15.657314 6.4457879 -4.1902981 239 94611710 7279 59 88 17443
16.239214 4.6387153 -4.3340936 270 94611710 8223 60 59 17436
16.370481 5.3456187 -4.5924964 11 94611710 337 61 44 17823
17.101345 6.3045902 -5.0532746 204 94611710 7313 62 65 18914
15.024244 6.1925278 -4.6876702 324 94611710 9278 63 76 16913
9.3239737 2.6518478 3.0257642 600 94708970 6188 0 106 10155
9.4430046 3.0788584 2.9811423 628 94708970 6754 1 113 10370
9.5422373 3.5128217 2.9443502 166 94708970 1864 2 72 10586
9.7073059 3.9947958 2.9322398 213 94708970 2536 3 60 10899
9.6510897 2.750164 2.7109222 630 94708970 6806 4 128 10395
9.7902212 3.1873419 2.6717389 264 94708970 2991 5 72 10637
9.8887205 3.6360631 2.6245816 185 94708970 2182 6 111 10858
9.9849691 4.0972466 2.5799956 367 94708970 4524 7 69 11097
9.9941978 2.8500104 2.3949316 351 94708970 3994 8 101 10665
10.138915 3.3051701 2.3458118 99 94708970 1186 9 59 10919
10.158324 3.7289577 2.2716904 388 94708970 4750 10 61 11057
10.401399 4.2575235 2.2498581 63 94708970 833 11 69 11462
10.342065 2.9509673 2.0634642 72 94708970 865 12 103 10951
10.40084 3.3861372 1.9860262 443 94708970 5477 13 98 11117
10.513869 3.857182 1.9231458 112 94708970 1447 14 110 11363
10.635264 4.3502159 1.8653886 291 94708970 3946 15 92 11641
10.644562 3.0370798 1.705714 421 94708970 5287 16 65 11200
10.724041 3.4886687 1.6270825 260 94708970 3378 17 90 11394
10.889944 3.9884675 1.5614295 213 94708970 2919 18 96 11702
10.963998 4.4768643 1.4807646 494 94708970 7038 19 104 11935
10.933379 3.1192782 1.3285849 440 94708970 5769 20 90 11447
11.13522 3.6204965 1.2542269 68 94708970 944 21 108 11776
11.191537 4.0929461 1.1619128 433 94708970 6211 22 91 11973
11.37622 4.6380043 1.0832545 415 94708970 6310 23 133 12333
11.326983 3.2292213 0.94310808 122 94708970 1708 24 75 11816
11.450113 3.7195663 0.8488251 348 94708970 5070 25 103 12069
11.596099 4.2404428 0.75236905 549 94708970 8397 26 134 12370
11.480162 4.6724377 0.63807654 18 94708970 278 27 107 12411
11.721164 3.3354058 0.52972972 122 94708970 1821 28 70 12198
11.868717 3.8509703 0.42287147 454 94708970 7069 29 56 12485
12.064198 4.3987308 0.31674489 506 94708970 8355 30 73 12845
12.017279 4.8859119 0.1938246 32 94708970 542 31 91 12974
12.107225 3.4445791 0.087880105 341 94708970 5402 32 125 12588
12.246958 3.9687347 -0.032580551 523 94708970 8670 33 103 12874
12.48655 4.5509963 -0.15866488 450 94708970 7948 34 125 13291
12.454412 5.0542688 -0.288353 32 94708970 585 35 71 13444
12.335597 3.5030372 -0.38081208 37 94708970 606 36 138 12829
12.72735 4.1141033 -0.52319741 527 94708970 9449 37 83 13386
12.946676 4.7125564 -0.6707077 499 94708970 9501 38 189 13794
13.195621 5.3553362 -0.82835895 473 94708970 9628 39 101 14265
12.990656 3.6780362 -0.89604527 526 94708970 9628 40 130 13531
13.23015 4.2700028 -1.0533607 506 94708970 9837 41 105 13942
13.483775 4.9037952 -1.2249955 159 94708970 3287 42 172 14400
13.739279 5.5673189 -1.4068005 504 94708970 11182 43 83 14891
13.506856 3.8190951 -1.4490358 446 94708970 8880 44 120 14111
13.770874 4.4384174 -1.6300585 459 94708970 9737 45 80 14560
13.599675 4.9378848 -1.7680348 20 94708970 424 46 123 14576
14.326838 5.8013301 -2.0409691 408 94708970 9916 47 123 15591
14.076261 3.9673634 -2.0525007 442 94708970 9642 48 102 14768
14.39373 4.6322351 -2.2687154 429 94708970 10037 49 78 15290
14.399696 5.2198315 -2.4481108 18 94708970 443 50 67 15511
14.961949 6.0536408 -2.739186 393 94708970 10541 51 82 16371
14.674862 4.1219816 -2.7167995 400 94708970 9591 52 106 15483
15.039433 4.8316383 -2.9685061 376 94708970 9719 53 90 16073
15.375082 5.5679402 -3.2342677 363 94708970 10090 54 100 16669
15.720305 6.3607926 -3.5304425 298 94708970 8952 55 75 17322
15.406126 4.3181024 -3.4709806 363 94708970 9724 56 139 16372
15.764044 5.0553255 -3.7535627 306 94708970 8830 57 63 16975
16.153904 5.8464756 -4.0705237 294 94708970 9173 58 82 17655
15.934138 6.4456964 -4.2537179 167 94708970 5240 59 102 17707
16.256176 4.5358624 -4.331111 145 94708970 4390 60 46 17424
0 0 -0 9 94708970 0 61 47 0
17.052713 6.1680732 -5.027626 218 94708970 7733 62 71 18818
16.002386 6.4811053 -4.9803557 130 94708970 4201 63 102 17969
9.3290329 2.591521 3.0221887 637 94805530 6555 0 92 10143
9.417922 3.0068762 2.9673433 673 94805530 7172 1 106 10322
9.5961351 3.4659524 2.9543631 252 94805530 2849 2 58 10622
9.710206 3.9264927 2.9257829 189 94805530 2240 3 69 10875
9.6343012 2.6815753 2.7015336 599 94805530 6430 4 92 10359
9.7874622 3.1201546 2.6657109 371 94805530 4183 5 66 10613
9.9217987 3.5792699 2.6274822 127 94805530 1501 6 107 10870
9.9774485 4.02281 2.5716259 370 94805530 4531 7 77 11061
9.9551735 2.7729449 2.3814578 401 94805530 4510 8 114 10605
10.14784 3.2393327 2.3432338 70 94805530 827 9 53 10907
10.192062 3.6705365 2.2741559 388 94805530 4759 10 74 11069
10.307242 4.1453266 2.223948 79 94805530 1009 11 50 11330
10.359978 2.887454 2.0634642 45 94805530 540 12 110 10951
10.387673 3.3114967 1.9795948 404 94805530 4963 13 102 11081
10.515082 3.7845871 1.9190838 183 94805530 2356 14 87 11339
10.639775 4.2760434 1.8615428 252 94805530 3404 15 87 11617
10.605873 2.9557889 1.6965762 302 94805530 3753 16 67 11140
10.711294 3.4119871 1.6219416 348 94805530 4493 17 86 11358
10.936596 3.929616 1.5646319 148 94805530 2039 18 79 11726
10.991261 4.4095063 1.4807646 497 94805530 7078 19 125 11935
10.940832 3.0489337 1.3271922 470 94805530 6150 20 83 11435
11.145856 3.5484841 1.2529488 53 94805530 734 21 115 11764
11.205198 4.0201659 1.1607482 403 94805530 5769 22 86 11961
11.348982 4.5458903 1.0779845 534 94805530 8038 23 160 12273
11.288968 3.143615 0.93831909 182 94805530 2520 24 73 11756
11.506942 3.660125 0.85135698 250 94805530 3667 25 84 12105
11.599351 4.1611218 0.75090927 508 94805530 7741 26 127 12346
11.764547 4.704248 0.65226632 232 94805530 3737 27 97 12687
11.787612 3.2762649 0.53181422 92 94805530 1386 28 70 12246
11.823543 3.756285 0.42043284 430 94805530 6633 29 62 12413
12.000597 4.2923021 0.31437764 540 94805530 8784 30 66 12749
11.86875 4.74087 0.19095622 17 94805530 283 31 79 12782
12.105009 3.3638003 0.087712556 276 94805530 4358 32 107 12564
12.271079 3.8935142 -0.032580551 544 94805530 9015 33 126 12874
12.457747 4.4540963 -0.15794863 456 94805530 7983 34 119 13231
12.396036 4.9422102 -0.28629395 25 94805530 449 35 91 13348
12.460885 3.4561336 -0.38401791 33 94805530 548 36 146 12937
12.729489 4.0286961 -0.52225935 542 94805530 9681 37 91 13362
12.930196 4.6169066 -0.66837376 514 94805530 9718 38 194 13746
13.128082 5.2343373 -0.82208747 189 94805530 3793 39 86 14157
12.989898 3.5918753 -0.89445597 514 94805530 9372 40 150 13507
13.199054 4.1707177 -1.0488275 531 94805530 10231 41 123 13882
13.457304 4.8008809 -1.2198914 495 94805530 10172 42 154 14340
13.706585 5.4564004 -1.3999983 475 94805530 10437 43 84 14819
13.507023 3.7297924 -1.4465712 492 94805530 9762 44 129 14087
13.729618 4.3323073 -1.6219978 441 94805530 9263 45 81 14488
13.921461 4.9582534 -1.8058796 31 94805530 687 46 118 14888
14.317949 5.6957235 -2.0346856 420 94805530 10138 47 157 15543
14.054508 3.8683043 -2.0458295 470 94805530 10184 48 112 14720
14.376607 4.5295649 -2.2615931 394 94805530 9162 49 73 15242
14.342135 5.0996194 -2.4329591 29 94805530 679 50 48 15415
14.965831 5.9486127 -2.7331626 347 94805530 9270 51 68 16335
14.699878 4.0318608 -2.7167995 420 94805530 10067 52 125 15483
14.967546 4.7074227 -2.9485598 366 94805530 9332 53 99 15965
15.242562 5.4143901 -3.1993425 53 94805530 1451 54 71 16489
15.704453 6.2425175 -3.5182137 322 94805530 9605 55 76 17262
15.375773 4.2080126 -3.4582601 349 94805530 9279 56 146 16312
15.716607 4.9339671 -3.7349885 305 94805530 8709 57 86 16891
16.134455 5.7277155 -4.0566907 301 94805530 9331 58 66 17595
15.735235 6.2531633 -4.1902981 26 94805530 797 59 92 17443
10.048345 2.7373855 -2.6726415 77 94805530 885 60 51 10752
16.611895 5.1997437 -4.6419702 172 94805530 5572 61 35 18015
16.992155 6.0285249 -4.9987717 197 94805530 6912 62 64 18710
16.470373 6.5532956 -5.1133943 149 94805530 5084 63 72 18449
9.333703 2.5312321 3.0186131 594 94904540 6098 0 97 10131
9.4361954 2.9490325 2.9673433 667 94904540 7107 1 113 10322
9.6063566 3.4031572 2.9510255 284 94904540 3192 2 48 10610
9.7233744 3.862571 2.9225545 117 94904540 1376 3 46 10863
9.6170359 2.6132965 2.6921453 647 94904540 6896 4 99 10323
9.7620697 3.0462012 2.6536546 445 94904540 4971 5 74 10565
9.9106417 3.5066712 2.6187801 76 94904540 894 6 93 10834
9.9910927 3.957216 2.568836 404 94904540 4937 7 68 11049
9.9607162 2.7087405 2.3787632 488 94904540 5477 8 103 10593
10.133965 3.1665194 2.3354995 55 94904540 644 9 54 10871
10.181173 3.5961962 2.2667596 401 94904540 4886 10 78 11033
10.343427 4.086328 2.2263036 119 94904540 1537 11 61 11342
10.309271 2.8052661 2.0498974 83 94904540 981 12 128 10879
10.396526 3.2441797 1.9774511 353 94904540 4330 13 74 11069
10.504648 3.7081859 1.9129909 229 94904540 2927 14 101 11303
10.676829 4.2150278 1.8634658 194 94904540 2628 15 72 11629
10.612366 2.887543 1.6947486 248 94904540 3076 16 73 11128
10.732029 3.3461995 1.6219416 415 94904540 5356 17 93 11358
10.893202 3.8387201 1.5550246 100 94904540 1360 18 99 11654
10.984876 4.3288851 1.4762981 450 94904540 6374 19 96 11899
10.947833 2.9786155 1.3257993 498 94904540 6500 20 100 11423
11.087678 3.4551787 1.2440021 102 94904540 1393 21 105 11680
11.184588 3.9354794 1.1560901 325 94904540 4618 22 71 11913
11.354413 4.4674153 1.0758764 521 94904540 7813 23 150 12249
11.284958 3.0680118 0.93640351 280 94904540 3861 24 61 11732
11.44918 3.5645428 0.84544921 158 94904540 2288 25 78 12021
11.602066 4.0819206 0.74944955 504 94904540 7647 26 153 12322
11.748573 4.614449 0.64979857 522 94904540 8340 27 100 12639
11.69179 3.1724806 0.52660286 74 94904540 1094 28 73 12126
11.846368 3.6836662 0.42043284 370 94904540 5707 29 69 12413
12.015388 4.2146163 0.31408173 527 94904540 8553 30 93 12737
12.199199 4.7862797 0.19579661 69 94904540 1192 31 71 13106
12.125422 3.2894619 0.087712556 196 94904540 3093 32 122 12564
12.237438 3.8003526 -0.032428708 503 94904540 8258 33 128 12814
12.462195 4.3696327 -0.15766212 483 94904540 8426 34 113 13207
12.392613 4.8529325 -0.28552181 23 94904540 414 35 75 13312
12.41239 3.3608012 -0.3818807 53 94904540 872 36 153 12865
12.731062 3.9434178 -0.5213213 466 94904540 8295 37 86 13338
12.913033 4.521637 -0.66603988 537 94904540 10081 38 197 13698
12.914546 5.05758 -0.80675715 21 94904540 412 39 73 13893
12.988573 3.5058627 -0.89286661 463 94904540 8416 40 119 13483
13.212965 4.0861158 -1.0479209 564 94904540 10848 41 127 13870
13.430079 4.6984768 -1.2147872 490 94904540 9983 42 162 14280
13.673051 5.3460946 -1.3931963 438 94904540 9532 43 82 14747
13.472028 3.6313117 -1.4404098 483 94904540 9497 44 154 14027
13.733154 4.2409458 -1.6193109 487 94904540 10192 45 94 14464
13.985358 4.884522 -1.8102463 442 94904540 9843 46 124 14924
14.26398 5.5731268 -2.0221186 419 94904540 9994 47 130 15447
14.04355 3.7727454 -2.0408263 454 94904540 9788 48 120 14684
14.313407 4.4132938 -2.2473488 418 94904540 9598 49 67 15146
14.250077 4.9686079 -2.4121256 9 94904540 222 50 58 15283
14.946945 5.8351603 -2.7231236 406 94904540 10759 51 95 16275
14.655869 3.9232588 -2.7041657 423 94904540 10047 52 110 15411
15.007421 4.6189642 -2.9507761 359 94904540 9166 53 108 15977
15.042045 5.2394452 -3.1504474 22 94904540 587 54 84 16237
15.65491 6.1118584 -3.4986477 305 94904540 9000 55 67 17166
15.333325 4.0954323 -3.4429958 352 94904540 9280 56 129 16240
15.724212 4.8305655 -3.7296815 333 94904540 9481 57 85 16867
16.103128 5.6055756 -4.0400901 239 94904540 7348 58 80 17523
16.511198 6.4445028 -4.3863239 162 94904540 5416 59 62 18259
15.535522 4.129981 -4.1252937 11 94904540 316 60 62 16596
16.499363 5.0535736 -4.6017733 246 94904540 7834 61 44 17859
16.974216 5.9051518 -4.9827414 209 94904540 7286 62 62 18650
16.778746 6.5570302 -5.1965427 149 94904540 5222 63 50 18749
9.3601322 2.4768443 3.0221887 569 95000740 5855 0 104 10143
9.4101477 2.8776331 2.9535444 684 95000740 7221 1 111 10274
9.5617266 3.321456 2.9309995 345 95000740 3837 2 59 10538
9.6715212 3.7734306 2.8999553 91 95000740 1052 3 57 10779
9.5992966 2.5453305 2.6827567 625 95000740 6613 4 126 10287
9.7472506 2.9760692 2.6446121 497 95000740 5514 5 67 10529
9.9539738 3.453428 2.6245816 47 95000740 555 6 106 10858
9.9499226 3.8704503 2.5520964 383 95000740 4621 7 60 10977
9.9206381 2.6325755 2.3652897 520 95000740 5770 8 109 10533
10.11958 3.0939989 2.3277655 24 95000740 277 9 49 10835
10.180853 3.5259712 2.2618287 384 95000740 4659 10 66 11009
10.291516 3.9929914 2.2098153 188 95000740 2378 11 42 11258
10.314898 2.7389324 2.0476363 166 95000740 1959 12 131 10867
10.393651 3.1734312 1.9731635 283 95000740 3457 13 77 11045
10.538381 3.6475291 1.9150219 304 95000740 3893 14 104 11315
10.669359 4.136591 1.8576969 143 95000740 1927 15 68 11593
10.65281 2.8284595 1.6984038 178 95000740 2220 16 62 11152
10.706918 3.2664232 1.615087 501 95000740 6411 17 100 11310
10.860348 3.7523894 1.5470188 75 95000740 1011 18 90 11594
10.966813 4.2442117 1.4703429 401 95000740 5633 19 108 11851
10.931343 2.9022095 1.3216211 462 95000740 5991 20 111 11387
11.074431 3.3766415 1.240168 175 95000740 2377 21 82 11644
11.163365 3.8511982 1.151432 275 95000740 3876 22 78 11865
11.314711 4.3718123 1.0695524 527 95000740 7810 23 153 12177
11.326694 3.0048454 0.93831909 345 95000740 4770 24 99 11756
11.516638 3.508177 0.8488251 96 95000740 1402 25 86 12069
11.581602 3.9950314 0.74653006 485 95000740 7303 26 135 12274
11.754303 4.533649 0.64856464 524 95000740 8337 27 121 12615
11.745804 3.1098869 0.52816629 115 95000740 1707 28 68 12162
11.834326 3.6004367 0.4192135 337 95000740 5155 29 54 12377
11.995645 4.1252069 0.3128981 519 95000740 8350 30 49 12689
12.172355 4.6897678 0.19490023 518 95000740 8817 31 109 13046
12.098977 3.2027173 0.087377459 113 95000740 1774 32 84 12516
12.2146 3.7112391 -0.032307234 484 95000740 7886 33 131 12766
12.432035 4.2735801 -0.15694584 489 95000740 8454 34 105 13147
12.354971 4.7509656 -0.28397751 40 95000740 705 35 92 13240
12.490762 3.2998955 -0.38366169 153 95000740 2553 36 137 12925
12.743543 3.8617496 -0.52085227 204 95000740 3623 37 111 13326
12.906525 4.430644 -0.66428947 506 95000740 9451 38 191 13662
12.911791 4.965343 -0.80466664 29 95000740 563 39 81 13857
12.986682 3.4200017 -0.89127731 466 95000740 8442 40 112 13459
13.203429 3.9945707 -1.0452009 533 95000740 10198 41 132 13834
13.390798 4.5927091 -1.2086623 480 95000740 9699 42 175 14208
13.493697 5.1807413 -1.3716565 26 95000740 556 43 70 14519
13.482512 3.5455446 -1.4391775 558 95000740 10956 44 143 14015
13.724672 4.146255 -1.6152805 489 95000740 10183 45 98 14428
13.969989 4.7831836 -1.804424 461 95000740 10197 46 145 14876
14.264585 5.4727159 -2.017406 409 95000740 9704 47 162 15411
14.043445 3.6804793 -2.0374906 467 95000740 10036 48 117 14660
14.29477 4.3116775 -2.2402265 423 95000740 9650 49 78 15098
14.571825 4.9807234 -2.4613686 263 95000740 6386 50 47 15595
14.905138 5.7136941 -2.7090685 428 95000740 11225 51 92 16191
14.633943 3.8213189 -2.6957431 415 95000740 9798 52 101 15363
14.945136 4.4995933 -2.9330459 410 95000740 10340 53 117 15881
14.873382 5.0785789 -3.108537 12 95000740 314 54 90 16021
15.626299 5.9904547 -3.483973 322 95000740 9417 55 85 17094
15.358166 4.0012717 -3.4429958 268 95000740 7058 56 160 16240
15.6751 4.7104168 -3.7111073 319 95000740 8997 57 68 16783
15.838844 5.4048452 -3.965389 13 95000740 395 58 75 17199
16.463413 6.3097205 -4.3632622 273 95000740 9013 59 90 18163
15.729341 4.0783381 -4.1700368 19 95000740 524 60 45 16776
16.518953 4.9489121 -4.598681 236 95000740 7506 61 39 17847
16.955404 5.7822261 -4.966711 228 95000740 7887 62 91 18590
17.077011 6.553092 -5.2763662 173 95000740 6283 63 71 19037
9.3418789 2.410778 3.0114622 601 95099140 6140 0 101 10107
9.4056053 2.8132524 2.946645 681 95099140 7155 1 118 10250
9.5382824 3.2478623 2.9176493 407 95099140 4483 2 67 10490
9.6729078 3.7057467 2.8934982 60 95099140 690 3 43 10755
9.6147337 2.4863825 2.6827567 659 95099140 6974 4 112 10287
9.7208099 2.9029109 2.632556 566 95099140 6222 5 65 10481
10.008047 3.4035335 2.6332831 19 95099140 226 6 111 10894
9.9516773 3.800997 2.5465164 386 95099140 4634 7 80 10953
9.9026423 2.5628645 2.3572054 595 95099140 6558 8 100 10497
10.093461 3.0184169 2.3174534 87 95099140 1008 9 40 10787
10.180055 3.4558856 2.2568979 292 95099140 3529 10 69 10985
10.315824 3.9297688 2.2098153 258 95099140 3276 11 61 11258
10.285875 2.6637716 2.0385919 279 95099140 3264 12 133 10819
10.401615 3.1062188 1.9710199 242 95099140 2952 13 60 11033
10.493363 3.5600002 1.9028363 391 95099140 4944 14 100 11243
10.617051 4.0415497 1.8442366 102 95099140 1357 15 65 11509
10.601077 2.745203 1.6874385 112 95099140 1370 16 50 11080
10.692615 3.1904774 1.6099461 500 95099140 6358 17 93 11274
10.883168 3.6856811 1.5470188 101 95099140 1361 18 83 11594
10.914732 4.1472349 1.459921 344 95099140 4764 19 112 11767
10.91433 2.8261185 1.3174428 411 95099140 5296 20 112 11351
11.106375 3.312036 1.241446 226 95099140 3072 21 105 11656
11.209414 3.7902799 1.1537611 210 95099140 2974 22 68 11889
11.330146 4.2980647 1.0684984 553 95099140 8191 23 177 12165
11.287017 2.9203084 0.93353009 411 95099140 5627 24 80 11696
11.515004 3.4306109 0.84713715 69 95099140 1003 25 97 12045
11.56051 3.9085476 0.74361068 448 95099140 6694 26 127 12226
11.725862 4.4402208 0.64547992 573 95099140 9033 27 104 12555
11.718232 3.0257683 0.52608174 163 95099140 2397 28 76 12114
11.8447 3.5243344 0.41880703 288 95099140 4408 29 78 12365
11.975259 4.0361996 0.31171447 533 95099140 8510 30 55 12641
12.156011 4.598011 0.19418314 544 95099140 9192 31 107 12998
12.071925 3.1164212 0.087042354 87 95099140 1355 32 99 12468
12.248644 3.6396399 -0.032337602 467 95099140 7624 33 122 12778
12.401168 4.1780629 -0.15622959 447 95099140 7655 34 122 13087
12.372665 4.6708302 -0.28372014 31 95099140 547 35 82 13228
12.510775 3.2231915 -0.38366169 237 95099140 3954 36 153 12925
12.45659 3.6914952 -0.50818861 39 95099140 666 37 69 13002
12.910748 4.3437238 -0.66312248 542 95099140 10081 38 228 13638
12.874769 4.8606367 -0.80048573 20 95099140 387 39 74 13785
12.97263 3.3313181 -0.88889331 419 95099140 7549 40 115 13423
13.170321 3.8965077 -1.0406678 544 95099140 10316 41 146 13774
13.418726 4.510458 -1.2086623 467 95099140 9418 42 165 14208
13.435802 5.0641408 -1.362587 32 95099140 674 43 69 14423
13.4462 3.4479265 -1.4330163 502 95099140 9773 44 136 13955
13.692676 4.0450721 -1.6085633 442 95099140 9131 45 81 14368
13.942613 4.6784296 -1.7971462 464 95099140 10185 46 122 14816
14.253364 5.3683143 -2.0111225 177 95099140 4176 47 123 15363
13.996681 3.5765886 -2.0274837 466 95099140 9918 48 107 14588
14.252663 4.203742 -2.2295432 418 95099140 9444 49 84 15026
14.557169 4.8761644 -2.4537928 420 95099140 10158 50 86 15547
14.862407 5.5929623 -2.6950138 366 95099140 9502 51 88 16107
14.588423 3.7139668 -2.683109 413 95099140 9659 52 102 15291
14.915896 4.3911538 -2.9219646 394 95099140 9863 53 108 15821
15.250335 5.1030235 -3.180716 48 95099140 1300 54 71 16393
15.607785 5.8737712 -3.4717443 323 95099140 9384 55 67 17034
15.302862 3.8867519 -3.4251869 301 95099140 7849 56 150 16156
15.636338 4.5943522 -3.6951864 356 95099140 9953 57 67 16711
15.639156 5.2297916 -3.9072878 13 95099140 361 58 51 16947
16.425501 6.1798706 -4.3430829 252 95099140 8245 59 87 18079
10.153373 2.5662053 -2.6875558 29 95099140 334 60 54 10812
16.493372 4.8311644 -4.5832205 268 95099140 8492 61 69 17787
16.924761 5.6560898 -4.947475 97 95099140 3339 62 73 18518
17.375851 6.5457373 -5.3561893 181 95099140 6775 63 66 19325
9.3342772 2.3478236 3.0043111 610 95195850 6204 0 87 10083
9.4116583 2.7522619 2.9431953 701 95195850 7347 1 129 10238
9.5470972 3.1856272 2.9143114 487 95195850 5352 2 63 10478
9.6089211 3.6137779 2.8676708 25 95195850 289 3 70 10659
9.5961084 2.4188461 2.6733682 675 95195850 7095 4 90 10251
9.7161388 2.8367 2.6265278 582 95195850 6369 5 61 10457
9.8519926 3.2831597 2.5868733 58 95195850 668 6 75 10702
9.9638853 3.7357662 2.5437267 325 95195850 3893 7 90 10941
9.9068432 2.4991946 2.3545108 592 95195850 6509 8 104 10485
10.066795 2.9432721 2.3071411 165 95195850 1908 9 64 10739
10.156492 3.3785293 2.247036 241 95195850 2888 10 64 10937
10.273615 3.8416708 2.1956825 332 95195850 4149 11 50 11186
10.233467 2.5833015 2.0250251 391 95195850 4516 12 113 10747
10.397811 3.0357192 1.9667323 165 95195850 2004 13 72 11009
10.492564 3.4880853 1.8987744 402 95195850 5059 14 117 11219
10.686031 3.9929123 1.8519281 72 95195850 963 15 102 11557
10.629221 2.683007 1.6892661 83 95195850 1015 16 56 11092
10.666383 3.1115048 1.6030917 487 95195850 6139 17 101 11226
10.860428 3.6038516 1.540614 163 95195850 2177 18 83 11546
10.95113 4.0843463 1.4614098 292 95195850 4052 19 112 11779
10.908353 2.7532625 1.3146572 381 95195850 4888 20 116 11327
11.092124 3.2338078 1.2376118 310 95195850 4189 21 92 11620
11.243797 3.7251852 1.1549257 142 95195850 2016 22 75 11901
11.311496 4.2117786 1.0642823 503 95195850 7380 23 158 12117
11.269928 2.8422222 0.93065673 490 95195850 6665 24 87 11660
11.455387 3.3364601 0.84122932 70 95195850 1003 25 102 11961
11.584275 3.8375401 0.74361068 376 95195850 5619 26 120 12226
11.741652 4.3640132 0.64486295 516 95195850 8115 27 130 12543
11.666821 2.9362535 0.522955 228 95195850 3312 28 67 12042
11.831553 3.4415412 0.4175877 218 95195850 3306 29 57 12329
11.965625 3.9513595 0.31082675 511 95195850 8127 30 58 12605
12.161498 4.5149851 0.1938246 566 95195850 9530 31 97 12974
12.183915 3.0657153 0.087712556 55 95195850 868 32 115 12564
12.224651 3.5510254 -0.032216128 366 95195850 5931 33 121 12730
12.426571 4.101892 -0.15622959 452 95195850 7743 34 110 13087
12.333593 4.5698156 -0.28217584 25 95195850 436 35 91 13156
12.483782 3.1346815 -0.3822369 191 95195850 3163 36 146 12877
12.352316 3.5782928 -0.50302935 33 95195850 554 37 65 12870
12.868857 4.2419095 -0.65962166 531 95195850 9765 38 159 13566
13.095318 4.8523078 -0.8123318 217 95195850 4253 39 77 13989
12.946365 3.2400291 -0.88571471 362 95195850 6472 40 136 13375
13.136507 3.7990017 -1.0361346 516 95195850 9706 41 108 13714
13.378009 4.4055982 -1.2025373 519 95195850 10363 42 157 14136
13.309763 4.9235792 -1.3467156 25 95195850 515 43 74 14255
13.455523 3.3624632 -1.431784 401 95195850 7796 44 118 13943
13.682868 3.9510548 -1.604533 532 95195850 10936 45 67 14332
13.925794 4.5779114 -1.7913239 484 95195850 10558 46 107 14768
13.940113 5.1528878 -1.962425 24 95195850 535 47 138 14991
14.006832 3.4877679 -2.0258162 484 95195850 10280 48 129 14576
14.255383 4.1096358 -2.2259822 437 95195850 9843 49 74 15002
14.553038 4.7756672 -2.4481108 418 95195850 10045 50 54 15511
14.885347 5.4975643 -2.693006 377 95195850 9775 51 75 16095
14.576538 3.6158512 -2.6767924 404 95195850 9400 52 126 15255
14.931226 4.296288 -2.9197483 399 95195850 9976 53 95 15809
15.214241 4.9873514 -3.1667459 355 95195850 9465 54 76 16321
15.58843 5.7575417 -3.4595156 324 95195850 9345 55 75 16974
15.28089 3.7815139 -3.4150109 375 95195850 9726 56 133 16108
15.630489 4.4886327 -3.6872261 327 95195850 9100 57 83 16675
0 0 -0 6 95195850 0 58 53 0
16.397545 6.0547595 -4.3257866 265 95195850 8605 59 70 18007
10.146356 2.4982991 -2.6815898 84 95195850 973 60 47 10788
16.411236 4.6979618 -4.5523 233 95195850 7259 61 48 17667
16.442623 5.3830342 -4.7967901 10 95195850 334 62 74 17954
17.339989 6.4110093 -5.3329077 185 95195850 6862 63 74 19241
9.3151302 2.2823274 2.9935849 606 95295220 6118 0 99 10047
9.395216 2.6849866 2.9328461 723 95295220 7526 1 110 10202
9.533596 3.1162436 2.9042985 519 95295220 5664 2 65 10442
9.6309137 3.5547504 2.8676708 88 95295220 995 3 48 10659
9.6107693 2.35992 2.6733682 646 95295220 6789 4 104 10251
9.699852 2.7674689 2.6174853 630 95295220 6836 5 55 10421
9.8166056 3.2045796 2.5723701 133 95295220 1507 6 105 10642
9.9647131 3.6664979 2.5381467 306 95295220 3651 7 79 10917
9.8992805 2.4327788 2.3491211 617 95295220 6754 8 95 10461
10.073397 2.8782282 2.304563 262 95295220 3020 9 65 10727
