# .PCD v0.7 - Point Cloud Data file format
VERSION 0.7
FIELDS x y z intensity t reflectivity ring noise range
SIZE 4 4 4 4 4 2 1 2 4
TYPE F F F F U U U U U
COUNT 1 1 1 1 1 1 1 1 1
WIDTH 815
HEIGHT 1
VIEWPOINT 0 0 0 1 0 0 0
POINTS 815
DATA ascii
1.7203784 0.20342992 0.075303435 213 97148410 64 28 22 1734
1.6521976 0.25682941 0.056665119 167 97148410 47 29 17 1673
1.642363 0.31602401 0.041254513 164 97148410 46 30 32 1673
1.6154246 0.37249729 0.02476963 168 97148410 46 31 53 1658
1.632596 0.19296321 0.011477192 159 97148410 43 32 75 1644
1.6107429 0.2497808 -0.0041250815 166 97148410 44 33 30 1630
1.562265 0.30041361 -0.01899299 158 97148410 40 34 70 1591
1.5472689 0.35572925 -0.034060143 153 97148410 39 35 71 1588
1.5615282 0.1837897 -0.046692446 133 97148410 33 36 103 1573
1.4990947 0.23134212 -0.059331667 178 97148410 41 37 37 1518
1.5125886 0.29020417 -0.074976891 153 97148410 36 38 93 1542
1.4331206 0.329512 -0.085536122 101 97148410 22 39 74 1473
1.4578434 0.1704254 -0.097412057 161 97148410 35 40 77 1471
1.4763467 0.22714576 -0.11317848 143 97148410 32 41 69 1498
1.4678707 0.28119966 -0.12760369 98 97148410 22 42 134 1500
1.4428847 0.33093518 -0.14048165 44 97148410 10 43 59 1487
1.457338 0.16985068 -0.15146536 151 97148410 33 44 75 1475
1.4301083 0.21944404 -0.16300586 93 97148410 20 45 43 1456
1.42348 0.27192315 -0.17709458 49 97148410 10 46 95 1460
0 0 -0 0 97148410 0 47 105 0
1.3300062 0.15388109 -0.187905 104 97148410 19 48 58 1352
1.3509812 0.20669901 -0.20505981 33 97148410 6 49 44 1382
1.3570646 0.25849959 -0.22080505 63 97148410 12 50 47 1399
0 0 -0 4 97148410 0 51 52 0
1.4230791 0.16336605 -0.2553086 27 97148410 6 52 80 1455
1.3572794 0.20695964 -0.25801054 53 97148410 10 53 63 1397
1.2846471 0.24428698 -0.25864053 52 97148410 9 54 74 1333
0 0 -0 3 97148410 0 55 52 0
1.3904058 0.1588285 -0.3035942 46 97148410 9 56 90 1432
1.3720272 0.20847334 -0.31465805 42 97148410 8 57 52 1423
1.1959101 0.22717497 -0.28842965 30 97148410 5 58 37 1251
0 0 -0 4 97148410 0 59 74 0
1.2358282 0.13970701 -0.31916589 30 97148410 5 60 22 1284
1.3213032 0.19963372 -0.35636103 16 97148410 3 61 35 1383
1.297053 0.24613008 -0.36602443 54 97148410 10 62 60 1370
1.2296818 0.28180981 -0.36391601 91 97148410 16 63 60 1313
2.1088696 0.23595832 0.66236073 148 97245020 73 0 74 2223
2.0135405 0.30330405 0.61117727 121 97245020 55 1 77 2126
5.2115746 0.98645073 1.5358683 140 97245020 428 2 62 5522
5.2532058 1.2008471 1.5052649 392 97245020 1229 3 61 5595
2.0981073 0.23582946 0.57034981 144 97245020 69 4 56 2187
4.8635683 0.73043984 1.2762157 233 97245020 603 5 63 5081
5.3185492 1.0045837 1.3483068 184 97245020 573 6 88 5578
5.9262986 1.3484005 1.4528605 167 97245020 653 7 79 6249
2.1119525 0.23779628 0.48976514 146 97245020 70 8 82 2181
4.8896551 0.73627764 1.0877228 225 97245020 578 9 83 5063
5.4060588 1.0180838 1.1548496 197 97245020 624 10 71 5621
6.0495505 1.3708923 1.2417207 173 97245020 691 11 40 6326
4.6677451 0.52630937 0.90124637 108 97245020 246 12 157 4783
2.094871 0.31462029 0.38462844 174 97245020 81 13 67 2153
2.0330567 0.3824667 0.355248 210 97245020 93 14 82 2099
1.9533643 0.44215128 0.32513303 194 97245020 80 15 50 2029
1.9838693 0.22365518 0.30763769 71 97245020 29 16 44 2020
1.9321665 0.28973606 0.28189054 197 97245020 77 17 73 1974
1.8955442 0.35553551 0.25966004 198 97245020 75 18 52 1946
1.9000349 0.42886004 0.24354763 179 97245020 69 19 88 1963
1.9414121 0.21883439 0.22829795 187 97245020 72 20 55 1967
1.8801481 0.28163373 0.20364144 177 97245020 65 21 59 1912
1.8401977 0.34425688 0.18254055 209 97245020 74 22 71 1881
1.7813267 0.4010534 0.16099939 166 97245020 56 23 119 1833
1.8147027 0.20419899 0.14622326 172 97245020 58 24 28 1832
1.7491639 0.261545 0.1246969 188 97245020 59 25 43 1773
1.7523057 0.32775113 0.10862822 186 97245020 59 26 104 1786
1.6984135 0.38132727 0.089611426 167 97245020 51 27 82 1743
1.7335083 0.19420478 0.075824559 211 97245020 64 28 27 1746
1.6656042 0.2484563 0.057071563 150 97245020 43 29 21 1685
1.667859 0.31032959 0.041846327 135 97245020 39 30 41 1697
1.6176798 0.36257821 0.02476963 163 97245020 45 31 58 1658
1.6218241 0.18160681 0.011393418 161 97245020 43 32 68 1632
1.6359838 0.24342492 -0.0041858186 172 97245020 47 33 36 1654
1.5640789 0.29082209 -0.01899299 142 97245020 36 34 72 1591
1.5025885 0.33576334 -0.033030618 160 97245020 38 35 60 1540
1.5626266 0.17420489 -0.046692446 133 97245020 33 36 106 1573
1.5835168 0.23443179 -0.062614843 169 97245020 43 37 21 1602
1.5143408 0.28091764 -0.074976891 148 97245020 35 38 91 1542
1.516955 0.33900145 -0.090413943 108 97245020 26 39 61 1557
1.4588616 0.16147703 -0.097412057 140 97245020 30 40 80 1471
1.4658751 0.2163358 -0.11227184 151 97245020 33 41 88 1486
1.4695685 0.27218768 -0.12760369 111 97245020 25 42 134 1500
1.3516067 0.30128253 -0.13141222 34 97245020 6 43 55 1391
1.4346237 0.1582873 -0.14900084 161 97245020 34 44 88 1451
1.4196304 0.20892869 -0.1616624 122 97245020 26 45 58 1444
1.4251218 0.26318371 -0.17709458 35 97245020 8 46 92 1460
1.2686533 0.28246623 -0.17161892 65 97245020 11 47 125 1311
1.3663641 0.14959747 -0.19290838 136 97245020 26 48 71 1388
1.3169997 0.19323735 -0.19971818 27 97245020 5 49 50 1346
1.3469715 0.24802211 -0.21891108 67 97245020 13 50 53 1387
0 0 -0 2 97245020 0 51 79 0
1.3770757 0.14952989 -0.24688604 29 97245020 6 52 72 1407
1.4052017 0.20545234 -0.26687559 45 97245020 9 53 81 1445
1.2282318 0.22575927 -0.24699879 56 97245020 9 54 65 1273
0 0 -0 0 97245020 0 55 48 0
1.414673 0.15281303 -0.30868238 39 97245020 8 56 91 1456
1.3153768 0.19161578 -0.30139065 48 97245020 9 57 48 1363
1.1283731 0.20718049 -0.27182937 30 97245020 4 58 45 1179
1.2347078 0.27445593 -0.31301716 67 97245020 11 59 72 1303
1.3060076 0.13953017 -0.33706304 23 97245020 4 60 27 1356
1.2880782 0.18653721 -0.34708485 24 97245020 4 61 36 1347
1.2075462 0.22147779 -0.34037599 54 97245020 9 62 60 1274
1.332675 0.29681835 -0.3938497 103 97245020 21 63 59 1421
2.0419285 0.21579097 0.64090776 180 97344450 83 0 53 2151
1.9812372 0.28601688 0.60082811 98 97344450 43 1 80 2090
5.1494994 0.94200963 1.5158424 90 97344450 266 2 50 5450
5.2604752 1.1685915 1.5052649 347 97344450 1085 3 57 5595
2.122555 0.22539794 0.57660884 169 97344450 83 4 74 2211
2.0512297 0.29520759 0.53776377 57 97344450 26 5 61 2141
5.2444291 0.95729446 1.3280025 107 97344450 323 6 121 5494
5.797709 1.2817785 1.4193813 210 97344450 784 7 75 6105
2.1598837 0.22978128 0.50054401 129 97344450 64 8 83 2229
4.847682 0.69956571 1.0774107 245 97344450 617 9 77 5015
5.3082156 0.96597034 1.1326607 205 97344450 622 10 48 5513
5.9199524 1.3033868 1.2134551 203 97344450 774 11 47 6182
1.928706 0.20549363 0.37214336 95 97344450 37 12 106 1975
2.0967619 0.30176046 0.38462844 67 97344450 31 13 58 2153
1.9888204 0.36152405 0.34712416 217 97344450 91 14 76 2051
1.9444721 0.42761332 0.32321012 226 97344450 92 15 41 2017
2.055964 0.21901602 0.31860298 216 97344450 95 16 16 2092
1.9339079 0.27787507 0.28189054 197 97344450 77 17 68 1974
1.9444983 0.35238054 0.26606479 194 97344450 77 18 60 1994
1.8793688 0.41209289 0.24056998 173 97344450 65 19 68 1939
1.9071627 0.20313098 0.22411963 205 97344450 76 20 36 1931
1.8582194 0.26670182 0.20108528 181 97344450 65 21 67 1888
1.8070165 0.32658675 0.17904694 200 97344450 68 22 82 1845
1.7720764 0.38756192 0.15994538 194 97344450 64 23 97 1821
1.8159215 0.19306034 0.14622326 167 97344450 56 24 38 1832
1.762585 0.25250491 0.12554087 186 97344450 59 25 51 1785
1.73071 0.31273329 0.10716849 173 97344450 54 26 117 1762
1.7241392 0.37600589 0.090845324 174 97344450 54 27 78 1767
1.7346674 0.18356451 0.075824559 183 97344450 56 28 33 1746
1.7027149 0.24332149 0.058290895 150 97344450 44 29 18 1721
1.6461174 0.2958459 0.041254513 146 97344450 41 30 37 1673
1.6081499 0.35009316 0.024590356 155 97344450 42 31 80 1646
1.6229079 0.17165208 0.011393418 157 97344450 42 32 47 1632
1.5661671 0.22322281 -0.0040036067 152 97344450 38 33 57 1582
1.6012646 0.28758284 -0.019422751 156 97344450 41 34 71 1627
1.5749663 0.341804 -0.034574907 164 97344450 43 35 69 1612
1.5994524 0.16838089 -0.04776106 130 97344450 34 36 91 1609
1.5730532 0.22302786 -0.062145814 144 97344450 36 37 47 1590
1.5514297 0.27796188 -0.076727331 170 97344450 42 38 98 1578
1.4487634 0.31444153 -0.086232953 117 97344450 26 39 63 1485
1.531278 0.159988 -0.10218002 175 97344450 42 40 69 1543
1.479023 0.20901161 -0.11317848 163 97344450 37 41 72 1498
1.471211 0.26316547 -0.12760369 123 97344450 28 42 147 1500
1.3884577 0.30056617 -0.13481326 27 97344450 5 43 56 1427
1.435568 0.14948164 -0.14900084 167 97344450 35 44 69 1451
1.4208857 0.20021406 -0.1616624 126 97344450 26 45 49 1444
1.3328987 0.23770446 -0.16545002 30 97344450 6 46 101 1364
1.3633868 0.29479021 -0.18418598 59 97344450 12 47 122 1407
1.3790771 0.14243165 -0.19457619 144 97344450 28 48 55 1400
1.3769195 0.19340621 -0.20862091 28 97344450 5 49 49 1406
1.3718011 0.24390113 -0.222699 53 97344450 11 50 59 1411
0 0 -0 0 97344450 0 51 44 0
1.3074529 0.13385817 -0.23425221 36 97344450 6 52 82 1335
1.3129981 0.18374996 -0.24914546 49 97344450 9 53 78 1349
1.3107299 0.23261811 -0.26329723 69 97344450 13 54 76 1357
0 0 -0 3 97344450 0 55 52 0
1.4505847 0.14769354 -0.31631464 35 97344450 8 56 104 1492
1.4208455 0.19808441 -0.32527193 48 97344450 10 57 29 1471
1.2331002 0.21859682 -0.29672977 27 97344450 4 58 40 1287
0 0 -0 0 97344450 0 59 75 0
1.4109238 0.14198861 -0.36390877 22 97344450 5 60 22 1464
1.1513777 0.15953387 -0.30998001 27 97344450 4 61 35 1203
1.2430425 0.22011317 -0.34999415 44 97344450 7 62 48 1310
1.2781247 0.27644834 -0.37721986 70 97344450 13 63 50 1361
2.0774105 0.20665967 0.65163428 190 97441720 91 0 41 2187
1.9943401 0.27542719 0.60427779 137 97441720 61 1 70 2102
2.0336957 0.35914671 0.5979929 63 97441720 29 2 30 2150
5.2901421 1.1411661 1.5117217 373 97441720 1179 3 63 5619
2.1469526 0.21467517 0.5828678 166 97441720 83 4 76 2235
2.0184822 0.27786386 0.52872145 137 97441720 61 5 34 2105
2.0622387 0.3633709 0.52162892 214 97441720 100 6 81 2158
5.6799407 1.2192358 1.3886919 194 97441720 693 7 74 5973
2.1263471 0.21302713 0.49245986 180 97441720 87 8 71 2193
4.7706156 0.65858859 1.0593643 231 97441720 563 9 74 4931
5.2793422 0.92728651 1.1252644 176 97441720 529 10 69 5477
5.8357854 1.2473624 1.1946114 182 97441720 672 11 51 6086
1.953383 0.19600873 0.37666559 133 97441720 53 12 90 1999
2.0283942 0.27922836 0.37176579 47 97441720 20 13 53 2081
2.0142992 0.3534016 0.35118607 189 97441720 81 14 90 2075
1.9586431 0.41814721 0.32513303 214 97441720 88 15 37 2029
2.0218668 0.20284498 0.31312034 183 97441720 77 16 23 2056
1.92381 0.26438656 0.28017691 207 97441720 80 17 61 1962
1.9231942 0.33634511 0.26286244 185 97441720 72 18 69 1970
1.9168011 0.40799034 0.24503647 204 97441720 80 19 64 1975
1.9083732 0.19142501 0.22411963 219 97441720 82 20 53 1931
1.836179 0.25204968 0.19852911 175 97441720 61 21 62 1864
1.8678153 0.32575288 0.18486962 200 97441720 72 22 57 1905
1.8095002 0.38412809 0.1631074 200 97441720 69 23 107 1857
1.7932675 0.17953125 0.14430767 159 97441720 52 24 41 1808
1.7759607 0.2433099 0.12638484 192 97441720 62 25 64 1797
1.744396 0.30416545 0.10789835 187 97441720 59 26 89 1774
1.7146895 0.36293808 0.090228379 171 97441720 53 27 76 1755
1.6880425 0.1681636 0.073740043 194 97441720 56 28 38 1698
1.7041758 0.23286924 0.058290895 146 97441720 43 29 1 1721
1.6715416 0.289839 0.041846327 155 97441720 45 30 33 1697
1.6454862 0.34766015 0.025128176 198 97441720 56 31 54 1682
1.6239306 0.16169086 0.011393418 131 97441720 35 32 69 1632
1.6031775 0.21846966 -0.0040947124 177 97441720 46 33 52 1618
1.56753 0.27160653 -0.01899299 141 97441720 36 34 72 1591
1.4831163 0.31235406 -0.032515854 150 97441720 35 35 73 1516
1.5646466 0.15501593 -0.046692446 135 97441720 33 36 113 1573
1.56251 0.21176124 -0.061676789 155 97441720 38 37 56 1578
1.5294846 0.26435456 -0.075560369 140 97441720 34 38 85 1554
1.415498 0.29813901 -0.084142461 138 97441720 29 39 63 1449
1.5322309 0.15058924 -0.10218002 163 97441720 39 40 57 1543
1.5039936 0.20313576 -0.11499175 151 97441720 35 41 69 1522
1.4963627 0.25819945 -0.12964535 136 97441720 32 42 136 1524
1.4370403 0.30186448 -0.13934797 48 97441720 11 43 59 1475
1.4602175 0.14299707 -0.15146536 148 97441720 32 44 82 1475
1.457541 0.19626592 -0.16569276 131 97441720 29 45 47 1480
1.4752001 0.25375247 -0.18291686 49 97441720 11 46 86 1508
1.318597 0.27664787 -0.17790245 62 97441720 11 47 114 1359
1.4272368 0.13856027 -0.20124736 148 97441720 31 48 65 1448
1.472174 0.19758239 -0.2228653 38 97441720 8 49 39 1502
1.4083093 0.24148731 -0.2283809 64 97441720 13 50 44 1447
0 0 -0 0 97441720 0 51 60 0
1.3200092 0.12696438 -0.23635787 54 97441720 10 52 89 1347
1.3257903 0.17725295 -0.25136173 39 97441720 7 53 71 1361
1.2657194 0.21662766 -0.25398383 70 97441720 12 54 72 1309
0 0 -0 2 97441720 0 55 73 0
1.3347239 0.12762739 -0.29087377 19 97441720 4 56 74 1372
1.2596265 0.16773583 -0.28812328 46 97441720 8 57 71 1303
1.2919669 0.22086461 -0.31056336 32 97441720 6 58 38 1347
0 0 -0 2 97441720 0 59 58 0
1.3307654 0.12567866 -0.34302875 34 97441720 6 60 35 1380
1.3017648 0.17223732 -0.35017693 31 97441720 6 61 35 1359
0 0 -0 0 97441720 0 62 46 0
1.1895247 0.24965459 -0.35061216 92 97441720 15 63 66 1265
2.0786393 0.19390903 0.65163428 188 97540530 90 0 66 2187
1.9504133 0.25717506 0.5904789 155 97540530 66 1 68 2054
1.9449576 0.3311826 0.57129186 61 97540530 26 2 69 2054
5.2970448 1.1086849 1.5117217 365 97540530 1151 3 41 5619
2.1251612 0.19933395 0.57660884 177 97540530 87 4 69 2211
2.0431819 0.26850027 0.53474969 131 97540530 59 5 31 2129
2.0185111 0.3429096 0.51002645 175 97540530 78 6 160 2110
5.6073332 1.1677054 1.3691624 231 97540530 802 7 70 5889
2.1159718 0.19888183 0.48976514 154 97540530 73 8 92 2181
1.9859332 0.26175278 0.44063196 43 97540530 18 9 79 2051
5.2270365 0.88507235 1.1129372 38 97540530 113 10 63 5417
5.7281137 1.1876429 1.1710567 214 97540530 760 11 38 5966
1.9310826 0.18180998 0.37214336 90 97540530 35 12 111 1975
2.1003072 0.27600726 0.38462844 203 97540530 94 13 39 2153
2.0047684 0.3390632 0.34915513 201 97540530 86 14 85 2063
1.9147766 0.39651373 0.31744134 217 97540530 85 15 59 1981
1.9049953 0.17932034 0.29484484 139 97540530 52 16 18 1936
1.9607245 0.25721174 0.28531778 181 97540530 72 17 48 1998
1.9486762 0.32849202 0.26606479 198 97540530 79 18 54 1994
1.8842843 0.3889991 0.24056998 185 97540530 70 19 73 1939
1.9807105 0.18641265 0.23247623 85 97540530 34 20 59 2003
1.8376911 0.24077836 0.19852911 197 97540530 68 21 45 1864
1.8108881 0.30438727 0.17904694 194 97540530 66 22 67 1845
1.7766989 0.36578661 0.15994538 175 97540530 58 23 108 1821
1.8062445 0.16964312 0.14526546 188 97540530 62 24 40 1820
1.8011587 0.2355122 0.12807278 184 97540530 61 25 44 1821
1.7698538 0.29742643 0.10935809 180 97540530 58 26 122 1798
1.681666 0.34518117 0.088377535 166 97540530 49 27 94 1719
1.712916 0.16003324 0.074782304 197 97540530 58 28 19 1722
1.658003 0.21620511 0.056665119 141 97540530 39 29 23 1673
1.6614562 0.2776002 0.04155042 159 97540530 45 30 30 1685
1.6240796 0.3327406 0.02476963 186 97540530 51 31 65 1658
1.6248921 0.15172356 0.011393418 155 97540530 41 32 41 1632
1.6282876 0.21172327 -0.00415545 144 97540530 39 33 55 1642
1.569167 0.26198325 -0.01899299 149 97540530 38 34 66 1591
1.5085143 0.30804873 -0.033030618 146 97540530 35 35 78 1540
1.6013982 0.14874047 -0.04776106 151 97540530 39 36 97 1609
1.5518881 0.20063247 -0.061207768 142 97540530 35 37 33 1566
1.495609 0.24905832 -0.073809944 144 97540530 33 38 95 1518
1.4407755 0.29424223 -0.085536122 119 97540530 26 39 63 1473
1.533126 0.14118481 -0.10218002 165 97540530 39 40 53 1543
1.4458735 0.18625957 -0.11045856 137 97540530 29 41 71 1462
1.4625349 0.24313088 -0.12658286 131 97540530 29 42 160 1488
1.3569233 0.27635282 -0.13141222 64 97540530 12 43 39 1391
1.4254074 0.13076331 -0.14776857 149 97540530 31 44 74 1439
1.435063 0.18428133 -0.16300586 134 97540530 28 45 53 1456
1.453227 0.24080168 -0.18000573 71 97540530 16 46 109 1484
1.3669016 0.27803716 -0.18418598 45 97540530 9 47 116 1407
1.3807211 0.12549753 -0.19457619 140 97540530 27 48 79 1400
1.355647 0.17348202 -0.20505981 56 97540530 11 49 52 1382
1.3162349 0.21739386 -0.21322918 39 97540530 7 50 68 1351
1.2202775 0.24785799 -0.21132441 68 97540530 11 51 58 1263
1.4031273 0.12627493 -0.25109732 64 97540530 13 52 83 1431
1.2917562 0.16464144 -0.24471292 42 97540530 7 53 55 1325
1.3251009 0.21843056 -0.26562557 82 97540530 15 54 54 1369
0 0 -0 0 97540530 0 55 52 0
1.3121207 0.11734603 -0.28578559 22 97540530 4 56 97 1348
1.260632 0.16000375 -0.28812328 48 97540530 8 57 40 1303
1.2817762 0.21103613 -0.30779663 36 97540530 6 58 60 1335
0 0 -0 3 97540530 0 59 71 0
1.3315115 0.11751087 -0.34302875 29 97540530 5 60 28 1380
1.3143009 0.1656969 -0.35326898 34 97540530 6 61 27 1371
0 0 -0 0 97540530 0 62 41 0
1.1571391 0.23545416 -0.34063426 68 97540530 10 63 64 1229
1.9999079 0.17419331 0.62660581 177 97638210 78 0 54 2103
2.0089736 0.25236538 0.60772753 207 97638210 93 1 85 2114
4.9384737 0.80976266 1.4490898 124 97638210 336 2 40 5210
5.3264008 1.0807585 1.5181786 392 97638210 1250 3 63 5643
2.0686414 0.18123507 0.56096137 129 97638210 60 4 90 2151
2.1024177 0.26317194 0.54982013 129 97638210 62 5 28 2189
4.9968586 0.81736588 1.2612882 193 97638210 526 6 94 5218
5.5343094 1.1171125 1.3496329 199 97638210 671 7 91 5805
2.0006654 0.1756667 0.46281797 62 97638210 26 8 85 2061
1.9409878 0.24372183 0.43031973 75 97638210 30 9 27 2003
2.0448449 0.33335158 0.43494335 84 97638210 38 10 38 2117
5.6199336 1.1292927 1.1475022 206 97638210 703 11 38 5846
1.8265043 0.16066375 0.35179323 80 97638210 28 12 87 1867
2.055099 0.25724879 0.37605333 259 97638210 115 13 63 2105
2.0184841 0.32865644 0.35118607 217 97638210 94 14 74 2075
1.9868538 0.39874157 0.32897887 246 97638210 103 15 48 2053
2.0242038 0.17801829 0.31312034 148 97638210 62 16 30 2056
1.9033388 0.23781347 0.27674967 210 97638210 79 17 56 1938
1.9271768 0.31271923 0.26286244 171 97638210 66 18 57 1970
1.8749597 0.37509421 0.23908114 204 97638210 76 19 66 1927
1.7324821 0.1523324 0.2032281 37 97638210 11 20 89 1751
1.8864934 0.23540777 0.20364144 196 97638210 71 21 52 1912
1.8245119 0.29517761 0.18021148 190 97638210 66 22 75 1857
1.7906325 0.35721669 0.16099939 179 97638210 60 23 126 1833
1.8191675 0.15960245 0.14622326 211 97638210 71 24 37 1832
1.7788128 0.22149782 0.12638484 166 97638210 53 25 42 1797
1.7361732 0.28082359 0.10716849 206 97638210 64 26 111 1762
1.6955063 0.33719373 0.088994481 180 97638210 54 27 94 1731
1.6899791 0.14743607 0.073740043 193 97638210 56 28 28 1698
1.7307087 0.21489443 0.059103783 162 97638210 49 29 3 1745
1.7105052 0.2750178 0.042734053 160 97638210 48 30 32 1733
1.6025525 0.318097 0.024411082 167 97638210 44 31 55 1634
1.6497012 0.14383514 0.011560968 135 97638210 37 32 58 1656
1.6057378 0.19877976 -0.0040947124 172 97638210 45 33 38 1618
1.570745 0.25235009 -0.01899299 161 97638210 41 34 85 1591
1.5221452 0.30111507 -0.033287998 151 97638210 36 35 66 1552
1.6022807 0.13891166 -0.04776106 168 97638210 44 36 108 1609
1.564991 0.19257089 -0.061676789 159 97638210 40 37 22 1578
1.5326135 0.2455655 -0.075560369 118 97638210 29 38 90 1554
1.5365697 0.30399644 -0.091110781 147 97638210 36 39 41 1569
1.4981743 0.1287006 -0.099796042 168 97638210 38 40 52 1507
1.5301268 0.18757607 -0.11680502 150 97638210 36 41 58 1546
1.4876121 0.23792902 -0.12862453 153 97638210 35 42 143 1512
1.3820344 0.2726461 -0.13367958 78 97638210 16 43 41 1415
1.4618623 0.12506719 -0.15146536 151 97638210 33 44 75 1475
1.4361666 0.17547248 -0.16300586 144 97638210 30 45 49 1456
1.4429144 0.23000528 -0.17855017 71 97638210 15 46 99 1472
1.4386159 0.28344324 -0.19361128 46 97638210 10 47 110 1479
1.4288297 0.12103544 -0.20124736 139 97638210 29 48 76 1448
1.5333889 0.18667217 -0.23176803 74 97638210 18 49 40 1562
1.4111667 0.224187 -0.2283809 38 97638210 8 50 48 1447
1.2449921 0.24493338 -0.21534008 67 97638210 11 51 59 1287
1.2979227 0.10878288 -0.23214659 68 97638210 12 52 70 1323
1.3512814 0.16380867 -0.25579426 33 97638210 6 53 71 1385
1.2682825 0.20107903 -0.25398383 69 97638210 12 54 71 1309
0 0 -0 2 97638210 0 55 62 0
1.4296839 0.11902212 -0.31122646 19 97638210 4 56 101 1468
1.3196832 0.1592771 -0.30139065 38 97638210 7 57 54 1363
1.2599809 0.19951488 -0.30226323 47 97638210 8 58 53 1311
0 0 -0 3 97638210 0 59 56 0
1.3437918 0.11028942 -0.34601161 16 97638210 3 60 39 1392
1.4189045 0.17004658 -0.38109761 35 97638210 8 61 19 1479
0 0 -0 0 97638210 0 62 67 0
1.2829967 0.25287539 -0.37721986 64 97638210 12 63 60 1361
2.035192 0.16469061 0.63733232 142 97735330 65 0 59 2139
2.0675464 0.24684648 0.62497616 251 97735330 119 1 68 2174
4.8294911 0.76149285 1.4157134 184 97735330 476 2 45 5090
5.2762289 1.0369123 1.5020363 189 97735330 588 3 47 5583
1.8965167 0.15443505 0.51401901 71 97735330 28 4 82 1971
2.1270609 0.25301069 0.5558483 140 97735330 68 5 30 2213
4.9097576 0.77221692 1.2380831 231 97735330 606 6 117 5122
5.4150615 1.0585042 1.3189435 220 97735330 709 7 70 5673
1.9084675 0.15577707 0.44126025 70 97735330 27 8 70 1965
1.9075352 0.22764128 0.42258561 77 97735330 30 9 29 1967
2.0584543 0.32261679 0.4374088 83 97735330 37 10 53 2129
5.5228076 1.0745629 1.1263031 196 97735330 644 11 47 5738
1.8274558 0.14945352 0.35179323 116 97735330 41 12 82 1867
2.0918117 0.24881788 0.38248464 236 97735330 108 13 40 2141
2.0672014 0.3235811 0.35930991 205 97735330 92 14 83 2123
1.9892631 0.38654295 0.32897887 205 97735330 86 15 41 2053
2.001617 0.16366164 0.30946526 229 97735330 95 16 23 2032
1.9755273 0.23453145 0.28703138 154 97735330 62 17 51 2010
1.9290594 0.30088839 0.26286244 209 97735330 81 18 72 1970
1.8421558 0.35679018 0.23461466 202 97735330 72 19 57 1891
1.9353318 0.15820786 0.22690517 124 97735330 48 20 62 1955
1.8997512 0.22523282 0.20491955 191 97735330 71 21 75 1924
1.8498917 0.28764719 0.18254055 179 97735330 63 22 77 1881
1.7927907 0.34622285 0.16099939 179 97735330 60 23 99 1833
1.8797232 0.15329872 0.15101223 175 97735330 63 24 30 1892
1.7563636 0.20776665 0.1246969 155 97735330 49 25 67 1773
1.7023567 0.26464552 0.1049789 163 97735330 49 26 109 1726
1.7328476 0.33358014 0.090845324 166 97735330 52 27 81 1767
1.7147509 0.13900107 0.074782304 205 97735330 61 28 16 1722
1.7677264 0.20848514 0.060323119 150 97735330 48 29 18 1781
1.7121605 0.26451716 0.042734053 178 97735330 53 30 43 1733
1.6044742 0.30825794 0.024411082 203 97735330 54 31 68 1634
1.6983949 0.1375857 0.011896068 124 97735330 36 32 65 1704
1.5950094 0.18752225 -0.0040643439 142 97735330 37 33 56 1606
1.5722638 0.24270742 -0.01899299 142 97735330 36 34 80 1591
1.5475305 0.29628158 -0.033802763 158 97735330 39 35 61 1576
1.5911469 0.12811498 -0.047404855 132 97735330 34 36 123 1597
1.5304135 0.17879057 -0.060269713 161 97735330 38 37 48 1542
1.4867064 0.22886252 -0.073226459 156 97735330 35 38 102 1506
1.538406 0.29456249 -0.091110781 143 97735330 35 39 67 1569
1.4989358 0.11950555 -0.099796042 148 97735330 34 40 38 1507
1.5193634 0.17680079 -0.11589839 144 97735330 34 41 80 1534
1.4654083 0.22516502 -0.12658286 155 97735330 34 42 147 1488
1.4775565 0.28208283 -0.14274901 89 97735330 20 43 60 1511
1.4031066 0.11137252 -0.14530405 141 97735330 28 44 77 1415
1.4727519 0.17077766 -0.16703622 127 97735330 28 45 34 1492
1.4442985 0.22114739 -0.17855017 100 97735330 22 46 111 1472
1.3702106 0.26124224 -0.18418598 45 97735330 9 47 110 1407
1.4058512 0.11040527 -0.19791177 157 97735330 32 48 53 1424
1.4401952 0.16636562 -0.21752365 76 97735330 16 49 34 1466
1.2836615 0.19586323 -0.20754728 38 97735330 7 50 58 1315
1.1651168 0.2218022 -0.20128526 62 97735330 9 51 58 1203
1.4045712 0.10904688 -0.25109732 96 97735330 20 52 56 1431
1.3405446 0.15416686 -0.25357798 31 97735330 6 53 64 1373
1.2811303 0.19506519 -0.25631219 67 97735330 12 54 58 1321
0 0 -0 3 97735330 0 55 63 0
1.360232 0.10484027 -0.29596192 32 97735330 6 56 102 1396
1.3438897 0.15383863 -0.30669761 38 97735330 7 57 51 1387
1.3419894 0.20406799 -0.32163018 45 97735330 9 58 41 1395
0 0 -0 2 97735330 0 59 60 0
1.3908033 0.10556069 -0.35794306 28 97735330 6 60 27 1440
1.4314418 0.16264616 -0.3841897 25 97735330 6 61 21 1491
0 0 -0 0 97735330 0 62 46 0
1.2278956 0.23419753 -0.36059004 60 97735330 10 63 59 1301
1.8191257 0.13597655 0.56939787 73 97833770 27 0 60 1911
2.0804427 0.23544811 0.62842596 253 97833770 121 1 80 2186
4.7998829 0.72666925 1.4057006 163 97833770 417 2 67 5054
5.2597842 1.0002003 1.4955796 204 97833770 629 3 56 5559
1.7241474 0.12975468 0.46707663 71 97833770 23 4 68 1791
2.1170311 0.23865339 0.55283421 139 97833770 67 5 37 2201
4.8222938 0.72816813 1.2148781 214 97833770 541 6 103 5026
5.329711 1.0079083 1.2966239 229 97833770 714 7 68 5577
2.1192741 0.15990002 0.48976514 131 97833770 63 8 63 2181
1.908896 0.21593259 0.42258561 128 97833770 49 9 37 1967
2.060395 0.30998027 0.4374088 98 97833770 44 10 36 2129
5.4483523 1.025421 1.1098149 231 97833770 737 11 51 5654
1.9223504 0.14534573 0.36988223 136 97833770 53 12 63 1963
2.0932992 0.23597808 0.38248464 218 97833770 100 13 48 2141
2.0457568 0.30737635 0.355248 214 97833770 94 14 84 2099
1.9799562 0.37214178 0.32705593 227 97833770 95 15 58 2041
1.9907571 0.15048291 0.30763769 222 97833770 91 16 14 2020
2.0241394 0.22771661 0.29388586 45 97833770 19 17 78 2058
1.9426309 0.29080692 0.2644636 219 97833770 86 18 70 1982
1.9262364 0.36082679 0.24503647 174 97833770 68 19 89 1975
1.9124962 0.14453354 0.22411963 208 97833770 77 20 45 1931
1.8892403 0.21223988 0.20364144 197 97833770 72 21 50 1912
1.8516219 0.27629104 0.18254055 217 97833770 77 22 67 1881
1.8183821 0.33960506 0.1631074 191 97833770 66 23 130 1857
1.820989 0.13726644 0.14622326 190 97833770 64 24 69 1832
1.8051885 0.20231885 0.12807278 155 97833770 52 25 61 1821
1.7394886 0.25949693 0.10716849 143 97833770 44 26 128 1762
1.6759531 0.31197557 0.08776059 161 97833770 47 27 78 1707
1.7394819 0.13026756 0.075824559 182 97833770 55 28 13 1746
1.6974585 0.18964492 0.057884451 156 97833770 46 29 15 1709
1.6544178 0.24521235 0.041254513 149 97833770 42 30 40 1673
1.5945386 0.29621577 0.02423181 174 97833770 46 31 67 1622
1.6633084 0.12447543 0.011644742 134 97833770 37 32 55 1668
1.6438351 0.18304396 -0.0041858186 158 97833770 43 33 41 1654
1.668681 0.24711806 -0.020139016 144 97833770 41 34 59 1687
1.5257256 0.28241333 -0.033287998 168 97833770 41 35 78 1552
1.6158265 0.12012804 -0.048117261 118 97833770 31 36 103 1621
1.5672362 0.17335156 -0.061676789 144 97833770 36 37 42 1578
1.5117972 0.22323774 -0.074393421 167 97833770 39 38 100 1530
1.5048456 0.27857557 -0.089020282 143 97833770 34 39 69 1533
1.5235236 0.1120627 -0.10138535 157 97833770 37 40 68 1531
1.449057 0.15961421 -0.11045856 130 97833770 28 41 91 1462
1.4194474 0.209196 -0.12249955 174 97833770 36 42 142 1440
1.4322678 0.26433861 -0.13821429 103 97833770 22 43 68 1463
1.463287 0.10711847 -0.15146536 160 97833770 35 44 49 1475
1.4500653 0.15913613 -0.1643493 143 97833770 31 45 53 1468
1.4574132 0.21401173 -0.18000573 99 97833770 22 46 102 1484
1.477085 0.27223685 -0.19832392 31 97833770 7 47 123 1515
1.4065022 0.10177705 -0.19791177 136 97833770 28 48 71 1424
1.4057982 0.15365733 -0.212182 88 97833770 18 49 18 1430
1.4607108 0.21371469 -0.2359568 28 97833770 6 50 45 1495
1.2362686 0.22749583 -0.21333225 56 97833770 9 51 46 1275
1.3227276 0.094531484 -0.23635787 94 97833770 17 52 67 1347
1.2828435 0.13956104 -0.24249665 31 97833770 5 53 87 1313
1.2473576 0.18209904 -0.24932715 61 97833770 10 54 54 1285
0 0 -0 0 97833770 0 55 42 0
1.4193389 0.1006393 -0.30868238 13 97833770 3 56 105 1456
1.3099034 0.14181095 -0.29873717 51 97833770 9 57 55 1351
1.3085526 0.19077618 -0.31333005 55 97833770 10 58 54 1359
0 0 -0 0 97833770 0 59 51 0
1.3914249 0.097024888 -0.35794306 38 97833770 8 60 23 1440
1.3401852 0.14395347 -0.35945314 29 97833770 6 61 32 1395
1.2606525 0.18354557 -0.3532002 25 97833770 4 62 49 1322
1.2633257 0.23293075 -0.37056792 56 97833770 10 63 43 1337
1.648504 0.1130558 0.51576543 57 97930480 17 0 62 1731
2.0818481 0.22267832 0.62842596 271 97930480 130 1 76 2186
1.9867206 0.28831744 0.58130473 41 97930480 18 2 39 2090
5.1748848 0.95119292 1.4697518 121 97930480 360 3 54 5463
2.0485125 0.14153048 0.5547024 56 97930480 25 4 73 2127
2.1069057 0.22442873 0.54982013 164 97930480 78 5 37 2189
4.8036232 0.69522965 1.2090769 52 97930480 130 6 116 5002
5.243947 0.95840049 1.2743045 171 97930480 515 7 77 5481
2.1668777 0.15012626 0.50054401 184 97930480 92 8 72 2229
2.0733323 0.22165766 0.45867828 147 97930480 67 9 39 2135
2.0506344 0.2956562 0.43494335 103 97930480 46 10 38 2117
5.3040447 0.96460164 1.0791938 215 97930480 649 11 43 5498
1.8879358 0.13109851 0.36309883 141 97930480 52 12 103 1927
2.0829673 0.2218788 0.3803409 211 97930480 95 13 52 2129
2.0710166 0.29818898 0.35930991 220 97930480 99 14 68 2123
1.9588938 0.35575294 0.32321012 207 97930480 84 15 51 2017
1.9088223 0.1325154 0.29484484 115 97930480 43 16 40 1936
1.8129098 0.19269615 0.26304072 43 97930480 15 17 60 1842
1.967923 0.28225866 0.26766598 204 97930480 82 18 67 2006
1.8698293 0.33839828 0.23759231 184 97930480 68 19 78 1915
1.9252373 0.1336212 0.2255124 169 97930480 64 20 56 1943
1.8193163 0.1930881 0.19597293 201 97930480 68 21 59 1840
1.8414592 0.26323441 0.18137603 189 97930480 66 22 82 1869
1.7851406 0.32207409 0.15994538 175 97930480 58 23 122 1821
1.8456633 0.12774232 0.14813884 200 97930480 69 24 26 1856
1.7944922 0.18997839 0.12722883 162 97930480 53 25 62 1809
1.7529054 0.25051332 0.10789835 163 97930480 51 26 119 1774
1.7250156 0.31016952 0.090228379 170 97930480 52 27 93 1755
1.7522089 0.12041379 0.076345697 156 97930480 48 28 37 1758
1.7582247 0.18551825 0.059916671 146 97930480 46 29 30 1769
1.6915231 0.24011442 0.042142238 113 97930480 33 30 26 1709
1.6199461 0.2906644 0.024590356 180 97930480 49 31 75 1646
1.6520693 0.11344516 0.011560968 147 97930480 40 32 46 1656
1.6687956 0.17546374 -0.0042465562 144 97930480 40 33 44 1678
1.5988845 0.22676493 -0.019279499 165 97930480 43 34 63 1615
1.59829 0.28571343 -0.034832288 172 97930480 45 35 59 1624
1.6045662 0.10939538 -0.04776106 123 97930480 32 36 113 1609
1.5563444 0.16248681 -0.061207768 141 97930480 34 37 44 1566
1.5368739 0.2173135 -0.075560369 156 97930480 38 38 98 1554
1.4593555 0.26090351 -0.086232953 146 97930480 32 39 69 1485
1.5241824 0.10271243 -0.10138535 152 97930480 36 40 62 1531
1.4976156 0.15566836 -0.11408512 132 97930480 30 41 92 1510
1.4680611 0.20716524 -0.12658286 153 97930480 34 42 156 1488
1.4456238 0.25764149 -0.13934797 119 97930480 26 43 51 1475
1.4758266 0.098936312 -0.15269762 168 97930480 37 44 56 1487
1.4391532 0.14900762 -0.16300586 128 97930480 27 45 43 1456
1.3879265 0.19511592 -0.17127229 140 97930480 28 46 102 1412
1.3381752 0.23815447 -0.17947333 35 97930480 7 47 127 1371
1.4071002 0.093144998 -0.19791177 154 97930480 31 48 69 1424
1.39491 0.1438116 -0.21040146 84 97930480 17 49 44 1418
1.3563789 0.18995675 -0.21891108 30 97930480 6 50 48 1387
1.2958832 0.23025446 -0.22337142 64 97930480 11 51 61 1335
1.3704375 0.089492925 -0.24478042 121 97930480 24 52 78 1395
1.4479235 0.14853655 -0.2735244 26 97930480 6 53 81 1481
1.2717688 0.17770001 -0.25398383 61 97930480 11 54 78 1309
0 0 -0 3 97930480 0 55 74 0
1.4199297 0.091928504 -0.30868238 16 97930480 3 56 101 1456
1.3806038 0.14090005 -0.31465805 34 97930480 7 57 48 1423
1.2403105 0.1730617 -0.29672977 43 97930480 7 58 61 1287
0 0 -0 0 97930480 0 59 57 0
1.4847935 0.094384469 -0.3818059 28 97930480 7 60 25 1536
1.3641148 0.13806263 -0.36563724 37 97930480 7 61 33 1419
1.2388488 0.17261526 -0.34678811 29 97930480 5 62 48 1298
0 0 -0 0 97930480 0 63 52 0
2.0607438 0.1286287 0.64448327 45 98030670 21 0 69 2163
2.1060462 0.21220464 0.63532537 274 98030670 134 1 72 2210
1.9313675 0.26819479 0.56461656 103 98030670 42 2 36 2030
2.0625768 0.36605236 0.58515662 71 98030670 33 3 38 2175
2.1880851 0.13768899 0.59225631 57 98030670 30 4 76 2271
2.1198003 0.2126562 0.55283421 184 98030670 89 5 30 2201
2.1088183 0.29201081 0.53033078 110 98030670 53 6 112 2194
2.1924155 0.3868064 0.53218079 93 98030670 49 7 61 2289
2.2377799 0.14124747 0.51671237 100 98030670 53 8 91 2301
2.1096358 0.21245474 0.46641243 182 98030670 86 9 42 2171
2.0524099 0.28306818 0.43494335 105 98030670 47 10 38 2117
5.2519169 0.92186707 1.0674165 222 98030670 655 11 56 5438
1.9357508 0.12248883 0.37214336 142 98030670 56 12 72 1975
1.9550614 0.19612975 0.3567594 121 98030670 48 13 50 1997
2.1196723 0.29193032 0.3674337 83 98030670 39 14 89 2171
1.9377056 0.33963674 0.31936428 222 98030670 88 15 57 1993
1.8504176 0.11705676 0.28570709 123 98030670 43 16 32 1876
1.9204197 0.19221443 0.27846327 71 98030670 27 17 66 1950
1.969618 0.27017841 0.26766598 229 98030670 92 18 65 2006
1.8953301 0.331016 0.24056998 170 98030670 64 19 60 1939
1.8308599 0.11578747 0.21437027 111 98030670 38 20 64 1847
1.9154477 0.1914129 0.20619762 180 98030670 67 21 33 1936
1.8430396 0.25193048 0.18137603 182 98030670 64 22 76 1869
1.8577422 0.32341567 0.16626942 207 98030670 74 23 114 1893
1.8344744 0.11566246 0.14718105 38 98030670 13 24 54 1844
1.8194467 0.18133833 0.12891676 171 98030670 57 25 50 1833
1.7662771 0.24137476 0.10862822 168 98030670 54 26 115 1786
1.6796553 0.29138556 0.08776059 165 98030670 48 27 74 1707
1.7409495 0.10891163 0.075824559 187 98030670 57 28 36 1746
1.7235267 0.17117073 0.058697339 143 98030670 43 29 7 1733
1.6691897 0.22650473 0.04155042 120 98030670 34 30 37 1685
1.6571677 0.2868588 0.025128176 198 98030670 56 31 70 1682
1.7006396 0.1063005 0.011896068 145 98030670 42 32 60 1704
1.693724 0.167584 -0.0043072933 143 98030670 41 33 47 1702
1.6596975 0.22501016 -0.019995764 148 98030670 42 34 72 1675
1.6118357 0.2779398 -0.035089668 166 98030670 45 35 68 1636
1.6052073 0.099547893 -0.04776106 138 98030670 36 36 111 1609
1.5692456 0.1541061 -0.061676789 132 98030670 33 37 55 1578
1.5500563 0.20948459 -0.076143853 143 98030670 35 38 89 1566
1.4963453 0.2580519 -0.088323444 156 98030670 36 39 58 1521
1.524784 0.093358286 -0.10138535 152 98030670 36 40 57 1531
1.5342693 0.14996839 -0.11680502 157 98030670 38 41 59 1546
1.4456062 0.19495748 -0.12454122 164 98030670 35 42 148 1464
1.4354038 0.24674259 -0.13821429 120 98030670 26 43 51 1463
1.4287478 0.086977676 -0.14776857 171 98030670 35 44 77 1439
1.4875143 0.14479546 -0.16837968 133 98030670 30 45 42 1504
1.4245136 0.1913535 -0.17563902 97 98030670 20 46 105 1448
1.3747871 0.23597689 -0.18418598 27 98030670 5 47 94 1407
1.3720587 0.082372963 -0.19290838 164 98030670 32 48 78 1388
1.4075779 0.13639446 -0.212182 104 98030670 21 49 30 1430
1.4044986 0.18791629 -0.22648695 39 98030670 8 50 49 1435
1.343915 0.23029149 -0.23140274 55 98030670 11 51 72 1383
1.3709608 0.081082396 -0.24478042 116 98030670 23 52 75 1395
1.5075035 0.14530711 -0.28460574 36 98030670 9 53 73 1541
1.3195091 0.17612311 -0.26329723 43 98030670 8 54 70 1357
0 0 -0 0 98030670 0 55 55 0
1.3385171 0.078413427 -0.29087377 14 98030670 3 56 94 1372
1.3697927 0.13130942 -0.31200454 30 98030670 6 57 50 1411
1.4033899 0.18704498 -0.33546373 59 98030670 12 58 53 1455
0 0 -0 2 98030670 0 59 65 0
1.3693022 0.078610279 -0.35197732 23 98030670 5 60 26 1416
1.3880219 0.13188347 -0.3718214 31 98030670 6 61 31 1443
1.2513473 0.16653609 -0.34999415 30 98030670 5 62 46 1310
0 0 -0 3 98030670 0 63 50 0
2.1644261 0.12177285 0.67666274 60 98128200 31 0 56 2271
2.0729816 0.19603202 0.62497616 242 98128200 115 1 83 2174
2.0015354 0.2654309 0.58464235 114 98128200 50 2 43 2102
2.0306084 0.34754053 0.57547122 69 98128200 32 3 74 2139
2.2814176 0.12951332 0.61729223 41 98128200 23 4 77 2367
2.1441936 0.2018223 0.55886239 169 98128200 83 5 40 2225
2.0990269 0.27753952 0.52743018 145 98128200 69 6 75 2182
2.0796888 0.35377416 0.5042814 133 98128200 63 7 126 2169
2.2386045 0.12751405 0.51671237 46 98128200 24 8 87 2301
2.0408931 0.19288975 0.45094419 119 98128200 52 9 49 2099
2.0308211 0.26740324 0.43001249 90 98128200 39 10 39 2093
5.1994662 0.8798089 1.0556393 220 98128200 635 11 51 5378
2.1247199 0.12136185 0.40832132 157 98128200 74 12 89 2167
1.897453 0.17859782 0.34604055 98 98128200 37 13 35 1937
1.9924378 0.26196009 0.34509319 52 98128200 22 14 84 2039
1.9981501 0.33760756 0.32897887 227 98128200 95 15 44 2053
1.8392603 0.10502449 0.28387955 132 98128200 46 16 22 1864
1.9452131 0.18264799 0.28189054 73 98128200 28 17 55 1974
1.9476546 0.25500017 0.2644636 204 98128200 80 18 88 1982
1.9090675 0.3213568 0.2420588 196 98128200 75 19 64 1951
1.8434354 0.10523061 0.21576303 74 98128200 26 20 61 1859
1.9522252 0.18299705 0.21003188 235 98128200 91 21 57 1972
1.8327078 0.23907216 0.18021148 188 98128200 65 22 74 1857
1.7889585 0.30014339 0.15994538 192 98128200 64 23 131 1821
1.9426312 0.11051894 0.15580121 40 98128200 15 24 52 1952
1.78477 0.16682886 0.12638484 184 98128200 59 25 27 1797
1.7558476 0.22898361 0.10789835 157 98128200 49 26 106 1774
1.7286921 0.28897756 0.090228379 183 98128200 56 27 70 1755
1.7296153 0.09755221 0.075303435 205 98128200 62 28 21 1734
1.7245445 0.16059214 0.058697339 155 98128200 47 29 16 1733
1.6943424 0.21933874 0.042142238 126 98128200 37 30 38 1709
1.6470615 0.27471125 0.024948904 175 98128200 49 31 66 1670
1.6772984 0.094513372 0.011728518 143 98128200 40 32 55 1680
1.6708231 0.15497184 -0.0042465562 132 98128200 37 33 54 1678
1.6372467 0.21174414 -0.019709256 117 98128200 32 34 91 1651
1.5543356 0.25821406 -0.033802763 170 98128200 42 35 75 1576
1.6177639 0.090365611 -0.048117261 134 98128200 35 36 119 1621
1.5343404 0.14117849 -0.060269713 142 98128200 34 37 50 1542
1.5750873 0.20303434 -0.077310808 156 98128200 39 38 93 1590
1.5097183 0.2508291 -0.089020282 146 98128200 34 39 73 1533
1.5253282 0.084000632 -0.10138535 156 98128200 37 40 61 1531
1.5828241 0.14491528 -0.12043157 129 98128200 33 41 77 1594
1.4704928 0.18913428 -0.12658286 151 98128200 33 42 129 1488
1.4840341 0.24573681 -0.14274901 145 98128200 33 43 57 1511
1.4769297 0.080818199 -0.15269762 146 98128200 32 44 70 1487
1.4883747 0.13566552 -0.16837968 143 98128200 32 45 37 1504
1.413846 0.18109591 -0.17418344 117 98128200 24 46 107 1436
1.4114213 0.23335876 -0.18889862 51 98128200 11 47 129 1443
1.3725383 0.073952615 -0.19290838 167 98128200 32 48 76 1388
1.384751 0.12561101 -0.20862091 89 98128200 18 49 49 1406
1.4056252 0.17929491 -0.22648695 44 98128200 9 50 60 1435
1.3686486 0.22589426 -0.23541841 45 98128200 9 51 63 1407
1.3596351 0.072043702 -0.24267477 144 98128200 28 52 79 1383
1.3439243 0.12122182 -0.25357798 48 98128200 9 53 75 1373
1.3789539 0.17545262 -0.27493897 50 98128200 10 54 68 1417
1.1765136 0.19420362 -0.24824379 55 98128200 8 55 60 1218
1.3741064 0.072040923 -0.29850602 27 98128200 5 56 106 1408
1.3705726 0.12290206 -0.31200454 34 98128200 7 57 55 1411
1.2886753 0.1637145 -0.30779663 39 98128200 7 58 54 1335
0 0 -0 4 98128200 0 59 80 0
1.48584 0.076156661 -0.3818059 25 98128200 6 60 19 1536
1.3772557 0.12233835 -0.36872935 34 98128200 7 61 30 1431
1.4129517 0.17922705 -0.39487889 28 98128200 6 62 54 1478
0 0 -0 0 98128200 0 63 36 0
2.2337761 0.11192946 0.69811577 32 98227160 18 0 82 2343
2.1084919 0.18634422 0.63532537 279 98227160 136 1 94 2210
2.0831752 0.2632609 0.60800582 130 98227160 62 2 44 2186
4.906425 0.80878407 1.3890406 190 98227160 508 3 60 5163
2.1780398 0.11024185 0.58912677 31 98227160 16 4 89 2259
2.1222503 0.18662697 0.55283421 106 98227160 51 5 47 2201
2.1006904 0.2646549 0.52743018 129 98227160 62 6 87 2182
5.0188284 0.8220951 1.2157158 270 98227160 739 7 80 5229
2.3094156 0.11733596 0.53288066 30 98227160 17 8 64 2373
1.8785973 0.16592748 0.41485143 80 98227160 30 9 47 1931
1.9858128 0.24909069 0.42015076 84 98227160 35 10 48 2045
5.1118588 0.83275378 1.0367955 62 98227160 172 11 56 5282
2.1136549 0.10772269 0.40606022 205 98227160 95 12 95 2155
1.8397053 0.16178046 0.33532169 80 98227160 28 13 39 1877
2.064419 0.25854811 0.35727894 131 98227160 58 14 89 2111
2.0118752 0.32724243 0.33090177 199 98227160 85 15 57 2065
1.8161807 0.092530109 0.28022444 105 98227160 35 16 32 1840
2.0291183 0.17797317 0.29388586 178 98227160 76 17 71 2058
1.9373813 0.24157329 0.26286244 197 98227160 77 18 71 1970
1.9110034 0.30963695 0.2420588 174 98227160 66 19 66 1951
1.8321429 0.09331128 0.21437027 53 98227160 18 20 63 1847
1.8938799 0.16581167 0.20364144 87 98227160 32 21 70 1912
1.8578447 0.23076676 0.18254055 183 98227160 65 22 72 1881
1.7907666 0.28916091 0.15994538 190 98227160 63 23 119 1821
1.8715947 0.094960317 0.15005444 172 98227160 61 24 37 1880
1.80961 0.15795636 0.12807278 186 98227160 62 25 32 1821
1.792879 0.22263369 0.11008795 180 98227160 59 26 102 1810
1.7540966 0.28217176 0.091462262 158 98227160 50 27 90 1779
1.7301813 0.086937651 0.075303435 211 98227160 63 28 22 1734
1.7016014 0.14793009 0.057884451 159 98227160 46 29 8 1709
1.7790004 0.21920797 0.044213593 124 98227160 40 30 35 1793
1.6487161 0.26459989 0.024948904 192 98227160 53 31 48 1670
1.6898314 0.084821455 0.011812293 130 98227160 37 32 47 1692
1.6597874 0.14368202 -0.0042161876 147 98227160 41 33 29 1666
1.5908782 0.19583029 -0.019136243 131 98227160 34 34 80 1603
1.6032783 0.25624573 -0.034832288 132 98227160 35 35 64 1624
1.5823481 0.0786511 -0.047048651 144 98227160 36 36 88 1585
1.5590717 0.13381205 -0.061207768 142 98227160 35 37 44 1566
1.528717 0.18752851 -0.074976891 129 98227160 31 38 77 1542
1.4875698 0.23777913 -0.087626614 160 98227160 37 39 66 1509
1.4899368 0.072884731 -0.099001385 154 98227160 34 40 41 1495
1.5002271 0.12807579 -0.11408512 117 98227160 27 41 81 1510
1.4834937 0.18156044 -0.12760369 136 98227160 31 42 151 1500
1.4383236 0.22910941 -0.13821429 147 98227160 32 43 61 1463
1.4416302 0.070017248 -0.14900084 178 98227160 38 44 68 1451
1.4416522 0.12249227 -0.16300586 139 98227160 29 45 57 1456
1.4622264 0.17818056 -0.18000573 127 98227160 28 46 113 1484
1.3658303 0.21721981 -0.1826151 60 98227160 12 47 121 1395
1.4204464 0.067795642 -0.19957958 143 98227160 30 48 78 1436
1.4091457 0.11911103 -0.212182 129 98227160 26 49 38 1430
1.3831722 0.16781242 -0.222699 69 98227160 14 50 44 1411
1.3700089 0.21749213 -0.23541841 34 98227160 7 51 59 1407
1.3482507 0.063147075 -0.24056913 159 98227160 30 52 58 1371
1.3446428 0.11297338 -0.25357798 67 98227160 13 53 61 1373
1.2514509 0.1514325 -0.24932715 37 98227160 6 54 86 1285
1.2705053 0.20171842 -0.26780978 54 98227160 9 55 57 1314
1.3628079 0.063066088 -0.29596192 37 98227160 7 56 87 1396
1.3129891 0.10962161 -0.29873717 27 98227160 5 57 62 1351
1.3244327 0.16000572 -0.31609675 50 98227160 9 58 53 1371
0 0 -0 0 98227160 0 59 68 0
1.4978909 0.067562021 -0.38478878 10 98227160 2 60 22 1548
1.4010912 0.11579539 -0.37491345 47 98227160 10 61 24 1455
1.2877384 0.15532182 -0.35961232 18 98227160 3 62 52 1346
0 0 -0 0 98227160 0 63 34 0
2.3488598 0.10325169 0.73387069 24 98324690 15 0 77 2463
2.0752311 0.17057858 0.62497616 161 98324690 76 1 80 2174
2.0961957 0.25184879 0.61134344 158 98324690 76 2 26 2198
4.8884654 0.77504402 1.3825837 240 98324690 635 3 66 5139
2.2365417 0.099448621 0.60477424 24 98324690 13 4 64 2319
1.8107852 0.1480464 0.47145382 72 98324690 25 5 40 1877
2.1022747 0.25176033 0.52743018 143 98324690 68 6 96 2182
4.9315462 0.77675742 1.1933963 262 98324690 691 7 102 5133
2.2400007 0.10003333 0.51671237 24 98324690 13 8 96 2301
1.9029409 0.15631647 0.42000753 85 98324690 32 9 29 1955
1.859028 0.22160986 0.393031 91 98324690 33 10 50 1913
2.071161 0.3243722 0.41966468 51 98324690 23 11 33 2138
2.067183 0.092641041 0.39701572 191 98324690 85 12 95 2107
1.8877342 0.15433761 0.34389678 114 98324690 42 13 50 1925
2.0424786 0.24308082 0.35321704 224 98324690 98 14 89 2087
2.0021427 0.31306177 0.32897887 223 98324690 94 15 51 2053
1.7930181 0.080322959 0.27656934 130 98324690 43 16 13 1816
2.0064967 0.16358912 0.29045865 196 98324690 81 17 65 2034
1.9506372 0.23108026 0.2644636 202 98324690 79 18 72 1982
1.9011018 0.29607311 0.24056998 203 98324690 76 19 70 1939
1.8326811 0.082067706 0.21437027 91 98324690 31 20 42 1847
1.9305389 0.15709105 0.20747571 55 98324690 21 21 67 1948
1.8236424 0.21516457 0.17904694 183 98324690 62 22 59 1845
1.8161315 0.28183365 0.16205338 186 98324690 63 23 111 1845
1.8721421 0.083474636 0.15005444 216 98324690 76 24 29 1880
1.8344073 0.14878525 0.12976073 186 98324690 63 25 54 1845
1.7585254 0.20741941 0.10789835 151 98324690 48 26 90 1774
1.7202646 0.26591137 0.089611426 169 98324690 51 27 92 1743
1.7546364 0.077376157 0.076345697 324 98324690 100 28 1 1758
1.7263854 0.13941723 0.058697339 156 98324690 47 29 19 1733
1.7445667 0.20410608 0.043325871 146 98324690 45 30 41 1757
1.6384501 0.25264999 0.02476963 191 98324690 53 31 59 1658
1.6663438 0.073395208 0.011644742 146 98324690 41 32 61 1668
1.6606377 0.13349506 -0.0042161876 145 98324690 40 33 28 1666
1.6516401 0.19302955 -0.01985251 134 98324690 37 34 79 1663
1.5929621 0.24458267 -0.034574907 156 98324690 41 35 66 1612
1.6067677 0.069984414 -0.04776106 133 98324690 34 36 122 1609
1.6435342 0.13090764 -0.064490944 143 98324690 39 37 40 1650
1.4941227 0.17398591 -0.073226459 132 98324690 30 38 89 1506
1.4771599 0.22682883 -0.086929783 156 98324690 35 39 77 1497
1.4903561 0.063741282 -0.099001385 155 98324690 35 40 66 1495
1.5248414 0.12075745 -0.11589839 119 98324690 28 41 47 1534
1.4727031 0.17107484 -0.12658286 160 98324690 35 42 137 1488
1.4633203 0.22389331 -0.14048165 143 98324690 32 43 54 1487
1.4658843 0.062182024 -0.15146536 160 98324690 35 44 79 1475
1.4899275 0.11739066 -0.16837968 142 98324690 32 45 54 1504
1.4277945 0.16510044 -0.17563902 135 98324690 28 46 112 1448
1.4376994 0.21961375 -0.1920404 61 98324690 13 47 130 1467
1.4327089 0.059572361 -0.20124736 146 98324690 31 48 79 1448
1.3980191 0.10953549 -0.21040146 113 98324690 23 49 36 1418
1.4077196 0.16203223 -0.22648695 84 98324690 17 50 64 1435
1.4999701 0.22869717 -0.25750458 33 98324690 8 51 61 1539
1.384025 0.056314044 -0.24688604 142 98324690 28 52 77 1407
1.3570688 0.10563594 -0.25579426 64 98324690 12 53 49 1385
1.2757468 0.14643572 -0.25398383 37 98324690 6 54 59 1309
1.2601053 0.19214801 -0.26536405 58 98324690 10 55 45 1302
1.3631692 0.054702871 -0.29596192 39 98324690 8 56 91 1396
1.313637 0.1015632 -0.29873717 30 98324690 5 57 50 1351
1.3253896 0.15187615 -0.31609675 50 98324690 9 58 45 1371
0 0 -0 0 98324690 0 59 73 0
1.4634336 0.057012428 -0.37584022 17 98324690 4 60 39 1512
1.3555312 0.10365991 -0.36254519 37 98324690 7 61 36 1407
1.4150447 0.16187447 -0.39487889 32 98324690 7 62 61 1478
0 0 -0 0 98324690 0 63 50 0
2.2693219 0.085807644 0.70884228 28 98421390 16 0 63 2379
1.8584915 0.14128819 0.55943131 55 98421390 21 1 63 1946
2.1320589 0.24289621 0.62135637 150 98421390 75 2 44 2234
4.7674446 0.72589749 1.3470708 223 98421390 558 3 47 5007
2.3181436 0.088828713 0.62668073 14 98421390 8 4 74 2403
1.8927354 0.14306091 0.49255243 57 98421390 22 5 34 1961
2.1269195 0.24148346 0.53323144 150 98421390 73 6 76 2206
4.9015989 0.74124795 1.1850264 258 98421390 671 7 93 5097
2.0302448 0.078187093 0.46820739 20 98421390 9 8 80 2085
2.1142144 0.16061769 0.46641243 180 98421390 85 9 42 2171
1.9537108 0.22074729 0.41275445 106 98421390 43 10 56 2009
