# .PCD v0.7 - Point Cloud Data file format
VERSION 0.7
FIELDS x y z intensity t reflectivity ring noise range
SIZE 4 4 4 4 4 2 1 2 4
TYPE F F F F U U U U U
COUNT 1 1 1 1 1 1 1 1 1
WIDTH 871
HEIGHT 1
VIEWPOINT 0 0 0 1 0 0 0
POINTS 871
DATA ascii
1.3585998 -0.45531291 0.27491501 154 4288430 33 12 40 1459
4.2630806 -1.2562898 0.80695152 263 4288430 538 13 65 4517
4.6862235 -1.1950914 0.8304916 175 4288430 422 14 84 4907
5.2106729 -1.1272299 0.86547232 214 4288430 625 15 64 5401
4.0970187 -1.3731296 0.66583765 318 4288430 607 16 41 4372
4.4713087 -1.3187553 0.67259592 307 4288430 682 17 82 4710
4.9910636 -1.2757089 0.69358319 275 4288430 744 18 68 5198
5.5574136 -1.2057949 0.71104002 204 4288430 671 19 69 5731
0 -0 0 2 4288430 0 20 70 0
4.7987795 -1.4161581 0.53594339 252 4288430 639 21 91 5032
5.3192906 -1.3622739 0.53539407 233 4288430 711 22 68 5517
6.0241885 -1.3104845 0.54360348 180 4288430 690 23 115 6189
0 -0 0 0 4288430 0 24 63 0
0 -0 0 0 4288430 0 25 71 0
0 -0 0 4 4288430 0 26 111 0
6.4427347 -1.4055384 0.33947462 171 4288430 746 27 95 6603
0 -0 0 3 4288430 0 28 48 0
0 -0 0 3 4288430 0 29 26 0
0 -0 0 7 4288430 0 30 28 0
7.0703197 -1.5451665 0.10813183 79 4288430 411 31 57 7238
1.0578592 -0.3554284 0.007791087 57 4288430 7 32 61 1116
0 -0 -0 0 4288430 0 33 61 0
0 -0 -0 7 4288430 0 34 68 0
7.7032595 -1.6887038 -0.1691854 57 4288430 357 35 71 7888
0.98998308 -0.33316129 -0.031019459 41 4288430 4 36 111 1045
0.94831115 -0.28161833 -0.038694564 25 4288430 2 37 37 990
0 -0 -0 6 4288430 0 38 60 0
0 -0 -0 0 4288430 0 39 69 0
1.1524904 -0.38885823 -0.080724202 69 4288430 10 40 72 1219
1.0876476 -0.32353401 -0.085979372 45 4288430 6 41 72 1138
7.9536338 -2.0521739 -0.70130992 95 4288430 644 42 145 8244
9.5550251 -2.0998905 -0.92838818 89 4288430 864 43 60 9827
6.5242281 -2.2038567 -0.71091163 163 4288430 782 44 91 6923
7.5464506 -2.2480812 -0.887128 122 4288430 764 45 42 7924
8.8758774 -2.2950859 -1.1203052 123 4288430 1050 46 101 9236
9.7627153 -2.1480353 -1.319934 59 4288430 602 47 91 10083
7.1321473 -2.4158678 -1.0568267 176 4288430 1019 48 78 7604
8.3487673 -2.4910574 -1.3072193 109 4288430 843 49 50 8810
10.009158 -2.5937171 -1.6526445 100 4288430 1101 50 65 10471
10.42437 -2.2966676 -1.8115673 228 4288430 2675 51 96 10827
4.712081 -1.6007972 -0.88700002 523 4288430 1337 52 86 5055
9.2816162 -2.7745123 -1.8204794 97 4288430 946 53 78 9857
10.313088 -2.6759334 -2.107348 239 4288430 2823 54 75 10861
14.301115 -3.1505191 -3.0486295 128 4288430 2866 55 104 14958
5.2770762 -1.7960265 -1.2092886 155 4288430 505 56 104 5704
10.163659 -3.0439758 -2.4055972 235 4288430 2786 57 67 10879
10.43445 -2.7095613 -2.5543661 235 4288430 2889 58 70 11079
15.670845 -3.4537032 -3.9712098 197 4288430 5395 59 295 16531
4.2016711 -1.4355023 -1.139452 177 4288430 371 60 41 4584
1.2575893 -0.37779137 -0.35017693 22 4288430 4 61 58 1359
15.737851 -4.0899453 -4.5082455 131 4288430 3716 62 56 16874
17.683994 -3.8896153 -5.2231507 130 4288430 4622 63 97 18845
1.6497085 -0.56573242 0.5443694 112 4386520 37 0 36 1827
1.64173 -0.49398941 0.51458484 113 4386520 36 1 49 1790
1.6192744 -0.42161775 0.48451331 89 4386520 27 2 73 1742
1.5603406 -0.3441 0.4463332 104 4386520 29 3 30 1659
1.4166061 -0.4849937 0.40448681 140 4386520 34 4 25 1551
1.4615158 -0.44045928 0.39610156 170 4386520 42 5 1 1577
1.4516066 -0.37855655 0.3736971 102 4386520 24 6 75 1546
1.4328922 -0.31751534 0.35083479 537 4386520 122 7 65 1509
3.6261749 -1.2406908 0.88319409 265 4386520 410 8 81 3933
3.9718592 -1.1953419 0.91241533 89 4386520 160 9 56 4247
1.4477506 -0.37838766 0.31413716 116 4386520 27 10 36 1529
1.4376228 -0.31987998 0.29482526 159 4386520 36 11 10 1502
1.3446293 -0.45982715 0.27265388 145 4386520 30 12 70 1447
4.210073 -1.2687962 0.7983765 288 4386520 576 13 59 4469
4.6330347 -1.2118516 0.82236779 208 4386520 492 14 80 4859
5.1227279 -1.1411525 0.85201198 220 4386520 623 15 69 5317
4.0436287 -1.3828914 0.65852743 297 4386520 555 16 50 4324
4.4403906 -1.3393066 0.66916871 303 4386520 666 17 81 4686
4.9371262 -1.2942464 0.68717837 268 4386520 712 18 69 5150
5.4685645 -1.2216989 0.70061821 210 4386520 671 19 80 5647
0 -0 0 6 4386520 0 20 50 0
4.7100401 -1.421445 0.52699685 248 4386520 608 21 84 4948
5.2415223 -1.3766828 0.52840686 271 4386520 802 22 54 5445
5.8993878 -1.3212981 0.53306341 212 4386520 781 23 122 6069
0 -0 0 4 4386520 0 24 64 0
0 -0 0 4 4386520 0 25 63 0
0 -0 0 0 4386520 0 26 108 0
6.387218 -1.4345393 0.33700684 137 4386520 590 27 80 6555
0 -0 0 0 4386520 0 28 41 0
0 -0 0 3 4386520 0 29 35 0
0 -0 0 0 4386520 0 30 33 0
0 -0 0 0 4386520 0 31 68 0
0.99890256 -0.34245491 0.0073722107 61 4386520 7 32 78 1056
1.192506 -0.36115897 -0.0031532831 11 4386520 2 33 59 1246
0 -0 -0 0 4386520 0 34 84 0
0 -0 -0 3 4386520 0 35 74 0
0.97657561 -0.33533397 -0.030663252 50 4386520 5 36 123 1033
1.049827 -0.31878793 -0.042915791 47 4386520 6 37 54 1098
1.0950643 -0.2893962 -0.055138651 9 4386520 1 38 59 1134
0 -0 -0 5 4386520 0 39 74 0
1.1727258 -0.40371746 -0.082313523 53 4386520 8 40 85 1243
1.2001209 -0.36502075 -0.095045738 77 4386520 12 41 81 1258
1.1674383 -0.30887151 -0.10310379 462 4386520 68 42 327 1212
9.2157059 -2.0846777 -0.89664513 64 4386520 581 43 61 9491
6.4541574 -2.2244 -0.70475036 51 4386520 241 44 96 6863
7.384222 -2.2491744 -0.86966312 158 4386520 956 45 58 7768
8.6658974 -2.2976096 -1.0955606 113 4386520 923 46 105 9032
9.5288963 -2.1579721 -1.2900872 528 4386520 5129 47 105 9855
6.9824085 -2.4130061 -1.0368131 181 4386520 1009 48 77 7460
8.1176615 -2.4764454 -1.2733889 88 4386520 652 49 58 8582
9.7296534 -2.5850992 -1.6090833 79 4386520 826 50 62 10195
10.421619 -2.3632033 -1.8135751 175 4386520 2058 51 91 10839
5.0147176 -1.7380028 -0.94595784 311 4386520 904 52 94 5391
9.1516314 -2.796941 -1.7983167 117 4386520 1112 53 76 9737
10.330604 -2.7482424 -2.1143329 221 4386520 2630 54 64 10897
10.809955 -2.4510636 -2.3075666 47 4386520 605 55 92 11322
5.1219363 -1.7783675 -1.1762155 177 4386520 545 56 104 5548
10.155981 -3.1097078 -2.4082506 307 4386520 3646 57 71 10891
10.361209 -2.7585144 -2.5405326 202 4386520 2458 58 61 11019
14.013517 -3.1787298 -3.5560958 400 4386520 8767 59 105 14803
4.2147355 -1.4689069 -1.1454178 126 4386520 267 60 38 4608
4.9129229 -1.508814 -1.3705599 28 4386520 79 61 29 5319
15.835373 -4.219183 -4.5435119 65 4386520 1894 62 60 17006
15.894283 -3.59835 -4.700974 97 4386520 2802 63 69 16961
1.6894563 -0.59097308 0.55867136 105 4484360 37 0 38 1875
1.5947261 -0.49053705 0.50078589 168 4484360 51 1 67 1742
1.6166569 -0.4315455 0.48451331 88 4484360 27 2 57 1742
1.5581999 -0.35366759 0.4463332 124 4484360 34 3 40 1659
1.4464145 -0.50513536 0.41387528 150 4484360 38 4 42 1587
1.4476852 -0.44599888 0.39308748 167 4484360 41 5 5 1565
1.4717547 -0.39347115 0.37949833 124 4484360 31 6 64 1570
1.4650543 -0.33408594 0.35920459 314 4484360 75 7 36 1545
3.6295342 -1.2667706 0.88588881 282 4484360 439 8 89 3945
3.9420466 -1.2127978 0.90725923 100 4484360 179 9 60 4223
1.4907771 -0.39942116 0.3239989 67 4484360 17 10 46 1577
1.4241632 -0.326069 0.2924698 125 4484360 28 11 37 1490
3.8009443 -1.3259259 0.77236229 256 4484360 431 12 72 4099
4.1683574 -1.2841761 0.7919451 278 4484360 545 13 57 4433
4.5227017 -1.2126898 0.80408925 236 4484360 533 14 86 4751
5.0579019 -1.1593317 0.84239745 241 4484360 667 15 70 5257
4.0126705 -1.3998634 0.65487236 308 4484360 569 16 45 4300
4.3866901 -1.3525293 0.66231418 292 4484360 629 17 74 4638
4.7797837 -1.2843946 0.66636294 281 4484360 700 18 54 4994
5.3797326 -1.2365586 0.69019634 237 4484360 734 19 85 5563
0 -0 0 0 4484360 0 20 76 0
4.655623 -1.4362491 0.52188444 90 4484360 217 21 79 4900
5.175313 -1.3932941 0.5225842 242 4484360 703 22 75 5385
5.7630372 -1.3279463 0.52146935 206 4484360 726 23 115 5937
0 -0 0 0 4484360 0 24 50 0
0 -0 0 5 4484360 0 25 52 0
0 -0 0 0 4484360 0 26 92 0
6.284883 -1.4521207 0.33207124 24 4484360 101 27 85 6459
0 -0 0 0 4484360 0 28 54 0
0 -0 0 0 4484360 0 29 49 0
0 -0 0 0 4484360 0 30 28 0
0 -0 0 4 4484360 0 31 56 0
0 -0 0 0 4484360 0 32 57 0
1.1673409 -0.3613719 -0.0030925456 11 4484360 2 33 60 1222
0 -0 -0 0 4484360 0 34 65 0
0 -0 -0 8 4484360 0 35 60 0
1.0084609 -0.3532148 -0.031731866 42 4484360 5 36 109 1069
0.96768767 -0.30034307 -0.039632615 73 4484360 8 37 59 1014
0 -0 -0 6 4484360 0 38 53 0
0 -0 -0 4 4484360 0 39 51 0
1.1928215 -0.4188394 -0.083902843 50 4484360 8 40 76 1267
1.209285 -0.3759298 -0.095952384 75 4484360 12 41 81 1270
1.2809192 -0.34731895 -0.11331208 104 4484360 18 42 193 1332
8.958395 -2.0843334 -0.8728379 48 4484360 406 43 56 9239
1.1927338 -0.41927633 -0.13051692 44 4484360 7 44 94 1271
7.1881123 -2.2377295 -0.84816784 162 4484360 933 45 60 7576
8.433238 -2.2913983 -1.0679047 108 4484360 839 46 94 8804
9.9789381 -2.324352 -1.3529226 103 4484360 1100 47 120 10335
6.8217707 -2.4044492 -1.0151317 172 4484360 919 48 85 7304
7.9323745 -2.4732227 -1.2466806 131 4484360 922 49 38 8402
9.4163399 -2.5638125 -1.5598401 98 4484360 962 50 61 9883
10.441488 -2.4351659 -1.8195987 239 4484360 2831 51 70 10875
4.9928207 -1.7648027 -0.94385219 423 4484360 1225 52 80 5379
5.318099 -1.6610757 -1.0470018 81 4484360 261 53 107 5669
10.290832 -2.8053856 -2.1096761 289 4484360 3421 54 75 10873
10.497242 -2.4479756 -2.2439771 164 4484360 1983 55 45 11010
5.0003819 -1.7706176 -1.1507747 58 4484360 171 56 108 5428
10.036189 -3.1405106 -2.3843694 178 4484360 2074 57 67 10783
10.242703 -2.794378 -2.5156322 222 4484360 2648 58 66 10911
14.039126 -3.2752414 -3.567627 531 4484360 11714 59 101 14851
4.2713566 -1.5180957 -1.1633149 78 4484360 170 60 38 4680
4.6823173 -1.4694922 -1.3087187 80 4484360 206 61 27 5079
1.251274 -0.34162629 -0.35961232 32 4484360 6 62 85 1346
1.2174606 -0.28348836 -0.36059004 88 4484360 15 63 134 1301
1.4700161 -0.52435821 0.48716143 73 4580760 19 0 42 1635
1.4491471 -0.45550874 0.45593941 568 4580760 143 1 1 1586
1.6806873 -0.45970321 0.50453913 101 4580760 33 2 55 1814
1.6910603 -0.39474928 0.48507461 121 4580760 39 3 31 1803
1.3559811 -0.48290816 0.38883933 124 4580760 27 4 50 1491
1.4670799 -0.461849 0.39911565 146 4580760 37 5 7 1589
1.4580822 -0.39941788 0.3765977 124 4580760 30 6 92 1558
1.5879688 -0.37237981 0.38989392 152 4580760 43 7 55 1677
3.5776269 -1.2733332 0.87510997 279 4580760 424 8 101 3897
3.9009902 -1.2264181 0.89952511 230 4580760 404 9 69 4187
4.2742572 -1.1733496 0.93049526 162 4580760 332 10 40 4529
1.3305081 -0.31323025 0.27362609 150 4580760 29 11 22 1394
3.7594271 -1.3373735 0.76557893 284 4580760 469 12 102 4063
4.0815649 -1.2849107 0.77693868 293 4580760 553 13 57 4349
4.4695578 -1.2278855 0.79596531 262 4580760 580 14 91 4703
4.9815187 -1.1740415 0.8308599 158 4580760 423 15 54 5185
3.9481361 -1.4045821 0.64573461 273 4580760 492 16 68 4240
4.3103399 -1.358006 0.65203249 298 4580760 622 17 68 4566
4.7144818 -1.2979152 0.6583569 270 4580760 656 18 48 4934
5.2909274 -1.2503748 0.67977452 243 4580760 731 19 61 5479
0 -0 0 0 4580760 0 20 69 0
4.7718997 -1.504248 0.53594339 9 4580760 24 21 71 5032
5.086072 -1.4027942 0.51443243 240 4580760 676 22 72 5301
5.661727 -1.3412386 0.51303732 216 4580760 737 23 118 5841
0 -0 0 0 4580760 0 24 54 0
0 -0 0 0 4580760 0 25 70 0
0 -0 0 0 4580760 0 26 103 0
0 -0 0 0 4580760 0 27 85 0
0 -0 0 15 4580760 0 28 43 0
0 -0 0 7 4580760 0 29 35 0
0 -0 0 0 4580760 0 30 30 0
1.0291572 -0.24484649 0.015805952 14 4580760 2 31 69 1058
1.0059274 -0.35871777 0.0074559865 40 4580760 5 32 78 1068
1.0735716 -0.33957633 -0.0028495961 16 4580760 2 33 61 1126
0.97809839 -0.27092785 -0.012116836 18 4580760 2 34 75 1015
1.2642156 -0.3016319 -0.027882989 9 4580760 2 35 65 1300
0.99497879 -0.35536158 -0.031375661 67 4580760 7 36 116 1057
0.98868644 -0.31352416 -0.040570665 81 4580760 9 37 53 1038
1.1838267 -0.32844743 -0.05980647 12 4580760 2 38 68 1230
0 -0 -0 8 4580760 0 39 55 0
1.1113188 -0.39789745 -0.078340225 54 4580760 8 40 81 1183
1.2411685 -0.39420918 -0.098672293 77 4580760 13 41 65 1306
1.3018048 -0.36157149 -0.11535374 100 4580760 18 42 126 1356
8.7943935 -2.1031406 -0.85810012 27 4580760 219 43 51 9083
1.2687945 -0.45477989 -0.13914275 127 4580760 23 44 63 1355
7.0492463 -2.2420361 -0.83338982 170 4580760 945 45 63 7444
8.2813168 -2.3047764 -1.0504378 114 4580760 857 46 84 8660
9.8835001 -2.3661489 -1.3419263 89 4580760 934 47 129 10251
6.6615057 -2.3940139 -0.9934504 190 4580760 972 48 82 7148
7.7474389 -2.4678216 -1.2199723 142 4580760 957 49 48 8222
9.2063932 -2.5674293 -1.5276427 100 4580760 941 50 59 9679
10.437854 -2.5019455 -1.8216064 243 4580760 2885 51 69 10887
4.993012 -1.7994102 -0.94595784 69 4580760 200 52 152 5391
5.184217 -1.6542392 -1.0226229 182 4580760 559 53 70 5537
10.262086 -2.8653102 -2.107348 378 4580760 4461 54 94 10861
10.447751 -2.5041249 -2.23664 255 4580760 3076 55 62 10974
4.4599633 -1.6101221 -1.0286585 12 4580760 29 56 93 4852
9.8049316 -3.1343272 -2.3339531 82 4580760 909 57 45 10555
10.124151 -2.8288925 -2.4907317 259 4580760 3028 58 61 10803
15.400723 -3.6926785 -3.9193206 79 4580760 2091 59 166 16315
1.1802354 -0.42764553 -0.32214874 60 4580760 10 60 81 1296
4.529676 -1.4521781 -1.2685217 414 4580760 1003 61 25 4923
14.635336 -4.0924382 -4.2132883 24 4580760 585 62 54 15770
1.2156982 -0.29095322 -0.36059004 127 4580760 22 63 97 1301
1.5205975 -0.55294132 0.50503892 53 4678900 15 0 40 1695
1.5557568 -0.4995288 0.4904367 212 4678900 62 1 1 1706
1.6556364 -0.46378866 0.49786386 113 4678900 36 2 46 1790
1.6211745 -0.38894022 0.4657039 113 4678900 34 3 45 1731
3.4219549 -1.2423794 0.98344272 91 4678900 130 4 72 3771
1.4089301 -0.45306334 0.38404521 184 4678900 43 5 2 1529
1.455604 -0.40835699 0.3765977 132 4678900 32 6 73 1558
1.4721905 -0.35477355 0.36199453 121 4678900 29 7 45 1557
3.5477622 -1.2872843 0.86972052 277 4678900 416 8 76 3873
3.8041234 -1.2216634 0.87890065 276 4678900 463 9 61 4091
4.1765308 -1.1741272 0.91077179 229 4678900 449 10 51 4433
1.4314913 -0.34628773 0.29482526 104 4678900 23 11 22 1502
3.6846766 -1.3363079 0.75201219 329 4678900 524 12 85 3991
4.0623641 -1.3063163 0.774795 296 4678900 558 13 64 4337
4.39363 -1.2360693 0.78377962 249 4678900 534 14 97 4631
4.8821235 -1.1822826 0.8154766 132 4678900 343 15 62 5089
1.4085368 -0.51085657 0.23088057 76 4678900 18 16 91 1516
4.2453961 -1.366236 0.64346439 292 4678900 594 17 71 4506
4.694983 -1.3235914 0.65675581 278 4678900 674 18 69 4922
5.2021585 -1.2631488 0.66935277 239 4678900 696 19 83 5395
0 -0 0 0 4678900 0 20 50 0
0 -0 0 5 4678900 0 21 66 0
5.0199003 -1.4177448 0.50860977 265 4678900 729 22 73 5241
5.5837035 -1.3589922 0.50671327 221 4678900 736 23 111 5769
0 -0 0 0 4678900 0 24 48 0
0 -0 0 10 4678900 0 25 55 0
0 -0 0 0 4678900 0 26 83 0
0 -0 0 0 4678900 0 27 74 0
1.0422401 -0.37882948 0.048204619 22 4678900 3 28 64 1110
0 -0 0 0 4678900 0 29 42 0
0 -0 0 0 4678900 0 30 31 0
0 -0 0 8 4678900 0 31 60 0
0.9134866 -0.33208477 0.0067857853 50 4678900 5 32 67 972
0.9915359 -0.32033381 -0.0026370152 42 4678900 5 33 64 1042
0 -0 -0 0 4678900 0 34 61 0
0 -0 -0 7 4678900 0 35 60 0
1.0040505 -0.36556357 -0.031731866 48 4678900 5 36 109 1069
0.95252174 -0.30850086 -0.039163589 148 4678900 15 37 54 1002
1.285556 -0.36518162 -0.065057769 11 4678900 2 38 70 1338
0 -0 -0 0 4678900 0 39 49 0
1.1088564 -0.40470889 -0.078340225 48 4678900 7 40 91 1183
1.1818169 -0.38335717 -0.094139107 60 4678900 9 41 76 1246
1.1615552 -0.3303079 -0.10310379 102 4678900 15 42 139 1212
8.5608959 -2.1029162 -0.83656025 77 4678900 607 43 73 8855
1.1874988 -0.43388143 -0.13051692 464 4678900 75 44 53 1271
6.9219446 -2.2484083 -0.81995529 159 4678900 855 45 65 7324
8.0493641 -2.2935293 -1.0227818 115 4678900 818 46 106 8432
1.2736726 -0.31319758 -0.1731898 108 4678900 19 47 209 1323
6.590899 -2.4144051 -0.98511142 186 4678900 936 48 84 7088
7.5967302 -2.4712594 -1.1986058 140 4678900 916 49 63 8078
8.9967623 -2.5685682 -1.4954451 86 4678900 775 50 77 9475
10.364867 -2.5518026 -1.8115673 266 4678900 3122 51 76 10827
7.188652 -2.6406362 -1.3649797 143 4678900 866 52 101 7779
5.0506239 -1.6458238 -0.99824399 183 4678900 535 53 95 5405
10.221675 -2.9217529 -2.1026914 191 4678900 2245 54 92 10837
10.420781 -2.5653756 -2.234194 177 4678900 2133 55 61 10962
4.3729596 -1.6091092 -1.01085 30 4678900 68 56 110 4768
9.5407619 -3.1145315 -2.2755768 54 4678900 576 57 72 10291
10.151509 -2.903805 -2.5017986 245 4678900 2889 58 68 10851
1.2960124 -0.31917077 -0.33031359 36 4678900 7 59 105 1375
1.2539145 -0.46306595 -0.34302875 26 4678900 5 60 56 1380
4.179081 -1.3681142 -1.1726675 176 4678900 364 61 31 4551
1.2025185 -0.34422615 -0.34678811 24 4678900 4 62 86 1298
1.1914971 -0.29290232 -0.3539381 92 4678900 15 63 114 1277
1.4205065 -0.52643567 0.47285947 57 4776890 14 0 46 1587
1.6400337 -0.53771144 0.51803452 122 4776890 40 1 58 1802
1.6749195 -0.48029321 0.50453913 65 4776890 21 2 43 1814
1.5850917 -0.39058465 0.45601857 106 4776890 30 3 36 1695
3.3490787 -1.2392315 0.96466577 262 4776890 359 4 62 3699
1.4392306 -0.47257048 0.39308748 111 4776890 27 5 13 1565
1.453071 -0.4172807 0.3765977 97 4776890 24 6 61 1558
1.3566922 -0.33576152 0.33409515 171 4776890 35 7 62 1437
3.4959264 -1.2928053 0.85894167 300 4776890 439 8 85 3825
3.7854192 -1.2413301 0.87632257 288 4776890 480 9 63 4079
4.1466761 -1.1932366 0.90584099 235 4776890 456 10 44 4409
1.395081 -0.34655446 0.28775886 93 4776890 20 11 20 1466
3.6542997 -1.3507198 0.74748999 305 4776890 480 12 118 3967
4.0206189 -1.3201678 0.76836365 247 4776890 458 13 78 4301
4.3518677 -1.2531867 0.77768677 249 4776890 526 14 82 4595
4.8287978 -1.2007828 0.80778491 230 4776890 586 15 60 5041
1.316381 -0.48659316 0.21626016 165 4776890 33 16 26 1420
4.2143664 -1.3848441 0.64003718 303 4776890 610 17 70 4482
4.6067877 -1.3292944 0.64554739 261 4776890 612 18 78 4838
5.1249881 -1.2777616 0.66041982 247 4776890 701 19 80 5323
0 -0 0 0 4776890 0 20 65 0
0 -0 0 0 4776890 0 21 75 0
4.8848968 -1.4120371 0.49579993 171 4776890 448 22 63 5109
5.4824839 -1.3700434 0.49828124 215 4776890 692 23 127 5673
0 -0 0 0 4776890 0 24 55 0
0 -0 0 0 4776890 0 25 69 0
0 -0 0 0 4776890 0 26 90 0
0 -0 0 0 4776890 0 27 90 0
0.96120125 -0.35606581 0.0445567 38 4776890 4 28 54 1026
0 -0 0 0 4776890 0 29 27 0
0 -0 0 0 4776890 0 30 33 0
0 -0 0 0 4776890 0 31 61 0
0.9789452 -0.36269715 0.0072884359 43 4776890 5 32 60 1044
1.1263036 -0.37152046 -0.0030014399 68 4776890 10 33 65 1186
1.0668883 -0.30966821 -0.013262861 12 4776890 2 34 63 1111
0 -0 -0 0 4776890 0 35 57 0
0.99054307 -0.36754474 -0.031375661 51 4776890 6 36 85 1057
0.98476458 -0.32563326 -0.040570665 124 4776890 13 37 42 1038
1.1221603 -0.32622081 -0.056889087 20 4776890 3 38 67 1170
0 -0 -0 0 4776890 0 39 53 0
1.1849099 -0.44072437 -0.083902843 79 4776890 13 40 73 1267
1.2589554 -0.41693413 -0.10048556 60 4776890 11 41 66 1330
1.1824671 -0.34411061 -0.10514545 99 4776890 15 42 119 1236
8.339324 -2.1028283 -0.81615394 114 4776890 855 43 58 8639
1.2631181 -0.47031572 -0.13914275 191 4776890 35 44 61 1355
6.7948341 -2.253304 -0.80652076 174 4776890 901 45 44 7204
7.8636127 -2.2928624 -1.0009483 154 4776890 1050 46 97 8252
9.3692532 -2.3649683 -1.2759494 98 4776890 928 47 155 9747
6.4423633 -2.4049289 -0.96509784 195 4776890 942 48 78 6944
7.4462762 -2.4729424 -1.1772392 130 4776890 815 49 57 7934
8.7419758 -2.5539415 -1.4556719 102 4776890 871 50 64 9223
10.394896 -2.6269472 -1.8195987 187 4776890 2216 51 69 10875
4.3067074 -1.6120595 -0.81961954 151 4776890 330 52 94 4671
4.9620957 -1.6507237 -0.98273009 206 4776890 584 53 81 5321
9.9097919 -2.8984947 -2.0421543 107 4776890 1188 54 84 10525
10.279553 -2.5976076 -2.2072909 278 4776890 3255 55 56 10830
4.3300619 -1.6235592 -1.0032177 75 4776890 168 56 106 4732
9.210597 -3.0694156 -2.2012796 67 4776890 668 57 64 9955
10.133501 -2.9660389 -2.5017986 188 4776890 2208 58 56 10851
10.701389 -2.7051976 -2.7316332 95 4776890 1235 59 60 11371
4.3623552 -1.6414886 -1.1961263 116 4776890 268 60 30 4812
4.2365894 -1.4157807 -1.1912199 144 4776890 307 61 49 4623
4.7515955 -1.3917652 -1.3727251 33 4776890 86 62 55 5138
15.845907 -3.998616 -4.7142782 160 4776890 4640 63 70 17009
1.4493989 -0.54728115 0.48358592 85 4876320 22 0 44 1623
1.5713081 -0.52587813 0.49733618 126 4876320 38 1 53 1730
1.5281577 -0.44837409 0.46114987 200 4876320 55 2 44 1658
1.6274842 -0.41163924 0.46893236 97 4876320 30 3 59 1743
3.308892 -1.2474972 0.95527732 279 4876320 375 4 88 3663
1.4583303 -0.48877493 0.39911565 96 4876320 24 5 18 1589
1.3946238 -0.40977579 0.36209458 96 4876320 22 6 71 1498
1.5016619 -0.38143283 0.37036434 88 4876320 22 7 41 1593
3.4441578 -1.2977391 0.84816277 289 4876320 413 8 80 3777
3.7443905 -1.2533733 0.86858845 272 4876320 445 9 74 4043
4.1280107 -1.2153409 0.90337551 191 4876320 368 10 54 4397
1.4955451 -0.38126877 0.30895802 80 4876320 20 11 39 1574
3.6238852 -1.3648094 0.74296767 313 4876320 487 12 98 3943
1.3928336 -0.46682301 0.26672098 132 4876320 30 13 69 1493
4.2987175 -1.2664961 0.76956296 251 4876320 519 14 96 4547
4.7639537 -1.2157445 0.79817033 265 4876320 656 15 50 4981
1.2911726 -0.48630068 0.21260506 170 4876320 33 16 5 1396
4.1269665 -1.3842385 0.6280418 297 4876320 575 17 79 4398
4.5871382 -1.3541689 0.64394623 277 4876320 644 18 50 4826
5.0709085 -1.2973782 0.65446442 238 4876320 663 19 73 5275
1.2483113 -0.47018245 0.15587398 11 4876320 2 20 76 1343
0.94264764 -0.31634107 0.10650703 9 4876320 1 21 70 1000
4.8532343 -1.4352099 0.49347085 87 4876320 224 22 55 5085
5.4276586 -1.391781 0.49406523 238 4876320 753 23 103 5625
0 -0 0 0 4876320 0 24 60 0
0 -0 0 0 4876320 0 25 61 0
0 -0 0 0 4876320 0 26 99 0
0 -0 0 0 4876320 0 27 74 0
1.0038638 -0.3788906 0.046641223 51 4876320 6 28 51 1074
1.1187636 -0.37620392 0.040000901 22 4876320 3 29 31 1181
1.0283405 -0.30519655 0.026459111 9 4876320 1 30 34 1073
0 -0 0 4 4876320 0 31 60 0
1.04406 -0.39412442 0.007791087 38 4876320 5 32 65 1116
1.0102757 -0.34013522 -0.0026977528 85 4876320 10 33 63 1066
0 -0 -0 5 4876320 0 34 60 0
0 -0 -0 0 4876320 0 35 58 0
1.0219283 -0.38634053 -0.032444276 41 4876320 5 36 112 1093
1.0622767 -0.35850984 -0.043853842 65 4876320 8 37 39 1122
1.1316261 -0.33651653 -0.057472561 38 4876320 5 38 59 1182
1.3310511 -0.34356719 -0.079961464 13 4876320 2 39 56 1377
1.2045767 -0.45647246 -0.085492156 191 4876320 32 40 56 1291
1.1430165 -0.38633671 -0.091419198 65 4876320 10 41 70 1210
1.191793 -0.35477087 -0.10616627 95 4876320 15 42 125 1248
8.1527815 -2.1090789 -0.79914886 121 4876320 868 43 81 8459
1.204406 -0.45688865 -0.13298145 49 4876320 8 44 90 1295
6.6340423 -2.2452574 -0.78905582 185 4876320 921 45 58 7048
7.7352495 -2.3070254 -0.98639256 120 4876320 795 46 99 8132
9.0896778 -2.3538184 -1.239819 90 4876320 807 47 120 9471
6.2941966 -2.3937225 -0.94508427 206 4876320 954 48 84 6800
7.2623744 -2.4614456 -1.1505309 142 4876320 851 49 56 7754
8.5558376 -2.5566435 -1.4272623 120 4876320 985 50 58 9043
10.332772 -2.6788032 -1.8115673 145 4876320 1705 51 66 10827
4.1311579 -1.5753158 -0.78803498 392 4876320 791 52 78 4491
4.8066959 -1.6318523 -0.9539187 205 4876320 547 53 89 5165
9.5534782 -2.8580267 -1.9723039 58 4876320 601 54 92 10165
10.274794 -2.6635809 -2.2097366 295 4876320 3472 55 70 10842
4.2761974 -1.6333592 -0.99304128 102 4876320 224 56 97 4684
8.9921541 -3.0580487 -2.1535168 101 4876320 962 57 63 9739
10.137483 -3.0348587 -2.5073321 204 4876320 2407 58 51 10875
10.628212 -2.7561889 -2.7172196 206 4876320 2640 59 77 11311
4.2979345 -1.6474237 -1.1812121 121 4876320 273 60 39 4752
4.1839261 -1.4267797 -1.1788517 88 4876320 183 61 43 4575
4.7540436 -1.4242128 -1.3759311 32 4876320 86 62 60 5150
1.2212987 -0.31617057 -0.36391601 88 4876320 15 63 138 1313
1.4460136 -0.55616415 0.48358592 122 4974510 32 0 37 1623
1.4266553 -0.48722088 0.45248967 94 4974510 23 1 48 1574
1.4922574 -0.44780335 0.45113698 375 4974510 99 2 43 1622
1.636115 -0.42452028 0.47216082 119 4974510 37 3 80 1755
3.2362871 -1.2428573 0.93650037 301 4974510 389 4 80 3591
1.4443133 -0.49395514 0.39610156 80 4974510 20 5 22 1577
1.4478409 -0.43508071 0.3765977 128 4974510 31 6 71 1558
1.4767051 -0.38475433 0.36478448 132 4974510 32 7 44 1569
3.4033792 -1.3062773 0.84007859 285 4974510 399 8 91 3741
3.6811762 -1.2573836 0.85569823 297 4974510 472 9 73 3983
4.0417581 -1.2169456 0.88611746 198 4974510 369 10 60 4313
4.418819 -1.1554387 0.91431153 238 4974510 515 11 47 4658
3.5714302 -1.3701347 0.7339232 311 4974510 472 12 133 3895
1.4011147 -0.47918123 0.26886475 158 4974510 36 13 27 1505
4.2568932 -1.2826128 0.76347005 271 4974510 552 14 86 4511
4.6876507 -1.226957 0.78663284 260 4974510 625 15 50 4909
1.3656758 -0.52395183 0.22539791 42 4974510 9 16 26 1480
4.0846839 -1.3979971 0.6229009 308 4974510 587 17 73 4362
4.5104318 -1.3616669 0.63433903 269 4974510 607 18 52 4754
4.9707136 -1.3042915 0.64255387 252 4974510 677 19 68 5179
0 -0 0 0 4974510 0 20 59 0
0 -0 0 3 4974510 0 21 74 0
0 -0 0 4 4974510 0 22 57 0
5.2918496 -1.3916168 0.48247114 225 4974510 679 23 130 5493
0 -0 0 0 4974510 0 24 59 0
0 -0 0 0 4974510 0 25 72 0
0 -0 0 4 4974510 0 26 79 0
0 -0 0 0 4974510 0 27 76 0
0.9791398 -0.37643877 0.045598965 50 4974510 5 28 36 1050
1.0143385 -0.34803128 0.0363429 25 4974510 3 29 27 1073
1.1412424 -0.34633756 0.029418193 12 4974510 2 30 35 1193
0 -0 0 0 4974510 0 31 56 0
0.96322042 -0.37037632 0.0072046611 38 4974510 4 32 63 1032
1.0081697 -0.34632772 -0.0026977528 70 4974510 8 33 45 1066
1.1893059 -0.36108229 -0.014838647 17 4974510 3 34 60 1243
0 -0 -0 0 4974510 0 35 56 0
1.0307319 -0.39691406 -0.032800477 39 4974510 5 36 107 1105
1.0147069 -0.3494052 -0.041977737 79 4974510 9 37 48 1074
1.0836704 -0.32950637 -0.055138651 112 4974510 14 38 94 1134
1.2825941 -0.33946726 -0.077174142 11 4974510 2 39 63 1329
1.145901 -0.4422971 -0.081518859 61 4974510 9 40 65 1231
1.2198082 -0.42064929 -0.097765654 65 4974510 11 41 68 1294
1.2467858 -0.37948444 -0.11127043 67 4974510 11 42 110 1308
1.2461158 -0.33053401 -0.1223428 283 4974510 48 43 198 1295
1.2015799 -0.46427014 -0.13298145 59 4974510 10 44 79 1295
6.5074258 -2.2470007 -0.77562129 175 4974510 842 45 68 6928
7.5614405 -2.305804 -0.96601456 159 4974510 1009 46 100 7964
8.9600801 -2.3790178 -1.2241102 108 4974510 943 47 134 9351
6.0356026 -2.3378677 -0.90839279 100 4974510 427 48 120 6536
7.1125474 -2.4594219 -1.1291643 137 4974510 791 49 40 7610
8.3246717 -2.5433104 -1.391277 119 4974510 921 50 51 8815
10.030295 -2.6661725 -1.7613715 75 4974510 834 51 85 10527
4.0333142 -1.5664191 -0.77118987 712 4974510 1375 52 112 4395
4.6962957 -1.6265768 -0.93397224 546 4974510 1397 53 92 5057
9.344389 -2.8580592 -1.932722 64 4974510 640 54 60 9961
10.246902 -2.7235579 -2.2072909 274 4974510 3218 55 73 10830
4.2551656 -1.6553152 -0.99049729 104 4974510 227 56 105 4672
5.2029757 -1.8051184 -1.2486815 55 4974510 176 57 103 5647
10.219159 -3.1277604 -2.5322325 136 4974510 1644 58 80 10983
10.34092 -2.7495134 -2.6480339 30 4974510 370 59 67 11023
4.3851938 -1.7118044 -1.2080578 36 4974510 84 60 42 4860
4.25175 -1.4790925 -1.2004962 85 4974510 184 61 37 4659
4.5351362 -1.3890136 -1.3150163 421 4974510 1019 62 47 4922
15.929371 -4.2282648 -4.7541895 214 4974510 6300 63 102 17153
1.4639058 -0.5733816 0.49073693 98 5071830 26 0 43 1647
1.4996145 -0.52243382 0.47663778 64 5071830 17 1 55 1658
1.6217166 -0.49751902 0.49118859 101 5071830 31 2 20 1766
1.6334794 -0.4345513 0.47216082 145 5071830 45 3 71 1755
3.2393892 -1.2669109 0.93962985 316 5071830 411 4 82 3603
3.5140309 -1.2259333 0.96576446 169 5071830 249 5 30 3845
1.4785364 -0.4542146 0.38529959 111 5071830 28 6 82 1594
1.4066614 -0.37573647 0.34804484 184 5071830 41 7 58 1497
3.3735178 -1.3186214 0.8346892 305 5071830 422 8 102 3717
3.6401901 -1.2683785 0.84796405 273 5071830 426 9 77 3947
4.0005422 -1.2313581 0.87872124 138 5071830 253 10 71 4277
4.3775501 -1.173391 0.90724516 268 5071830 572 11 37 4622
3.519048 -1.3748682 0.72487867 315 5071830 466 12 115 3847
1.3535559 -0.47221249 0.26028964 140 5071830 30 13 14 1457
4.2037315 -1.294783 0.75534624 261 5071830 520 14 88 4463
4.6113925 -1.2372795 0.77509534 291 5071830 680 15 57 4837
0 -0 0 0 5071830 0 16 19 0
4.064816 -1.4191192 0.62118739 315 5071830 597 17 91 4350
4.4451723 -1.3717823 0.62633312 256 5071830 565 18 71 4694
4.8936253 -1.3162104 0.63362086 243 5071830 635 19 66 5107
0 -0 0 0 5071830 0 20 71 0
0 -0 0 7 5071830 0 21 63 0
0 -0 0 0 5071830 0 22 55 0
5.2485867 -1.4147278 0.47930914 208 5071830 619 23 128 5457
0 -0 0 0 5071830 0 24 57 0
0 -0 0 7 5071830 0 25 66 0
0 -0 0 0 5071830 0 26 94 0
0 -0 0 0 5071830 0 27 93 0
0.90983021 -0.35621512 0.04247218 54 5071830 5 28 40 978
0.84238607 -0.29482198 0.030246235 56 5071830 4 29 32 893
0 -0 0 0 5071830 0 30 33 0
0 -0 0 0 5071830 0 31 69 0
0.96092969 -0.37627956 0.0072046611 41 5071830 4 32 70 1032
1.06265 -0.37234813 -0.0028495961 70 5071830 9 33 61 1126
1.0037074 -0.31147218 -0.012546594 15 5071830 2 34 72 1051
1.0922652 -0.29629621 -0.024279648 10 5071830 1 35 68 1132
0 -0 -0 0 5071830 0 36 113 0
1.0577972 -0.37151861 -0.043853842 59 5071830 7 37 46 1122
1.150303 -0.35749227 -0.058639519 108 5071830 16 38 84 1206
1.1764293 -0.31910518 -0.070902653 12 5071830 2 39 56 1221
1.120878 -0.44055977 -0.079929538 44 5071830 6 40 82 1207
1.172053 -0.41224495 -0.094139107 71 5071830 11 41 81 1246
1.1759329 -0.36581767 -0.10514545 68 5071830 10 42 133 1236
1.3132323 -0.35697576 -0.12914488 95 5071830 18 43 149 1367
1.1209545 -0.44104168 -0.12435563 48 5071830 7 44 89 1211
6.4260311 -2.2631204 -0.76756054 168 5071830 787 45 57 6856
7.3424559 -2.2883613 -0.93981427 157 5071830 943 46 105 7748
8.6812887 -2.3621116 -1.1879799 98 5071830 807 47 109 9075
5.0372729 -1.9867994 -0.75995898 370 5071830 1108 48 65 5468
6.9965992 -2.467495 -1.1131394 148 5071830 830 49 50 7502
8.1279325 -2.5378342 -1.3609735 108 5071830 807 50 59 8623
9.739789 -2.653043 -1.7131834 61 5071830 644 51 66 10239
6.5833678 -2.6033835 -1.2618036 143 5071830 738 52 157 7191
4.7974286 -1.6946429 -0.95613486 111 5071830 299 53 182 5177
9.1244326 -2.8521237 -1.8908118 105 5071830 1002 54 59 9745
10.241334 -2.7894678 -2.2097366 251 5071830 2956 55 65 10842
4.2340255 -1.6770746 -0.98795319 47 5071830 102 56 111 4660
5.1366382 -1.8174909 -1.2354143 112 5071830 348 57 54 5587
10.333507 -3.2322352 -2.565433 69 5071830 848 58 55 11127
10.346334 -2.8190367 -2.6537993 119 5071830 1458 59 63 11047
4.5150275 -1.7944888 -1.246835 20 5071830 50 60 37 5016
4.8108234 -1.7067446 -1.3612838 141 5071830 393 61 22 5283
4.3278832 -1.3546382 -1.2573073 121 5071830 269 62 66 4706
15.94763 -4.3380313 -4.7674932 187 5071830 5534 63 112 17201
1.4710001 -0.58659613 0.49431241 105 5169510 29 0 53 1659
1.4855504 -0.52777767 0.47318804 62 5169510 17 1 61 1646
1.6516293 -0.51780492 0.50120151 84 5169510 27 2 35 1802
1.6753848 -0.456725 0.48507461 130 5169510 42 3 54 1803
3.199266 -1.2739067 0.93024141 322 5169510 410 4 73 3567
3.4736125 -1.235792 0.9567222 333 5169510 483 5 22 3809
1.3868449 -0.43537685 0.36209458 130 5169510 29 6 56 1498
1.460615 -0.39976573 0.36199453 238 5169510 58 7 36 1557
3.3653634 -1.339296 0.8346892 297 5169510 411 8 73 3717
3.632339 -1.2906904 0.84796405 272 5169510 424 9 81 3947
3.925694 -1.23474 0.86392862 90 5169510 160 10 61 4205
4.3248825 -1.1877645 0.89782333 261 5169510 545 11 42 4574
3.4995954 -1.3920789 0.72261763 304 5169510 447 12 122 3835
3.7756546 -1.3432482 0.72763199 207 5169510 343 13 33 4073
4.1618638 -1.3099 0.74925333 261 5169510 512 14 77 4427
4.5808711 -1.2592719 0.77124947 294 5169510 682 15 59 4813
0 -0 0 0 5169510 0 16 40 0
3.9888978 -1.4201325 0.61090565 291 5169510 533 17 72 4278
4.4139872 -1.3918784 0.62313068 261 5169510 568 18 56 4670
4.8510184 -1.3367226 0.62915438 253 5169510 652 19 75 5071
0 -0 0 5 5169510 0 20 101 0
0 -0 0 7 5169510 0 21 72 0
0 -0 0 7 5169510 0 22 55 0
5.1706729 -1.4278154 0.47298509 209 5169510 606 23 110 5385
0 -0 0 3 5169510 0 24 60 0
1.0232278 -0.3647739 0.076590486 9 5169510 1 25 63 1089
0 -0 0 0 5169510 0 26 110 0
0 -0 0 0 5169510 0 27 66 0
1.0189927 -0.40618259 0.047683489 54 5169510 6 28 51 1098
0.98740053 -0.35239023 0.035530008 55 5169510 6 29 26 1049
1.0911633 -0.34581906 0.02823456 10 5169510 1 30 25 1145
0 -0 0 6 5169510 0 31 67 0
0.9140166 -0.36439332 0.0068695601 50 5169510 5 32 74 984
0.94734216 -0.33848542 -0.0025459093 64 5169510 6 33 57 1006
0.99033946 -0.31399843 -0.012403342 57 5169510 6 34 73 1039
1.0557487 -0.29335684 -0.023507504 13 5169510 2 35 63 1096
0.95894521 -0.38284835 -0.030663252 45 5169510 5 36 127 1033
0.99905396 -0.35778812 -0.041508716 57 5169510 6 37 39 1062
1.0566976 -0.33552524 -0.053971693 68 5169510 8 38 74 1110
1.3129591 -0.36480221 -0.079264633 12 5169510 2 39 55 1365
1.073687 -0.4296357 -0.076750904 31 5169510 4 40 78 1159
1.1469748 -0.41134986 -0.092325829 53 5169510 8 41 78 1222
1.2306401 -0.39113423 -0.11024959 61 5169510 10 42 109 1296
1.2995086 -0.36182255 -0.12801118 76 5169510 14 43 52 1355
1.0960659 -0.43903455 -0.1218911 50 5169510 7 44 78 1187
6.3222408 -2.2702668 -0.75681287 112 5169510 514 45 62 6760
7.1920776 -2.2900043 -0.92234749 180 5169510 1041 46 121 7604
8.425971 -2.348264 -1.1549913 105 5169510 817 47 122 8823
5.036015 -2.0220981 -0.76162678 254 5169510 764 48 75 5480
6.8249869 -2.4541614 -1.0882118 158 5169510 848 49 40 7334
1.3048396 -0.41622201 -0.21891108 153 5169510 29 50 191 1387
9.4840193 -2.6459897 -1.671019 79 5169510 792 51 70 9987
6.4905558 -2.6128473 -1.2470641 161 5169510 814 52 99 7107
4.5539269 -1.6401263 -0.90959328 142 5169510 345 53 88 4925
5.3164039 -1.6976842 -1.1038305 81 5169510 263 54 93 5689
10.257973 -2.8617253 -2.2170737 218 5169510 2585 55 58 10878
4.1692739 -1.6810952 -0.97523278 69 5169510 146 56 113 4600
5.0703468 -1.829118 -1.2221469 121 5169510 371 57 72 5527
10.013167 -3.1996176 -2.4907317 68 5169510 788 58 50 10803
10.37372 -2.8949919 -2.6653302 38 5169510 472 59 71 11095
4.3530822 -1.7611294 -1.2050749 45 5169510 105 60 38 4848
4.3968315 -1.5903127 -1.2468772 99 5169510 231 61 32 4839
4.1983314 -1.3424274 -1.2220408 229 5169510 478 62 55 4574
1.1930585 -0.33240798 -0.35726407 86 5169510 14 63 101 1289
1.3930758 -0.56545347 0.46928394 100 5266340 25 0 34 1575
1.4606712 -0.52905476 0.4662886 97 5266340 26 1 59 1622
1.5496256 -0.49628881 0.4711628 70 5266340 20 2 43 1694
1.4721787 -0.41105008 0.42696252 452 5266340 114 3 47 1587
3.1806529 -1.2891613 0.92711186 295 5266340 373 4 78 3555
3.4113679 -1.2372806 0.9416517 290 5266340 407 5 44 3749
1.4174112 -0.45454547 0.37079644 106 5266340 25 6 83 1534
1.3682305 -0.38351992 0.33967504 299 5266340 64 7 38 1461
3.31373 -1.3423587 0.8239103 285 5266340 384 8 76 3669
3.5692556 -1.292995 0.83507377 301 5266340 455 9 79 3887
3.8845003 -1.2480273 0.85653228 217 5266340 376 10 53 4169
4.2268958 -1.1887935 0.87897962 245 5266340 491 11 39 4478
3.4363699 -1.3914106 0.71131194 332 5266340 473 12 97 3775
3.7229435 -1.3502871 0.71905684 305 5266340 493 13 54 4025
4.1199703 -1.3245528 0.74316055 257 5266340 496 14 80 4391
4.4932456 -1.2648879 0.75778908 255 5266340 571 15 59 4729
0 -0 0 0 5266340 0 16 34 0
3.9577799 -1.4364769 0.60747838 198 5266340 359 17 79 4254
4.3261242 -1.3934133 0.61192238 276 5266340 581 18 70 4586
4.7739663 -1.3470612 0.62022138 264 5266340 661 19 75 4999
0 -0 0 3 5266340 0 20 53 0
0.97946125 -0.35566977 0.11161938 19 5266340 2 21 60 1048
0 -0 0 0 5266340 0 22 59 0
5.1273065 -1.4497581 0.46982309 40 5266340 115 23 111 5349
0 -0 0 0 5266340 0 24 41 0
0 -0 0 0 5266340 0 25 57 0
0 -0 0 0 5266340 0 26 111 0
0 -0 0 0 5266340 0 27 81 0
0.93871766 -0.38087553 0.044035573 45 5266340 5 28 58 1014
0.97394937 -0.3543418 0.035123568 67 5266340 7 29 32 1037
1.0661941 -0.34511897 0.027642744 13 5266340 2 30 27 1121
0 -0 0 0 5266340 0 31 55 0
0.92288262 -0.37450692 0.0069533358 39 5266340 4 32 68 996
0.91142148 -0.33197126 -0.0024548031 51 5266340 5 33 52 970
0.9427321 -0.3052825 -0.011830329 72 5266340 7 34 77 991
1.0193107 -0.28998086 -0.022735361 27 5266340 3 35 60 1060
0.95657802 -0.3887251 -0.030663252 38 5266340 4 36 91 1033
0.95178491 -0.34746349 -0.039632615 65 5266340 7 37 62 1014
1.0090139 -0.32721341 -0.051637784 75 5266340 8 38 79 1062
0 -0 -0 0 5266340 0 39 65 0
1.0266738 -0.41814977 -0.073572263 36 5266340 4 40 96 1111
1.1444292 -0.41837984 -0.092325829 52 5266340 8 41 82 1222
1.2168447 -0.39498648 -0.10922876 91 5266340 15 42 104 1284
1.262798 -0.3599647 -0.12461015 111 5266340 19 43 53 1319
1.1265111 -0.45927063 -0.12558788 39 5266340 6 44 71 1223
1.2691036 -0.46453586 -0.15225822 36 5266340 7 45 69 1360
7.0532875 -2.2935724 -0.90633613 146 5266340 816 46 95 7472
8.262682 -2.3574877 -1.13457 106 5266340 795 47 130 8667
5.8155413 -2.3766389 -0.88170809 212 5266340 854 48 87 6344
6.7206616 -2.4633207 -1.0739673 176 5266340 920 49 49 7238
7.7919722 -2.5382884 -1.3098364 142 5266340 981 50 66 8299
9.2628384 -2.6456473 -1.634878 108 5266340 1034 51 84 9771
6.3541508 -2.6033556 -1.2239021 177 5266340 861 52 111 6975
4.46628 -1.639588 -0.89407939 121 5266340 285 53 66 4841
5.2499275 -1.7120245 -1.0921887 191 5266340 606 54 79 5629
10.285406 -2.9375186 -2.2268569 295 5266340 3527 55 66 10926
4.1914277 -1.7200021 -0.98286498 157 5266340 338 56 103 4636
4.6745896 -1.7188374 -1.1292752 32 5266340 85 57 63 5107
9.8601389 -3.2175291 -2.4575312 62 5266340 700 58 46 10659
10.098151 -2.8849914 -2.5990272 192 5266340 2242 59 55 10819
4.2562103 -1.7524042 -1.1812121 45 5266340 101 60 31 4752
4.3761115 -1.6132506 -1.2437851 135 5266340 314 61 39 4827
4.1570373 -1.3573942 -1.2124225 110 5266340 227 62 76 4538
1.1909964 -0.33972219 -0.35726407 69 5266340 12 63 83 1289
1.4107546 -0.58273709 0.47643495 113 5363860 29 0 31 1599
1.4681797 -0.5419876 0.4697383 114 5363860 30 1 53 1634
1.5136847 -0.49503905 0.46114987 53 5363860 15 2 25 1658
1.4807414 -0.42325181 0.43019098 306 5363860 78 3 15 1599
3.0977166 -1.2777315 0.90520549 303 5363860 366 4 68 3471
3.3819222 -1.2501346 0.93562353 321 5363860 445 5 44 3725
1.4145955 -0.46323398 0.37079644 55 5363860 13 6 80 1534
1.4443809 -0.41444069 0.35920459 149 5363860 36 7 68 1545
3.2513766 -1.3403822 0.81043673 300 5363860 391 8 73 3609
3.5172775 -1.2986341 0.82476163 287 5363860 424 9 73 3839
3.8098164 -1.2498736 0.84173965 304 5363860 510 10 53 4097
4.1856003 -1.2049416 0.87191331 185 5363860 364 11 43 4442
3.4059753 -1.4034896 0.70678973 335 5363860 472 12 91 3751
3.7035136 -1.3690114 0.7169131 301 5363860 484 13 42 4013
4.0106335 -1.3166078 0.72488189 277 5363860 508 14 98 4283
4.4398727 -1.2793158 0.75009745 294 5363860 645 15 66 4681
0 -0 0 0 5363860 0 16 36 0
4.0380063 -1.4936988 0.62118739 11 5363860 21 17 80 4350
4.2497087 -1.3976389 0.60231525 268 5363860 547 18 64 4514
4.685533 -1.3532014 0.60979962 280 5363860 677 19 73 4915
0 -0 0 2 5363860 0 20 65 0
0.95488042 -0.35339034 0.10906321 105 5363860 11 21 64 1024
0 -0 0 8 5363860 0 22 56 0
0 -0 0 0 5363860 0 23 123 0
1.135342 -0.46813822 0.098333545 12 5363860 2 24 65 1232
0 -0 0 0 5363860 0 25 51 0
0 -0 0 0 5363860 0 26 105 0
0 -0 0 0 5363860 0 27 68 0
0.88095689 -0.36375082 0.041429918 57 5363860 5 28 48 954
0.93802178 -0.34780276 0.033904232 69 5363860 7 29 30 1001
1.0184947 -0.33659706 0.026459111 18 5363860 2 30 32 1073
0 -0 0 0 5363860 0 31 64 0
0.97602314 -0.40306389 0.0073722107 44 5363860 5 32 70 1056
0.95436698 -0.35426125 -0.0025762778 61 5363860 6 33 62 1018
0 -0 -0 0 5363860 0 34 86 0
1.0520693 -0.30629042 -0.023507504 35 5363860 4 35 56 1096
0.99851221 -0.41292241 -0.032088071 29 5363860 3 36 90 1081
0.97211158 -0.36165905 -0.040570665 76 5363860 8 37 40 1038
1.0069871 -0.33339843 -0.051637784 64 5363860 7 38 64 1062
6.7259541 -1.9580092 -0.40747246 57 5363860 283 39 59 7017
0.83604723 -0.34650621 -0.060063045 37 5363860 3 40 86 907
1.186692 -0.44210351 -0.095952384 44 5363860 7 41 76 1270
1.2030487 -0.39868429 -0.10820793 272 5363860 44 42 125 1272
1.1573502 -0.33759847 -0.11440706 62 5363860 9 43 58 1211
1.1346972 -0.47074819 -0.12682015 34 5363860 5 44 70 1235
1.1433307 -0.42647192 -0.13748021 38 5363860 6 45 56 1228
6.9373393 -2.3030314 -0.89323598 165 5363860 896 46 81 7364
8.0767612 -2.3581285 -1.1110066 104 5363860 749 47 121 8487
5.7350135 -2.3848999 -0.8717013 245 5363860 965 48 81 6272
6.5831332 -2.4588366 -1.0543814 162 5363860 820 49 76 7106
7.5963445 -2.526222 -1.2795329 121 5363860 798 50 66 8107
9.0193148 -2.6360548 -1.5947213 80 5363860 730 51 68 9531
4.418921 -1.8422194 -0.85330981 210 5363860 497 52 117 4863
4.3456755 -1.6256406 -0.87191671 73 5363860 163 53 79 4721
5.0941234 -1.6958668 -1.0619202 187 5363860 561 54 83 5473
10.165701 -2.9709136 -2.2048452 334 5363860 3913 55 70 10818
4.1375084 -1.7276133 -0.97268867 236 5363860 497 56 116 4588
4.4228578 -1.6571536 -1.0708988 22 5363860 51 57 47 4843
9.6518822 -3.2152331 -2.4104972 35 5363860 388 58 63 10455
10.113801 -2.9567039 -2.6076756 216 5363860 2547 59 95 10855
4.1703329 -1.7470489 -1.1603321 291 5363860 634 60 28 4668
4.3444223 -1.6319171 -1.237601 84 5363860 193 61 43 4803
4.2583337 -1.4194436 -1.244483 60 5363860 129 62 39 4658
4.5978384 -1.3420579 -1.3816612 107 5363860 267 63 59 4985
1.4599535 -0.61357307 0.49431241 88 5460970 24 0 41 1659
1.4110385 -0.53075397 0.45248967 107 5460970 26 1 50 1574
1.4450189 -0.48241711 0.44112408 46 5460970 11 2 44 1586
1.6556014 -0.48424152 0.48184618 114 5460970 36 3 29 1791
3.0684538 -1.2877487 0.89894652 295 5460970 351 4 81 3447
3.3415782 -1.25858 0.92658126 307 5460970 417 5 51 3689
3.6204252 -1.2102181 0.9509213 221 5460970 343 6 65 3934
1.4642079 -0.4298709 0.36478448 108 5460970 27 7 58 1569
3.210741 -1.3467379 0.80235255 316 5460970 404 8 84 3573
3.4653659 -1.3036845 0.81444937 320 5460970 461 9 70 3791
3.7575309 -1.2583097 0.83187795 271 5460970 444 10 53 4049
4.166841 -1.2272768 0.8695578 249 5460970 488 11 38 4430
3.386431 -1.4198052 0.70452857 323 5460970 452 12 100 3739
3.6839948 -1.3875486 0.71476936 282 5460970 451 13 54 4001
4.0136933 -1.3449496 0.72691286 289 5460970 533 14 107 4295
4.3864932 -1.2931368 0.74240577 301 5460970 647 15 69 4633
0 -0 0 7 5460970 0 16 33 0
0 -0 0 7 5460970 0 17 86 0
4.2072291 -1.412334 0.59751165 270 5460970 542 18 68 4478
4.6543031 -1.3751779 0.60682195 274 5460970 656 19 78 4891
0 -0 0 0 5460970 0 20 62 0
0.9192009 -0.34661308 0.10522895 83 5460970 8 21 64 988
0 -0 0 0 5460970 0 22 61 0
0 -0 0 0 5460970 0 23 105 0
0.98905373 -0.4149375 0.085882217 31 5460970 4 24 60 1076
0 -0 0 0 5460970 0 25 56 0
1.0653023 -0.35821369 0.068485655 10 5460970 1 26 98 1126
0 -0 0 0 5460970 0 27 77 0
0.95607895 -0.40165317 0.045077834 56 5460970 6 28 44 1038
0.95830852 -0.3620286 0.034717124 52 5460970 5 29 35 1025
0.97094178 -0.32750335 0.02527548 32 5460970 3 30 42 1025
1.1750989 -0.34911779 0.018315783 13 5460970 2 31 62 1226
0.96246874 -0.40439686 0.0072884359 47 5460970 5 32 61 1044
0.98584753 -0.37284523 -0.002667384 52 5460970 6 33 54 1054
1.0071306 -0.33984709 -0.012689849 59 5460970 7 34 66 1063
0 -0 -0 0 5460970 0 35 71 0
0.94067979 -0.39578283 -0.030307047 41 5460970 4 36 107 1021
0.94744933 -0.35911718 -0.039632615 86 5460970 9 37 54 1014
1.0616978 -0.35875574 -0.054555174 74 5460970 9 38 79 1122
1.0993546 -0.32736626 -0.066721655 55 5460970 7 39 88 1149
0.92216873 -0.38884723 -0.066420324 46 5460970 5 40 71 1003
1.150396 -0.43663836 -0.093232475 43 5460970 7 41 65 1234
1.2005798 -0.40605855 -0.10820793 126 5460970 20 42 125 1272
1.0980188 -0.32761532 -0.10873865 37 5460970 5 43 55 1151
1.0328134 -0.435927 -0.1157298 38 5460970 5 44 71 1127
1.2187202 -0.46313092 -0.1468844 124 5460970 21 45 48 1312
6.7876997 -2.2996883 -0.87576914 174 5460970 908 46 95 7220
7.913949 -2.3633873 -1.0905852 126 5460970 874 47 126 8331
5.6546054 -2.3922632 -0.86169451 228 5460970 878 48 76 6200
5.070591 -1.9294288 -0.81400728 216 5460970 649 49 37 5486
7.4123869 -2.5156612 -1.2511234 154 5460970 971 50 62 7927
8.7649317 -2.6201873 -1.5525568 108 5460970 933 51 79 9279
4.2008886 -1.7816572 -0.81330264 293 5460970 630 52 97 4635
4.3135781 -1.643875 -0.86748415 186 5460970 411 53 74 4697
4.9721594 -1.689224 -1.0386367 184 5460970 528 54 89 5353
9.9559278 -2.9760339 -2.1632671 89 5460970 998 55 47 10614
4.0296855 -1.7117038 -0.94979185 654 5460970 1313 56 113 4480
4.2814035 -1.6341813 -1.039057 68 5460970 149 57 53 4699
9.2892551 -3.1578887 -2.324729 52 5460970 524 58 56 10083
11.512834 -3.4425199 -2.973783 59 5460970 909 59 78 12379
4.10607 -1.7498206 -1.1454178 505 5460970 1073 60 58 4608
4.7350016 -1.8118626 -1.3520075 22 5460970 60 61 30 5247
4.348074 -1.479062 -1.2733375 74 5460970 167 62 42 4766
4.4900856 -1.3405582 -1.3517276 219 5460970 522 63 84 4877
1.4666941 -0.6270225 0.49788794 92 5559060 26 0 43 1671
1.439953 -0.55173898 0.46283889 106 5559060 27 1 57 1610
1.4856744 -0.5061428 0.4544746 76 5559060 20 2 33 1634
1.6304535 -0.48776594 0.47538927 123 5559060 38 3 32 1767
3.0498402 -1.3020036 0.89581698 293 5559060 346 4 67 3435
3.2795703 -1.2582564 0.91151083 294 5559060 386 5 55 3629
3.5908899 -1.2248913 0.94512004 289 5559060 442 6 83 3910
1.4615426 -0.43884704 0.36478448 96 5559060 24 7 50 1569
3.2024171 -1.3664132 0.80235255 295 5559060 377 8 79 3573
3.446358 -1.3207291 0.81187135 287 5559060 411 9 59 3779
3.7386262 -1.2775443 0.82941252 291 5559060 475 10 58 4037
4.0916328 -1.2324591 0.85542506 279 5559060 529 11 44 4358
3.3342943 -1.4220638 0.6954841 334 5559060 455 12 103 3691
3.6313174 -1.3932096 0.70619422 318 5559060 496 13 52 3953
1.4202961 -0.48564088 0.25776213 82 5559060 19 14 154 1523
4.3331127 -1.3063513 0.73471409 310 5559060 651 15 47 4585
0 -0 0 0 5559060 0 16 30 0
0 -0 0 0 5559060 0 17 80 0
4.1309781 -1.4149995 0.58790445 254 5559060 494 18 59 4406
4.5773873 -1.3830463 0.59788895 288 5559060 669 19 86 4819
0 -0 0 2 5559060 0 20 66 0
0 -0 0 0 5559060 0 21 70 0
0 -0 0 0 5559060 0 22 56 0
0 -0 0 0 5559060 0 23 112 0
0.93148041 -0.39752263 0.081093244 39 5559060 4 24 52 1016
1.0810068 -0.41554552 0.08165431 15 5559060 2 25 65 1161
0.98377776 -0.33753353 0.063376598 17 5559060 2 26 100 1042
0 -0 0 0 5559060 0 27 68 0
0.95359647 -0.40751198 0.045077834 51 5559060 6 28 59 1038
0.92249006 -0.35498041 0.033497788 55 5559060 5 29 32 989
1.0029441 -0.34516636 0.026163204 70 5559060 8 30 40 1061
0 -0 0 0 5559060 0 31 57 0
0.94893521 -0.40557882 0.0072046611 40 5559060 4 32 68 1032
0.92755216 -0.3573187 -0.0025155405 68 5559060 7 33 53 994
1.0050265 -0.34602034 -0.012689849 73 5559060 8 34 71 1063
0 -0 -0 0 5559060 0 35 66 0
0.96028811 -0.41098621 -0.031019459 44 5559060 5 36 115 1045
0.91166961 -0.35196799 -0.038225539 69 5559060 7 37 51 978
0.96882612 -0.33401093 -0.049887348 50 5559060 5 38 71 1026
1.1431665 -0.34806302 -0.069508985 54 5559060 8 39 68 1197
0.93076974 -0.39921808 -0.067214988 65 5559060 7 40 92 1015
1.114213 -0.43074492 -0.090512559 40 5559060 6 41 81 1198
1.2093681 -0.41731769 -0.10922876 66 5559060 11 42 102 1284
7.0377464 -2.1469634 -0.69825143 59 5559060 321 43 23 7391
1.052056 -0.45167404 -0.11819432 31 5559060 4 44 92 1151
1.2158555 -0.47060013 -0.1468844 86 5559060 15 45 40 1312
6.6721411 -2.3062716 -0.86266899 176 5559060 891 46 93 7112
7.7058702 -2.3528421 -1.0638802 129 5559060 853 47 92 8127
5.5415783 -2.384639 -0.8466844 233 5559060 866 48 84 6092
5.0365267 -1.9519284 -0.81044626 296 5559060 882 49 52 5462
7.2960343 -2.5262022 -1.2340777 151 5559060 921 50 47 7819
