# .PCD v0.7 - Point Cloud Data file format
VERSION 0.7
FIELDS x y z intensity t reflectivity ring noise range
SIZE 4 4 4 4 4 2 1 2 4
TYPE F F F F U U U U U
COUNT 1 1 1 1 1 1 1 1 1
WIDTH 785
HEIGHT 1
VIEWPOINT 0 0 0 1 0 0 0
POINTS 785
DATA ascii
9.380146 -2.0035992 -1.266524 737 4208720 6896 47 147 9675
9.7183437 -3.2255526 -1.4370841 522 4208720 5582 48 107 10340
9.9702187 -2.908355 -1.5582765 370 4208720 4085 49 69 10502
10.162749 -2.5670774 -1.6753721 459 4208720 5177 50 58 10615
10.426697 -2.2301869 -1.8095595 335 4208720 3924 51 60 10815
9.9340248 -3.3069575 -1.8661216 54 4208720 611 52 110 10635
10.056908 -2.9391665 -1.9689693 62 4208720 709 53 71 10661
11.664582 -2.9503341 -2.3797646 322 4208720 4849 54 72 12265
11.999537 -2.5663862 -2.5545876 326 4208720 5114 55 52 12534
10.461037 -3.4888866 -2.3922882 30 4208720 386 56 82 11284
13.416771 -3.9287248 -3.1697981 158 4208720 3246 57 117 14335
13.778859 -3.487915 -3.3677793 136 4208720 2909 58 76 14607
13.151599 -2.813982 -3.3283596 161 4208720 3098 59 70 13855
15.8386 -5.3029604 -4.2863684 63 4208720 1876 60 107 17244
10.337722 -3.0365171 -2.873306 44 4208720 544 61 33 11151
16.849987 -4.2687678 -4.8192325 161 4208720 5222 62 57 18038
17.391808 -3.7136204 -5.1300235 61 4208720 2075 63 50 18509
1.6857231 -0.56654704 0.55509585 265 4306810 92 0 5 1863
1.7439653 -0.51310325 0.54563242 276 4306810 99 1 1 1898
1.8005861 -0.45704809 0.53791547 229 4306810 86 2 29 1934
11.439872 -2.4493115 3.2679985 354 4306810 5225 3 100 12147
1.8039609 -0.60526907 0.51401901 278 4306810 108 4 27 1971
1.6313148 -0.48073313 0.44131291 235 4306810 73 5 1 1757
1.702175 -0.43276387 0.43751082 145 4306810 47 6 54 1810
1.6858346 -0.36272749 0.41221344 382 4306810 120 7 11 1773
1.6713446 -0.5604164 0.4062289 321 4306810 105 8 1 1809
1.9216325 -0.56548518 0.44063196 275 4306810 116 9 33 2051
1.9621603 -0.49999341 0.42508161 318 4306810 136 10 44 2069
10.973997 -2.3712087 2.2475028 444 4306810 5816 11 156 11450
2.0067048 -0.67251498 0.40606022 315 4306810 146 12 73 2155
2.0546217 -0.60547769 0.38891599 283 4306810 134 13 38 2177
2.0847821 -0.53166586 0.36946467 263 4306810 125 14 136 2183
10.767695 -2.329386 1.7884719 461 4306810 5743 15 104 11161
7.9653835 -2.669625 1.294515 600 4306810 4338 16 69 8500
8.0255718 -2.3670399 1.2072455 400 4306810 2861 17 79 8454
10.464143 -2.6746202 1.4541496 525 4306810 6240 18 70 10898
10.537849 -2.2864025 1.3482589 530 4306810 6262 19 89 10867
7.8080568 -2.617048 0.96228683 18 4306810 120 20 57 8291
8.2548161 -2.4360621 0.92192489 109 4306810 819 21 74 8656
10.271235 -2.6304703 1.0338142 545 4306810 6189 22 78 10653
10.345953 -2.2506287 0.93358564 545 4306810 6158 23 111 10629
6.4605188 -2.16677 0.54562348 432 4306810 2021 24 72 6836
6.4717984 -1.9117213 0.47578937 431 4306810 1974 25 77 6765
10.10446 -2.5881348 0.63559067 598 4306810 6532 26 96 10450
10.177823 -2.2203805 0.53628045 570 4306810 6206 27 64 10431
6.3357511 -2.1283696 0.29053056 496 4306810 2218 28 48 6690
6.3876343 -1.8892844 0.22574598 415 4306810 1841 29 55 6665
9.9501772 -2.5586126 0.25342059 602 4306810 6353 30 55 10277
10.00082 -2.1856058 0.15295023 612 4306810 6419 31 67 10238
6.2561564 -2.1019959 0.04607632 417 4306810 1818 32 62 6600
6.2803226 -1.8600479 -0.016576247 487 4306810 2091 33 75 6550
9.5822554 -2.4652524 -0.11812422 511 4306810 5007 34 76 9895
9.8361092 -2.1562657 -0.21602881 647 4306810 6567 35 70 10072
6.2307353 -2.0968437 -0.19522963 487 4306810 2107 36 109 6577
6.3278213 -1.8791623 -0.25819829 398 4306810 1739 37 63 6606
9.0589151 -2.3346574 -0.4554044 289 4306810 2537 38 314 9366
9.6511555 -2.1155436 -0.57471216 579 4306810 5675 39 80 9897
6.8705063 -2.3181562 -0.48123279 462 4306810 2441 40 95 7267
6.994205 -2.0805113 -0.55289727 425 4306810 2277 41 84 7318
9.4355335 -2.4345295 -0.83197612 720 4306810 6887 42 103 9780
9.5083532 -2.0896337 -0.92385346 754 4306810 7214 43 69 9779
7.6664157 -2.5896826 -0.83536994 375 4306810 2484 44 87 8135
7.8207288 -2.3297887 -0.91937101 366 4306810 2471 45 60 8212
9.3140974 -2.4083991 -1.175617 740 4306810 6953 46 99 9692
9.3560562 -2.0585604 -1.2649531 750 4306810 7004 47 104 9663
9.7208796 -3.2927475 -1.4404197 533 4306810 5727 48 97 10364
9.9749298 -2.9762623 -1.5618377 409 4306810 4526 49 56 10526
10.169748 -2.6353314 -1.6791601 451 4306810 5110 50 65 10639
10.42437 -2.2966676 -1.8115673 370 4306810 4343 51 60 10827
9.9694767 -3.3868499 -1.8766499 66 4306810 758 52 88 10695
9.9934864 -2.9873085 -1.9601043 70 4306810 792 53 74 10613
11.691839 -3.0336773 -2.3890779 252 4306810 3828 54 62 12313
11.972092 -2.6374381 -2.5521417 312 4306810 4886 55 42 12522
10.284006 -3.5001101 -2.3566711 67 4306810 832 56 74 11116
13.414834 -4.0176897 -3.1751051 180 4306810 3701 57 55 14359
13.350332 -3.4667418 -3.2681777 123 4306810 2478 58 77 14175
13.964505 -3.0776422 -3.5387995 135 4306810 2926 59 136 14731
10.493179 -3.5849981 -2.8456473 38 4306810 492 60 57 11448
1.3242166 -0.39780682 -0.36872935 38 4306810 8 61 54 1431
16.901823 -4.3924375 -4.8416753 159 4306810 5205 62 57 18122
17.470041 -3.8425558 -5.1599574 43 4306810 1504 63 70 18617
1.7038862 -0.58431143 0.56224686 262 4403470 93 0 1 1887
1.7077661 -0.51385939 0.53528321 294 4403470 102 1 17 1862
1.7754387 -0.46227893 0.53124022 198 4403470 72 2 29 1910
2.0456548 -0.45112571 0.58515662 46 4403470 22 3 72 2175
1.8002131 -0.61632657 0.51401901 274 4403470 106 4 17 1971
1.6839404 -0.50749177 0.45638335 172 4403470 57 5 1 1817
1.7332896 -0.45201513 0.44621268 97 4403470 33 6 72 1846
1.7975249 -0.39831448 0.44011283 145 4403470 52 7 47 1893
1.8117045 -0.61987227 0.44126025 232 4403470 89 8 25 1965
1.963017 -0.59077537 0.45094419 272 4403470 120 9 39 2099
1.9590555 -0.51202357 0.42508161 259 4403470 111 10 35 2069
10.901813 -2.4257209 2.2357254 480 4403470 6222 11 157 11390
2.0136917 -0.68862849 0.40832132 274 4403470 129 12 71 2167
2.0734775 -0.62488711 0.39320356 216 4403470 104 13 48 2201
10.674382 -2.7920723 1.8947124 327 4403470 4096 14 137 11195
10.718515 -2.3876851 1.7827033 487 4403470 6033 15 63 11125
7.9376316 -2.714612 1.2926877 584 4403470 4211 16 58 8488
7.999526 -2.4128096 1.2055318 596 4403470 4250 17 74 8442
10.459039 -2.7417922 1.4557508 313 4403470 3722 18 143 10910
10.50038 -2.3458261 1.3452811 519 4403470 6107 19 71 10843
7.9384604 -2.71505 0.98039287 20 4403470 146 20 64 8447
8.1369076 -2.455641 0.91042215 275 4403470 2012 21 67 8548
10.278005 -2.6995118 1.0361432 554 4403470 6311 22 45 10677
10.320284 -2.3114552 0.9325316 566 4403470 6380 23 116 10617
6.4244676 -2.1986239 0.54370785 426 4403470 1979 24 65 6812
6.4828644 -1.9583185 0.47747731 469 4403470 2163 25 78 6789
10.065219 -2.6439993 0.6341309 528 4403470 5736 26 149 10426
10.152315 -2.2801623 0.53566349 593 4403470 6440 27 77 10419
6.3225722 -2.1672049 0.29053056 491 4403470 2196 28 55 6690
6.3644423 -1.9249705 0.22533953 451 4403470 1995 29 24 6653
9.9110899 -2.6134999 0.25282875 609 4403470 6398 30 46 10253
9.9872208 -2.2469285 0.15295023 648 4403470 6796 31 70 10238
6.2431412 -2.1403434 0.04607632 447 4403470 1948 32 90 6600
6.2802758 -1.9020265 -0.016606616 470 4403470 2026 33 72 6562
9.5785503 -2.5270627 -0.11826748 499 4403470 4901 34 81 9907
9.8109903 -2.2139375 -0.21577144 631 4403470 6390 35 69 10060
6.2290964 -2.1389308 -0.19558583 413 4403470 1793 36 124 6589
6.3161721 -1.9179537 -0.25819829 445 4403470 1940 37 46 6606
8.557724 -2.2615776 -0.43089834 364 4403470 2859 38 111 8862
9.6613646 -2.179996 -0.57610583 439 4403470 4317 39 47 9921
6.8901181 -2.3719618 -0.48361677 422 4403470 2251 40 97 7303
6.9584117 -2.1164241 -0.55108398 400 4403470 2129 41 102 7294
9.1545658 -2.4220419 -0.80849707 409 4403470 3690 42 171 9504
9.4836998 -2.1453006 -0.92271978 749 4403470 7141 43 50 9767
7.6616664 -2.6405635 -0.83660221 385 4403470 2558 44 75 8147
7.794879 -2.3742573 -0.91802752 370 4403470 2490 45 77 8200
9.287631 -2.4624515 -1.1741613 695 4403470 6514 46 104 9680
9.3432493 -2.1159294 -1.2649531 734 4403470 6853 47 124 9663
9.7566519 -3.3717394 -1.4487587 146 4403470 1585 48 135 10424
10.001883 -3.0512621 -1.5689598 422 4403470 4714 49 48 10574
10.187743 -2.7068105 -1.6848419 493 4403470 5614 50 43 10675
10.444695 -2.3684361 -1.8175908 366 4403470 4314 51 51 10863
9.9261827 -3.4402204 -1.8724385 64 4403470 723 52 55 10671
10.008803 -3.0589118 -1.966753 57 4403470 651 53 65 10649
11.570618 -3.0781224 -2.3681228 133 4403470 1983 54 104 12205
12.024427 -2.7264349 -2.5668163 309 4403470 4909 55 58 12594
10.328808 -3.586225 -2.3719356 223 4403470 2792 56 104 11188
13.41231 -4.1067786 -3.1804121 273 4403470 5657 57 63 14383
13.001583 -3.4614737 -3.187943 174 4403470 3320 58 42 13827
14.183918 -3.2173822 -3.5993369 366 4403470 8225 59 70 14983
10.449033 -3.641665 -2.8396816 48 4403470 623 60 33 11424
10.3551 -3.1801679 -2.8887663 41 4403470 511 61 39 11211
16.941595 -4.5139256 -4.8609109 178 4403470 5876 62 56 18194
10.631487 -2.4068911 -3.1444225 74 4403470 955 63 91 11345
1.6570188 -0.57962638 0.5479449 267 4503560 90 0 11 1839
1.7375374 -0.53446573 0.54563242 303 4503560 109 1 2 1898
1.7948419 -0.47910964 0.53791547 190 4503560 71 2 46 1934
1.9752228 -0.44832006 0.56578588 116 4503560 51 3 31 2103
1.7745236 -0.61972183 0.50776005 259 4503560 98 4 2 1947
1.6696944 -0.51439488 0.45336926 98 4503560 32 5 5 1805
1.7417325 -0.46564931 0.44911331 115 4503560 40 6 77 1858
1.7722889 -0.4041467 0.43453294 169 4503560 59 7 43 1869
1.8520285 -0.64639014 0.45203909 251 4503560 102 8 23 2013
1.9481534 -0.59936279 0.44836611 264 4503560 115 9 44 2087
1.9672209 -0.52707386 0.42754707 272 4503560 118 10 35 2081
10.921133 -2.5004458 2.2427917 374 4503560 4887 11 192 11426
2.0205557 -0.70485306 0.41058245 299 4503560 142 12 70 2179
2.1034548 -0.64802659 0.39963484 207 4503560 103 13 34 2237
10.634203 -2.8513906 1.8906504 431 4503560 5381 14 84 11171
10.680572 -2.4481149 1.7788575 489 4503560 6031 15 63 11101
7.920826 -2.7632654 1.2926877 459 4503560 3304 16 53 8488
7.9732208 -2.4583488 1.2038182 577 4503560 4102 17 88 8430
8.2253628 -2.2102697 1.1467206 81 4503560 595 18 55 8594
10.474184 -2.4075437 1.3437923 520 4503560 6105 19 67 10831
7.8766365 -2.7480035 0.97482175 15 4503560 109 20 66 8399
8.1102858 -2.5020046 0.90914404 303 4503560 2211 21 65 8536
6.6399698 -1.787608 0.67047989 199 4503560 951 22 197 6909
10.317555 -2.3774199 0.93358564 527 4503560 5954 23 116 10629
6.4221497 -2.2419448 0.54466563 422 4503560 1967 24 84 6824
6.4707265 -1.9980597 0.47747731 437 4503560 2016 25 71 6789
6.4633889 -1.740311 0.4078728 643 4503560 2891 26 118 6706
10.138133 -2.3424129 0.53566349 562 4503560 6102 27 99 10419
6.3091555 -2.2059586 0.29053056 493 4503560 2209 28 67 6690
6.3754272 -1.9710706 0.22615242 427 4503560 1902 29 31 6677
9.9064484 -2.6773939 0.25312468 540 4503560 5689 30 125 10265
9.9615564 -2.3054612 0.15277095 642 4503560 6719 31 61 10226
6.2298908 -2.1786103 0.04607632 438 4503560 1909 32 73 6600
6.2799506 -1.9440745 -0.016636984 484 4503560 2094 33 68 6574
9.586031 -2.5920522 -0.11855399 256 4503560 2528 34 76 9931
9.8322811 -2.2822328 -0.21654359 626 4503560 6383 35 83 10096
6.2498164 -2.1890068 -0.19665445 396 4503560 1739 36 87 6625
6.3157368 -1.9602273 -0.25866732 432 4503560 1890 37 48 6618
8.5321178 -2.3109107 -0.43031487 396 4503560 3101 38 118 8850
9.6594763 -2.2419443 -0.57680267 619 4503560 6111 39 75 9933
6.8641367 -2.4102273 -0.48282212 397 4503560 2111 40 91 7291
6.9795737 -2.1697366 -0.55380392 385 4503560 2071 41 67 7330
8.8625765 -2.4030716 -0.78399712 333 4503560 2827 42 128 9216
9.4703579 -2.2034512 -0.92271978 713 4503560 6806 43 66 9767
7.6903648 -2.7033594 -0.84153128 384 4503560 2580 44 93 8195
7.825706 -2.4362187 -0.9234013 351 4503560 2385 45 56 8248
9.2378626 -2.5100231 -1.1697946 714 4503560 6641 46 119 9644
9.3416767 -2.1759174 -1.266524 715 4503560 6692 47 123 9675
9.7581959 -3.4394424 -1.4520943 425 4503560 4644 48 67 10448
9.9716425 -3.1090429 -1.5671792 383 4503560 4267 49 54 10562
10.22811 -2.7848353 -1.6943119 445 4503560 5123 50 52 10735
10.441488 -2.4351659 -1.8195987 440 4503560 5209 51 62 10875
9.8491945 -3.4813757 -1.8619103 63 4503560 714 52 68 10611
10.001103 -3.1237833 -1.9689693 71 4503560 811 53 74 10661
11.721875 -3.1955028 -2.403048 206 4503560 3163 54 89 12385
12.030354 -2.8055005 -2.571708 340 4503560 5405 55 56 12618
10.339773 -3.6612771 -2.3795681 141 4503560 1774 56 138 11224
13.453873 -4.2099676 -3.1963329 242 4503560 5046 57 57 14455
12.856184 -3.5073788 -3.1575093 213 4503560 4001 58 74 13695
14.209286 -3.3149385 -3.610868 304 4503560 6877 59 71 15031
10.459348 -3.7173882 -2.8486302 30 4503560 390 60 38 11460
10.280078 -3.2262862 -2.873306 37 4503560 456 61 38 11151
12.763739 -3.484791 -3.6682594 44 4503560 836 62 77 13730
10.717584 -2.4956126 -3.1743562 32 4503560 424 63 75 11453
1.6750091 -0.5974797 0.55509585 247 4600150 86 0 1 1863
1.7451898 -0.54856348 0.5490821 275 4600150 100 1 13 1910
1.8474588 -0.50531876 0.55460364 163 4600150 65 2 26 1994
1.8036101 -0.42102209 0.51735914 247 4600150 91 3 30 1923
1.7379477 -0.61893862 0.49837157 239 4600150 87 4 26 1911
1.677586 -0.52811807 0.45638335 95 4600150 31 5 5 1817
1.7725338 -0.48555678 0.45781517 88 4600150 32 6 73 1894
1.7356869 -0.40701979 0.42616311 243 4600150 82 7 34 1833
1.8810772 -0.6695047 0.46012324 236 4600150 99 8 21 2049
1.9108982 -0.60076034 0.44063196 274 4600150 115 9 27 2051
1.9752749 -0.54224348 0.43001249 273 4600150 119 10 46 2093
1.823006 -0.4291749 0.37491092 350 4600150 128 11 16 1910
2.0495031 -0.72908741 0.41736585 288 4600150 141 12 86 2215
2.0881772 -0.65737563 0.39749107 211 4600150 104 13 54 2225
10.616507 -2.9165871 1.8906504 440 4600150 5493 14 92 11171
10.688408 -2.519038 1.7827033 494 4600150 6118 15 70 11125
7.9595909 -2.8316905 1.3018253 435 4600150 3176 16 46 8548
7.9579864 -2.5072253 1.2038182 587 4600150 4174 17 81 8430
8.177247 -2.2512279 1.1419171 48 4600150 355 18 64 8558
10.493979 -2.4799824 1.3482589 516 4600150 6098 19 69 10867
7.9157739 -2.816258 0.98178566 49 4600150 347 20 55 8459
8.1175404 -2.5588958 0.91170025 116 4600150 853 21 68 8560
6.5828228 -1.8156143 0.66582179 589 4600150 2771 22 48 6861
10.291142 -2.437927 0.9325316 523 4600150 5896 23 113 10617
6.4195414 -2.2853198 0.54562348 429 4600150 2007 24 69 6836
6.446929 -2.0341239 0.47663334 432 4600150 1986 25 75 6777
6.5103216 -1.7958623 0.41152212 440 4600150 2014 26 118 6766
10.100249 -2.3990364 0.53442961 603 4600150 6518 27 81 10395
6.2955012 -2.2446294 0.29053056 510 4600150 2281 28 52 6690
6.3632131 -2.0101526 0.22615242 440 4600150 1960 29 46 6677
6.3751612 -1.7650458 0.16316862 634 4600150 2774 30 44 6617
9.9472227 -2.3665409 0.15277095 622 4600150 6508 31 73 10226
6.1938004 -2.208734 0.045908768 415 4600150 1796 32 73 6576
6.2564621 -1.9789521 -0.016606616 481 4600150 2073 33 77 6562
9.5121269 -2.6348066 -0.11783772 432 4600150 4207 34 140 9871
9.7130651 -2.317461 -0.21422715 546 4600150 5449 35 84 9988
6.2475629 -2.231348 -0.19701065 383 4600150 1688 36 93 6637
6.3264499 -2.006192 -0.25960535 423 4600150 1864 37 50 6642
8.4946785 -2.3568106 -0.4291479 385 4600150 2999 38 113 8826
9.6105795 -2.2928314 -0.57471216 726 4600150 7114 39 87 9897
6.8830371 -2.4644079 -0.48520607 412 4600150 2213 40 94 7327
7.0573635 -2.2414985 -0.56105697 442 4600150 2439 41 75 7426
8.790062 -2.4414074 -0.77889293 170 4600150 1425 42 121 9156
9.4334221 -2.2559614 -0.92045236 720 4600150 6839 43 63 9743
7.6961055 -2.7585506 -0.84399581 352 4600150 2380 44 83 8219
7.8447018 -2.4950333 -0.92743164 358 4600150 2460 45 63 8284
9.2452383 -2.5730457 -1.1727058 721 4600150 6741 46 101 9668
9.3050098 -2.2276561 -1.2633822 718 4600150 6688 47 109 9651
9.7816401 -3.5153289 -1.4587654 152 4600150 1675 48 111 10496
9.9976082 -3.1845763 -1.5743015 398 4600150 4475 49 53 10610
10.21083 -2.8475416 -1.6943119 459 4600150 5285 50 46 10735
10.472369 -2.5102186 -1.8276299 347 4600150 4146 51 61 10923
9.9387894 -3.5817976 -1.8829669 52 4600150 602 52 84 10731
10.015454 -3.1958456 -1.9756181 69 4600150 794 53 71 10697
10.057997 -2.808326 -2.0654378 331 4600150 3755 54 70 10645
12.081461 -2.8956938 -2.5863824 297 4600150 4777 55 44 12690
10.559782 -3.8122594 -2.4355378 65 4600150 863 56 72 11488
13.516965 -4.3209472 -3.2175608 255 4600150 5409 57 62 14551
12.924389 -3.6113353 -3.1796429 269 4600150 5109 58 41 13791
14.211332 -3.4074945 -3.6166332 280 4600150 6355 59 73 15055
10.403557 -3.7696166 -2.8396816 39 4600150 504 60 40 11424
10.392583 -3.3317795 -2.9104106 60 4600150 759 61 56 11295
17.141069 -4.7931094 -4.9346504 118 4600150 4028 62 106 18470
10.500232 -2.5130217 -3.1144891 55 4600150 697 63 91 11237
1.6605463 -0.60383153 0.55152035 242 4697850 83 0 1 1851
1.7089614 -0.54872036 0.53873295 267 4697850 94 1 24 1874
1.7888273 -0.50109905 0.53791547 179 4697850 67 2 30 1934
1.7672769 -0.42399204 0.50767374 298 4697850 106 3 28 1887
1.7341173 -0.62959087 0.49837157 194 4697850 71 4 25 1911
1.6632563 -0.53484583 0.45336926 77 4697850 25 5 10 1805
1.7695211 -0.49642369 0.45781517 82 4697850 29 6 54 1894
1.6764251 -0.40399069 0.41221344 340 4697850 107 7 45 1773
1.8879261 -0.68502265 0.46281797 275 4697850 117 8 43 2061
1.9518101 -0.62680799 0.45094419 278 4697850 122 9 35 2099
1.9719106 -0.55435336 0.43001249 283 4697850 124 10 40 2093
1.9232686 -0.4652521 0.39611009 387 4697850 157 11 32 2018
2.0228331 -0.73361331 0.41284361 279 4697850 134 12 81 2191
2.0728641 -0.6665616 0.3953473 203 4697850 99 13 45 2213
10.587026 -2.9784708 1.8886194 485 4697850 6043 14 79 11159
10.649726 -2.5789976 1.7788575 522 4697850 6427 15 53 11101
7.8751707 -2.8562143 1.2908601 284 4697850 2039 16 32 8476
7.9650645 -2.5632844 1.2072455 545 4697850 3897 17 80 8454
8.0946007 -2.2819984 1.1323099 334 4697850 2402 18 54 8486
10.478564 -2.5443256 1.3482589 481 4697850 5685 19 71 10867
7.9767771 -2.893223 0.99153495 25 4697850 186 20 60 8543
7.8518214 -2.5282021 0.88358235 38 4697850 258 21 55 8296
6.5830517 -1.8592176 0.66698629 663 4697850 3130 22 57 6873
10.287603 -2.5038531 0.93358564 537 4697850 6068 23 112 10629
6.4053979 -2.3246663 0.54562348 413 4697850 1932 24 65 6836
6.4343266 -2.0736432 0.47663334 434 4697850 1995 25 59 6777
6.4991798 -1.835775 0.41152212 458 4697850 2097 26 98 6766
10.096982 -2.4638062 0.53504658 600 4697850 6500 27 87 10407
6.28161 -2.2832155 0.29053056 482 4697850 2159 28 64 6690
6.350759 -2.0491586 0.22615242 414 4697850 1844 29 43 6677
6.3872943 -1.8106735 0.16376044 457 4697850 2014 30 38 6641
9.9325142 -2.4275312 0.15277095 610 4697850 6384 31 62 10226
6.1914091 -2.2507968 0.045992546 418 4697850 1815 32 82 6588
6.255621 -2.0209928 -0.016636984 464 4697850 2007 33 71 6574
6.2750459 -1.7796816 -0.077870063 607 4697850 2584 34 85 6523
9.5588341 -2.3427455 -0.21113858 583 4697850 5653 35 68 9844
6.2788382 -2.2860548 -0.19843549 359 4697850 1604 36 115 6685
6.371058 -2.0634458 -0.26195046 421 4697850 1893 37 63 6702
6.5200167 -1.8521094 -0.32995668 179 4697850 822 38 278 6786
9.6196012 -2.3574607 -0.57610583 680 4697850 6696 39 88 9921
6.9127784 -2.523016 -0.48838475 435 4697850 2368 40 73 7375
6.9979496 -2.2699914 -0.55743045 553 4697850 3011 41 88 7378
8.9359245 -2.5410817 -0.79318458 133 4697850 1153 42 154 9324
9.4542065 -2.322351 -0.92385346 706 4697850 6747 43 52 9779
7.6902456 -2.8098173 -0.84522796 361 4697850 2449 44 70 8231
7.9766812 -2.5910113 -0.94489658 320 4697850 2281 45 203 8440
9.2178202 -2.626461 -1.1712502 727 4697850 6779 46 111 9656
9.2796144 -2.2818682 -1.2618115 746 4697850 6931 47 117 9639
9.8268375 -3.5998075 -1.4687723 183 4697850 2046 48 88 10568
10.00045 -3.2532029 -1.5778626 377 4697850 4268 49 66 10634
10.238744 -2.9231527 -1.7018877 378 4697850 4390 50 53 10783
10.479745 -2.5800853 -1.8316456 365 4697850 4369 51 51 10947
9.8500891 -3.6182725 -1.870333 75 4697850 855 52 82 10659
9.995656 -3.2572391 -1.9756181 55 4697850 634 53 71 10697
10.029258 -2.8667526 -2.0631094 100 4697850 1125 54 53 10633
12.120503 -2.9838114 -2.5986111 307 4697850 4998 55 62 12750
10.525186 -3.8729315 -2.4329937 31 4697850 410 56 99 11476
13.512448 -4.411068 -3.2228677 212 4697850 4508 57 93 14575
12.879534 -3.6841474 -3.1741095 422 4697850 8005 58 74 13767
13.72642 -3.3804245 -3.4984412 137 4697850 2907 59 106 14563
13.389626 -4.9447389 -3.6629505 104 4697850 2248 60 53 14736
10.294809 -3.3702326 -2.8887663 27 4697850 333 61 56 11211
17.166924 -4.9141064 -4.9506807 220 4697850 7559 62 98 18530
10.462221 -2.5718977 -3.107837 243 4697850 3051 63 39 11213
1.6997743 -0.62993151 0.56582236 234 4797100 84 0 4 1899
1.7383267 -0.56993836 0.5490821 249 4797100 91 1 25 1910
1.7857189 -0.51206565 0.53791547 203 4797100 76 2 45 1934
1.764642 -0.43482786 0.50767374 287 4797100 102 3 22 1887
1.6324382 -0.6040374 0.47020611 212 4797100 69 4 36 1803
1.6930501 -0.55591196 0.46241152 95 4797100 32 5 16 1841
1.7216746 -0.49441603 0.44621268 92 4797100 32 6 60 1846
1.6739147 -0.41426945 0.41221344 341 4797100 107 7 45 1773
1.894655 -0.70064974 0.46551272 272 4797100 117 8 35 2073
1.9145185 -0.62781668 0.44321001 279 4797100 119 9 41 2063
1.991044 -0.57293755 0.43494335 264 4797100 118 10 49 2117
1.908958 -0.47420752 0.3937546 367 4797100 148 11 17 2006
2.0072393 -0.74192548 0.41058245 284 4797100 135 12 76 2179
2.0911705 -0.68663454 0.39963484 205 4797100 102 13 39 2237
10.557186 -3.0401027 1.8865885 472 4797100 5865 14 108 11147
10.6337 -2.6442947 1.7788575 518 4797100 6388 15 68 11101
7.9019938 -2.9209297 1.2981702 250 4797100 1814 16 38 8524
7.9604702 -2.6158166 1.2089591 544 4797100 3901 17 91 8466
8.1147261 -2.3415143 1.1371135 202 4797100 1463 18 54 8522
10.439648 -2.6028118 1.3452811 501 4797100 5895 19 71 10843
7.9588742 -2.9421132 0.99153495 48 4797100 353 20 67 8543
7.847496 -2.5800591 0.88486046 11 4797100 79 21 67 8308
6.548573 -1.8929423 0.66465724 633 4797100 2971 22 81 6849
10.260449 -2.5640316 0.9325316 557 4797100 6278 23 123 10617
6.3797946 -2.3597758 0.54466563 419 4797100 1953 24 78 6824
6.4442225 -2.1205676 0.47832125 422 4797100 1953 25 77 6801
6.4877934 -1.8756187 0.41152212 425 4797100 1946 26 92 6766
10.070049 -2.5228014 0.53442961 592 4797100 6399 27 91 10395
6.2787242 -2.3258803 0.29105166 476 4797100 2136 28 57 6702
6.3266749 -2.0843349 0.22574598 449 4797100 1993 29 45 6665
6.3875852 -1.8531737 0.16405635 426 4797100 1884 30 36 6653
9.9174328 -2.4884303 0.15277095 630 4797100 6592 31 73 10226
6.1662297 -2.2845752 0.045908768 449 4797100 1944 32 60 6576
6.2203102 -2.0518203 -0.016576247 450 4797100 1932 33 74 6550
6.2985787 -1.8281853 -0.078299828 417 4797100 1796 34 79 6559
9.5559149 -2.4042807 -0.21139596 311 4797100 3025 35 63 9856
6.2534471 -2.3203652 -0.19807927 423 4797100 1884 36 94 6673
6.3810463 -2.110028 -0.26288852 383 4797100 1731 37 52 6726
6.5085297 -1.8920807 -0.32995668 402 4797100 1850 38 137 6786
9.5701017 -2.4076726 -0.57401532 694 4797100 6784 39 83 9885
6.9083896 -2.5695589 -0.4891794 410 4797100 2238 40 88 7387
6.9725304 -2.3091254 -0.5565238 624 4797100 3387 41 95 7366
7.1636844 -2.0847089 -0.63699764 381 4797100 2137 42 105 7488
9.4166117 -2.3744752 -0.9215861 763 4797100 7257 43 49 9755
7.7287917 -2.8777769 -0.85138935 351 4797100 2415 44 78 8291
8.9679737 -2.9739609 -1.0644641 268 4797100 2421 45 138 9508
9.1900959 -2.6796367 -1.1697946 757 4797100 7042 46 112 9644
9.265439 -2.3387637 -1.2618115 744 4797100 6912 47 118 9639
9.8156977 -3.664192 -1.47044 159 4797100 1781 48 100 10580
10.025349 -3.3294642 -1.5849847 453 4797100 5163 49 55 10682
10.152369 -2.9659836 -1.6905239 288 4797100 3301 50 33 10711
10.509598 -2.6559341 -1.839677 391 4797100 4733 51 62 10995
9.8719587 -3.6952093 -1.8787556 75 4797100 864 52 71 10707
9.919529 -3.2998962 -1.9645368 58 4797100 662 53 61 10637
10.011478 -2.928237 -2.0631094 68 4797100 764 54 53 10633
12.101968 -3.0581253 -2.5986111 291 4797100 4723 55 56 12750
10.457301 -3.9209709 -2.4228172 22 4797100 290 56 92 11428
12.83007 -4.2755985 -3.0663126 186 4797100 3584 57 72 13867
12.946339 -3.7893465 -3.1962433 265 4797100 5089 58 138 13863
13.43438 -3.3960686 -3.4292555 147 4797100 3004 59 66 14275
10.378272 -3.9051874 -2.8456473 31 4797100 413 60 58 11448
10.339918 -3.4553869 -2.9073188 30 4797100 388 61 61 11283
17.136448 -5.0193481 -4.9506807 362 4797100 12431 62 110 18530
10.423884 -2.6304023 -3.1011851 290 4797100 3626 63 46 11189
1.6958771 -0.64034927 0.56582236 237 4896280 85 0 19 1899
1.7565954 -0.58788919 0.55598158 267 4896280 100 1 16 1934
1.8157241 -0.53274846 0.54792839 163 4896280 63 2 36 1970
1.7955549 -0.45414934 0.51735914 277 4896280 102 3 36 1923
1.5961813 -0.60178202 0.46081764 254 4896280 79 4 3 1767
1.73366 -0.58105463 0.47446787 100 4896280 36 5 9 1889
1.7186085 -0.50497073 0.44621268 100 4896280 34 6 53 1846
1.6939651 -0.4302792 0.4177933 290 4896280 94 7 25 1797
1.8793776 -0.70813888 0.46281797 260 4896280 110 8 39 2061
1.9328575 -0.64699239 0.44836611 258 4896280 112 9 34 2087
1.9762251 -0.58182675 0.43247789 302 4896280 134 10 39 2105
1.9060124 -0.48591176 0.3937546 417 4896280 168 11 30 2006
2.0026493 -0.7542277 0.41058245 314 4896280 149 12 81 2179
2.0869181 -0.69945282 0.39963484 181 4896280 91 13 61 2237
10.538334 -3.1048234 1.8865885 463 4896280 5756 14 82 11147
10.628753 -2.7124209 1.7807804 501 4896280 6193 15 58 11113
7.8950214 -2.9735405 1.2999977 354 4896280 2576 16 55 8536
7.9330096 -2.660835 1.2072455 562 4896280 4019 17 72 8454
8.0203638 -2.367691 1.1259052 290 4896280 2068 18 66 8438
10.446552 -2.6727221 1.3482589 499 4896280 5898 19 65 10867
7.9629803 -2.999295 0.99432051 186 4896280 1362 20 57 8567
6.5759101 -2.2067955 0.74299306 190 4896280 927 21 58 6976
6.5253816 -1.9297011 0.66349268 665 4896280 3107 22 48 6837
10.256104 -2.6299093 0.93358564 446 4896280 5039 23 116 10629
6.3651953 -2.3988769 0.54466563 418 4896280 1948 24 74 6824
6.4310899 -2.1600688 0.47832125 434 4896280 2009 25 84 6801
6.4761629 -1.9153918 0.41152212 445 4896280 2037 26 104 6766
10.05438 -2.5845425 0.53442961 572 4896280 6183 27 88 10395
6.2531185 -2.3601286 0.29053056 497 4896280 2222 28 57 6690
6.313767 -2.1231153 0.22574598 437 4896280 1940 29 37 6665
6.3875947 -1.8957455 0.16435227 443 4896280 1966 30 42 6665
9.890357 -2.5462441 0.15259168 634 4896280 6619 31 62 10214
6.163322 -2.3266053 0.045992546 454 4896280 1972 32 67 6588
6.1962309 -2.0861199 -0.016545879 447 4896280 1912 33 76 6538
6.2987452 -1.8702135 -0.07844308 415 4896280 1794 34 71 6571
9.5293655 -2.4598708 -0.21113858 469 4896280 4540 35 50 9844
6.2727509 -2.3714168 -0.19914788 372 4896280 1675 36 104 6709
6.367979 -2.1491418 -0.26288852 409 4896280 1848 37 51 6726
6.4967976 -1.9319806 -0.32995668 412 4896280 1897 38 127 6786
9.4507523 -2.4394019 -0.56774384 360 4896280 3438 39 160 9777
6.9036894 -2.6161423 -0.48997405 444 4896280 2432 40 92 7399
7.0149088 -2.3710217 -0.56105697 542 4896280 2991 41 71 7426
7.1392984 -2.1252141 -0.63597685 352 4896280 1967 42 109 7476
9.401865 -2.4322097 -0.9215861 786 4896280 7475 43 51 9755
7.7444706 -2.9378469 -0.85508615 370 4896280 2568 44 82 8327
9.1415749 -3.093919 -1.0873028 233 4896280 2202 45 67 9712
9.173481 -2.7359757 -1.1697946 745 4896280 6930 46 109 9644
9.2739468 -2.401536 -1.2649531 669 4896280 6247 47 114 9663
9.8485661 -3.745472 -1.478779 409 4896280 4635 48 65 10640
10.072166 -3.4137719 -1.5956681 418 4896280 4839 49 70 10754
10.133979 -3.0282216 -1.6905239 87 4896280 1003 50 61 10711
10.504556 -2.7233388 -1.8416848 456 4896280 5531 51 58 11007
9.8822155 -3.7683408 -1.8850725 61 4896280 707 52 81 10743
9.9437647 -3.3758645 -1.9734019 55 4896280 633 53 61 10685
9.9143763 -2.9659934 -2.0468109 61 4896280 675 54 44 10549
12.105719 -3.1382198 -2.6035025 299 4896280 4871 55 56 12774
10.531642 -4.0227227 -2.445714 92 4896280 1226 56 104 11536
12.737116 -4.331634 -3.0503919 239 4896280 4556 57 68 13795
10.473068 -3.135323 -2.5903335 87 4896280 1103 58 69 11235
13.379462 -3.4696641 -3.4206071 285 4896280 5768 59 56 14239
13.165137 -5.0462751 -3.6182077 75 4896280 1598 60 66 14556
15.739792 -5.3674984 -4.4348011 43 4896280 1259 61 56 17211
17.193947 -5.1509495 -4.9763293 222 4896280 7693 62 144 18626
10.374063 -2.6856439 -3.0912073 244 4896280 3040 63 66 11153
1.7026075 -0.65485507 0.56939787 252 4995490 92 0 1 1911
1.7094483 -0.58379829 0.54218262 271 4995490 96 1 20 1886
1.7903408 -0.53725356 0.54125309 202 4995490 76 2 39 1946
1.7815474 -0.46225542 0.51413065 280 4995490 102 3 24 1911
1.5924588 -0.6115647 0.46081764 245 4995490 76 4 1 1767
1.6861007 -0.57664645 0.46241152 103 4995490 35 5 16 1841
1.7489322 -0.5255596 0.45491457 99 4995490 35 6 59 1882
1.7025872 -0.44360778 0.42058325 239 4995490 78 7 40 1809
1.9295822 -0.74060786 0.47629157 241 4995490 108 8 48 2121
1.9177605 -0.65505171 0.44578803 253 4995490 109 9 29 2075
1.9726179 -0.59394169 0.43247789 298 4995490 132 10 35 2105
1.9257628 -0.50355101 0.39846554 415 4995490 171 11 25 2030
2.01999 -0.77494395 0.41510469 301 4995490 146 12 98 2203
2.0714154 -0.70842403 0.39749107 162 4995490 80 13 187 2225
10.462464 -3.1523671 1.8764338 184 4995490 2265 14 85 11087
10.600451 -2.7745874 1.7788575 502 4995490 6181 15 46 11101
7.9209199 -3.0389206 1.307308 301 4995490 2215 16 50 8584
7.9052963 -2.7056148 1.2055318 588 4995490 4193 17 79 8442
7.971529 -2.4065473 1.1211016 602 4995490 4252 18 66 8402
10.418439 -2.7337484 1.34677 366 4995490 4312 19 123 10855
7.8554034 -3.013942 0.98317844 182 4995490 1308 20 83 8471
6.4832277 -2.2200449 0.73404646 511 4995490 2429 21 72 6892
6.5477142 -1.9800751 0.66698629 536 4995490 2534 22 61 6873
6.5519519 -1.7229904 0.59735775 658 4995490 3043 23 140 6801
6.3615232 -2.4421749 0.54562348 415 4995490 1941 24 72 6836
6.3950677 -2.1917269 0.47663334 433 4995490 1990 25 85 6777
6.4528232 -1.9516252 0.41079226 433 4995490 1976 26 98 6754
10.061509 -2.6522958 0.53566349 555 4995490 6022 27 134 10419
6.2385192 -2.3984528 0.29053056 484 4995490 2169 28 59 6690
6.311965 -2.1657081 0.22615242 460 4995490 2049 29 43 6677
6.341404 -1.9244522 0.16346453 437 4995490 1919 30 29 6629
9.8861485 -2.6099451 0.15277095 646 4995490 6759 31 75 10226
6.1601305 -2.3686857 0.04607632 462 4995490 2013 32 90 6600
6.217361 -2.1357958 -0.016636984 466 4995490 2016 33 60 6574
6.2527065 -1.8983691 -0.078013323 424 4995490 1812 34 80 6535
9.5488853 -2.5275049 -0.21191071 303 4995490 2962 35 63 9880
6.2692757 -2.4141715 -0.19950408 401 4995490 1812 36 97 6721
6.4000225 -2.2037904 -0.26476461 369 4995490 1691 37 53 6774
6.4962883 -1.9752947 -0.33054018 436 4995490 2014 38 140 6798
8.624938 -2.282783 -0.5189656 172 4995490 1370 39 52 8937
6.9210186 -2.6713881 -0.49235803 508 4995490 2810 40 83 7435
7.0567889 -2.4335246 -0.5655902 453 4995490 2540 41 89 7486
7.1718774 -2.1829059 -0.64006013 367 4995490 2077 42 118 7524
9.1558237 -2.4285955 -0.89891255 441 4995490 3995 43 88 9515
7.8599105 -3.0369363 -0.86987329 269 4995490 1931 44 112 8471
9.088604 -3.1382763 -1.0832725 381 4995490 3570 45 77 9676
9.1793079 -2.7991602 -1.1727058 517 4995490 4834 46 102 9668
9.3165293 -2.4736595 -1.2728076 488 4995490 4615 47 98 9723
9.8475618 -3.8144157 -1.4821146 443 4995490 5042 48 72 10664
10.095892 -3.4910219 -1.6027901 335 4995490 3903 49 55 10802
10.183203 -3.1111193 -1.7018877 63 4995490 728 50 43 10783
10.544816 -2.8029382 -1.8517239 375 4995490 4588 51 51 11067
9.8148575 -3.8117981 -1.8766499 77 4995490 886 52 60 10695
9.9340076 -3.4406745 -1.9756181 59 4995490 670 53 50 10697
10.01982 -3.0646453 -2.0724227 70 4995490 794 54 50 10681
12.165713 -3.2335646 -2.6206229 188 4995490 3100 55 54 12858
11.064159 -4.3041029 -2.5754626 43 4995490 635 56 112 12148
12.743466 -4.4212136 -3.058352 212 4995490 4065 57 59 13831
13.959578 -4.272584 -3.4590807 420 4995490 9443 58 55 15003
13.380436 -3.5576801 -3.4263728 222 4995490 4524 59 71 14263
13.220547 -5.1607733 -3.6420705 78 4995490 1667 60 40 14652
13.855831 -4.8201461 -3.9122415 28 4995490 653 61 78 15183
10.240452 -3.1364276 -2.9693396 67 4995490 829 62 103 11114
17.801558 -4.7252145 -5.3129516 270 4995490 9934 63 73 19169
1.6985574 -0.66528976 0.56939787 238 5093530 87 0 1 1911
1.6949804 -0.59049511 0.53873295 280 5093530 98 1 8 1874
1.775991 -0.54484814 0.53791547 211 5093530 79 2 19 1934
1.7898465 -0.47614935 0.51735914 253 5093530 94 3 22 1923
1.5994653 -0.62554383 0.46394712 163 5093530 52 4 22 1779
1.7483332 -0.60993767 0.48049608 89 5093530 32 5 18 1913
1.7011516 -0.52260327 0.44331208 143 5093530 48 6 68 1834
1.6885574 -0.45103437 0.4177933 214 5093530 69 7 39 1797
1.8923283 -0.73966247 0.46820739 260 5093530 113 8 45 2085
1.9469068 -0.67837524 0.45352221 269 5093530 120 9 38 2111
1.9913852 -0.61294395 0.4374088 248 5093530 112 10 38 2129
1.8771753 -0.50317198 0.38904369 397 5093530 156 11 24 1982
2.015197 -0.78732377 0.41510469 274 5093530 133 12 72 2203
10.47264 -3.6535702 2.0138953 318 5093530 4038 13 144 11273
10.533348 -3.2443552 1.8926815 451 5093530 5645 14 70 11183
10.583226 -2.8395784 1.7788575 520 5093530 6402 15 56 11101
7.8800306 -3.0788331 1.3036529 244 5093530 1785 16 45 8560
7.8773327 -2.7501552 1.2038182 574 5093530 4082 17 78 8430
7.9225206 -2.4448936 1.116298 602 5093530 4216 18 60 8366
8.2052307 -2.2069139 1.0624037 116 5093530 847 19 54 8563
7.8811679 -3.0794361 0.98874938 50 5093530 359 20 57 8519
6.4469557 -2.2519143 0.73149031 632 5093530 2983 21 66 6868
6.5354414 -2.0202138 0.66698629 414 5093530 1954 22 53 6873
6.5989652 -1.7787151 0.60262781 430 5093530 2025 23 91 6861
6.3575592 -2.485518 0.54658127 427 5093530 2004 24 80 6848
6.3814988 -2.2309251 0.47663334 418 5093530 1921 25 81 6777
6.4407268 -1.9911822 0.41079226 440 5093530 2008 26 94 6754
6.4354234 -1.7387303 0.34317631 649 5093530 2891 27 121 6675
6.2236853 -2.4366865 0.29053056 511 5093530 2285 28 55 6690
6.321197 -2.2123203 0.22696529 427 5093530 1915 29 48 6701
6.3294764 -1.9633261 0.16346453 461 5093530 2025 30 36 6629
9.8467836 -2.6642885 0.1524124 599 5093530 6234 31 121 10202
6.1454806 -2.4064391 0.04607632 474 5093530 2066 32 90 6600
6.2041392 -2.1739047 -0.016636984 477 5093530 2064 33 64 6574
6.2753205 -1.947368 -0.07844308 372 5093530 1608 34 80 6571
9.5216188 -2.5829072 -0.21165332 411 5093530 4006 35 63 9868
6.3101788 -2.4744885 -0.20128511 416 5093530 1913 36 119 6781
6.4090066 -2.2509656 -0.26570266 414 5093530 1911 37 57 6798
6.484046 -2.0151181 -0.33054018 431 5093530 1991 38 126 6798
8.599206 -2.3325255 -0.51826876 202 5093530 1613 39 58 8925
6.9379282 -2.7269444 -0.49474201 521 5093530 2909 40 90 7471
7.0417242 -2.4767783 -0.5655902 413 5093530 2317 41 69 7486
7.1811819 -2.233974 -0.64210182 391 5093530 2227 42 123 7548
8.8986616 -2.4189222 -0.87510532 371 5093530 3179 43 53 9263
8.5298061 -3.3560684 -0.94627333 186 5093530 1579 44 128 9215
9.0354347 -3.1821003 -1.079242 141 5093530 1313 45 76 9640
9.093729 -2.8341658 -1.1639724 517 5093530 4761 46 115 9596
9.3241339 -2.537025 -1.2759494 449 5093530 4266 47 111 9747
9.9013548 -3.9052887 -1.4937891 369 5093530 4266 48 85 10748
10.029515 -3.5371158 -1.5956681 394 5093530 4552 49 45 10754
10.084744 -3.1488214 -1.6886299 74 5093530 844 50 28 10699
10.196387 -2.7774167 -1.7934968 293 5093530 3372 51 65 10719
9.8132553 -3.8806381 -1.8808612 61 5093530 706 52 66 10719
9.8904686 -3.4937077 -1.9711856 68 5093530 769 53 56 10673
9.9334116 -3.1049953 -2.0584526 65 5093530 727 54 45 10609
10.69474 -2.9129639 -2.3075666 54 5093530 697 55 75 11322
10.481484 -4.151659 -2.445714 23 5093530 309 56 93 11536
12.705065 -4.495419 -3.0556986 178 5093530 3406 57 71 13819
13.98882 -4.375587 -3.4729142 214 5093530 4860 58 91 15063
13.290921 -3.6213405 -3.4090765 435 5093530 8769 59 66 14191
13.663898 -5.4306893 -3.7733161 32 5093530 726 60 57 15180
13.902488 -4.9322104 -3.9338861 27 5093530 621 61 41 15267
16.930798 -5.2993817 -4.9186206 407 5093530 13807 62 186 18410
17.827858 -4.8494859 -5.3295813 86 5093530 3190 63 84 19229
1.7157235 -0.68418539 0.57654881 271 5190710 101 0 6 1935
1.7346463 -0.61627507 0.55253184 261 5190710 96 1 15 1922
1.7726145 -0.55573517 0.53791547 217 5190710 81 2 23 1934
1.7868912 -0.48712268 0.51735914 249 5190710 92 3 21 1923
1.6063598 -0.63963187 0.46707663 135 5190710 43 4 15 1791
1.7226709 -0.61286718 0.47446787 91 5190710 32 5 13 1889
1.720132 -0.54000682 0.44911331 238 5190710 82 6 44 1858
1.6857581 -0.46138668 0.4177933 183 5190710 59 7 38 1797
1.9094839 -0.75990731 0.47359687 275 5190710 122 8 50 2109
1.920621 -0.68246037 0.44836611 284 5190710 124 9 28 2087
1.9539779 -0.61458045 0.43001249 292 5190710 128 10 35 2093
1.9421313 -0.53337741 0.40317646 335 5190710 141 11 25 2054
2.0541301 -0.81709766 0.42414922 237 5190710 120 12 91 2251
10.427777 -3.7098451 2.0096078 374 5190710 4736 13 85 11249
9.7348318 -3.0639296 1.7525455 66 5190710 707 14 125 10355
10.554182 -2.9013226 1.7769345 491 5190710 6032 15 52 11089
10.164188 -4.043345 1.685611 150 5190710 1843 16 67 11068
7.9162555 -2.8183556 1.2123864 471 5190710 3397 17 81 8490
7.9413967 -2.504189 1.1211016 525 5190710 3709 18 68 8402
8.1685762 -2.2508922 1.059426 104 5190710 755 19 56 8539
7.9285736 -3.1541708 0.99710608 199 5190710 1465 20 55 8591
6.4330168 -2.2914295 0.73149031 644 5190710 3039 21 76 6868
6.5457006 -2.0674708 0.66931534 427 5190710 2029 22 50 6897
6.5994492 -1.8223537 0.6036818 438 5190710 2069 23 113 6873
6.3421888 -2.5244806 0.54658127 419 5190710 1967 24 67 6848
6.4015155 -2.2820976 0.47916523 405 5190710 1881 25 78 6813
6.4398093 -2.0342722 0.41152212 425 5190710 1946 26 93 6766
6.4592834 -1.7877748 0.34502715 457 5190710 2059 27 90 6711
6.2197533 -2.4792674 0.29105166 522 5190710 2347 28 62 6702
6.2962079 -2.2470336 0.22655885 440 5190710 1967 29 39 6689
6.3401823 -2.0093749 0.16405635 446 5190710 1973 30 40 6653
6.3383055 -1.7567923 0.098271795 699 5190710 3024 31 121 6578
6.1305995 -2.4441016 0.04607632 461 5190710 2009 32 80 6600
6.1793833 -2.2078941 -0.016606616 471 5190710 2030 33 76 6562
6.2403779 -1.978583 -0.078156576 419 5190710 1797 34 92 6547
6.3383451 -1.7612118 -0.14113082 214 5190710 929 35 175 6580
6.2948766 -2.5131605 -0.20128511 395 5190710 1816 36 110 6781
6.4176517 -2.2983339 -0.26664072 394 5190710 1832 37 51 6822
6.5286779 -2.0730019 -0.33345756 404 5190710 1899 38 143 6858
8.5731897 -2.3820381 -0.51757193 51 5190710 409 39 59 8913
6.9321823 -2.773912 -0.49553666 492 5190710 2756 40 94 7483
7.060184 -2.5320573 -0.56831008 407 5190710 2305 41 79 7522
7.2015243 -2.2888596 -0.64516431 397 5190710 2283 42 127 7584
8.8836527 -2.4734778 -0.87510532 387 5190710 3324 43 63 9263
8.9855242 -3.5991957 -0.9992606 736 5190710 6972 44 83 9731
8.768836 -3.1488197 -1.0496861 122 5190710 1069 45 42 9376
9.1215668 -2.904366 -1.1697946 684 5190710 6362 46 121 9644
9.3542309 -2.6069641 -1.2822328 458 5190710 4396 47 96 9795
9.8992615 -3.9748247 -1.4971247 320 5190710 3716 48 84 10772
10.007624 -3.5985892 -1.5956681 93 5190710 1070 49 51 10754
10.132969 -3.2322474 -1.6999937 187 5190710 2166 50 39 10771
10.179153 -2.8399282 -1.7934968 187 5190710 2154 51 58 10719
9.7783003 -3.9363663 -1.8787556 46 5190710 530 52 84 10707
9.8244629 -3.5383439 -1.9623206 61 5190710 694 53 62 10625
9.9029589 -3.1623061 -2.0561242 80 5190710 894 54 47 10597
10.00902 -2.7922738 -2.1632671 325 5190710 3657 55 47 10614
10.31442 -4.1588831 -2.412641 66 5190710 857 56 95 11380
10.530579 -3.7988863 -2.5382707 53 5190710 692 57 54 11479
13.227614 -4.2267652 -3.2903113 101 5190710 2067 58 58 14271
13.346991 -3.7247419 -3.4292555 421 5190710 8578 59 120 14275
13.522569 -5.4708352 -3.7434876 26 5190710 580 60 48 15060
14.002805 -5.0647469 -3.9709909 47 5190710 1108 61 39 15411
17.481726 -5.5898275 -5.088541 250 5190710 9067 62 120 19046
10.300657 -2.8699522 -3.0845554 37 5190710 463 63 67 11129
1.6584235 -0.67315888 0.55867136 267 5288530 94 0 21 1875
1.7200259 -0.62299293 0.5490821 255 5288530 93 1 25 1910
1.7801484 -0.57011688 0.54125309 214 5288530 81 2 46 1946
1.8172641 -0.50740206 0.52704448 215 5288530 82 3 27 1959
1.6882958 -0.68428904 0.49211255 87 5288530 31 4 26 1887
1.6861202 -0.61154467 0.46542561 82 5288530 28 5 9 1853
1.6835223 -0.53988391 0.44041145 271 5288530 90 6 60 1822
1.6604193 -0.4654215 0.41221344 267 5288530 84 7 40 1773
1.9156232 -0.77599967 0.47629157 257 5288530 115 8 50 2121
1.9163975 -0.69423223 0.44836611 260 5288530 113 9 32 2087
1.9948944 -0.64092743 0.4398742 289 5288530 132 10 37 2141
1.9841303 -0.55802679 0.41259828 324 5288530 143 11 15 2102
2.0490777 -0.82968616 0.42414922 214 5288530 109 12 89 2251
10.427017 -3.7818103 2.0138953 414 5288530 5266 13 75 11273
9.3668108 -3.0113893 1.6895859 204 5288530 2036 14 74 9983
10.547584 -2.9692369 1.7788575 478 5288530 5896 15 63 11101
10.117201 -4.0967321 1.6819558 521 5288530 6351 16 41 11044
7.8876491 -2.8628237 1.2106727 481 5288530 3461 17 60 8478
7.937202 -2.5565155 1.1227027 559 5288530 3960 18 68 8414
8.1546106 -2.3009713 1.059426 98 5288530 711 19 54 8539
7.8317375 -3.1714444 0.9873566 156 5288530 1128 20 130 8507
6.4300504 -2.3349311 0.73276836 651 5288530 3083 21 84 6880
6.5215249 -2.1039286 0.66815084 415 5288530 1969 22 72 6885
6.5766406 -1.8595606 0.60262781 457 5288530 2152 23 98 6861
6.3154931 -2.558856 0.54562348 412 5288530 1927 24 66 6836
6.3873925 -2.3213336 0.47916523 447 5288530 2076 25 74 6813
6.427206 -2.0737479 0.41152212 403 5288530 1846 26 88 6766
6.4481926 -1.8273746 0.34502715 449 5288530 2023 27 76 6711
6.2266417 -2.5263991 0.29209393 471 5288530 2133 28 60 6726
6.3048429 -2.2938249 0.22737175 421 5288530 1896 29 42 6713
6.3163204 -2.0445452 0.16376044 441 5288530 1944 30 30 6641
6.3851209 -1.812029 0.099168159 469 5288530 2069 31 63 6638
6.1154871 -2.4816723 0.04607632 472 5288530 2057 32 82 6600
6.1657195 -2.2457685 -0.016606616 458 5288530 1974 33 59 6562
6.2623663 -2.027926 -0.078586332 408 5288530 1769 34 87 6583
6.2120256 -1.767242 -0.138557 709 5288530 2959 35 86 6460
6.3015623 -2.5607691 -0.20199752 394 5288530 1825 36 94 6805
6.4034286 -2.3376684 -0.26664072 410 5288530 1910 37 74 6822
6.5158353 -2.1130221 -0.33345756 428 5288530 2013 38 112 6858
6.6917515 -1.9035914 -0.40468514 205 5288530 997 39 76 6969
6.9704771 -2.8389771 -0.49950996 481 5288530 2737 40 104 7543
7.0782299 -2.5876555 -0.57103002 399 5288530 2281 41 77 7558
7.2100887 -2.3403871 -0.64720595 403 5288530 2334 42 87 7608
8.879797 -2.5312152 -0.876239 268 5288530 2308 43 81 9275
8.9743233 -3.6587682 -1.0004928 754 5288530 7160 44 87 9743
8.6261721 -3.1574776 -1.0349081 105 5288530 894 45 48 9244
9.1262293 -2.9676471 -1.1727058 675 5288530 6311 46 99 9668
9.3380594 -2.6643116 -1.2822328 356 5288530 3415 47 117 9795
9.6766796 -3.9545712 -1.4671044 86 5288530 961 48 91 10556
9.9742126 -3.655843 -1.5938874 40 5288530 456 49 56 10742
10.011543 -3.2613287 -1.6829479 376 5288530 4270 50 51 10663
10.104656 -2.8860867 -1.7834576 604 5288530 6867 51 74 10659
9.7539635 -3.9962907 -1.8787556 72 5288530 829 52 81 10707
9.8689928 -3.6229444 -1.9756181 69 5288530 785 53 47 10697
9.8945608 -3.2266595 -2.0584526 59 5288530 658 54 57 10609
9.9691057 -2.8471828 -2.1583757 127 5288530 1420 55 42 10590
10.245311 -4.2042847 -2.4024646 231 5288530 2970 56 82 11332
10.529039 -3.8715067 -2.5435777 127 5288530 1674 57 57 11503
13.19033 -4.3042264 -3.2875447 250 5288530 5077 58 35 14259
14.533535 -4.1521583 -3.740591 128 5288530 3101 59 129 15571
13.499495 -5.5581303 -3.7464705 28 5288530 629 60 35 15072
14.189046 -5.230782 -4.0328321 46 5288530 1118 61 43 15651
17.337172 -5.6610937 -5.0564804 207 5288530 7398 62 168 18926
17.711567 -5.0520825 -5.3129516 173 5288530 6351 63 133 19169
1.696611 -0.70081514 0.57297337 265 5385090 98 0 4 1923
1.7161709 -0.63353509 0.5490821 279 5385090 102 1 30 1910
1.7766167 -0.58102894 0.54125309 232 5385090 88 2 34 1946
1.7474414 -0.49948478 0.50767374 266 5385090 95 3 21 1887
1.651937 -0.68138319 0.48272407 95 5385090 32 4 29 1851
1.7368101 -0.64201546 0.48049608 90 5385090 33 5 15 1913
1.669112 -0.5465799 0.43751082 245 5385090 80 6 51 1810
1.6799692 -0.48203877 0.4177933 287 5385090 93 7 35 1797
1.9216366 -0.79219598 0.47898629 254 5385090 115 8 57 2133
1.9230961 -0.71003723 0.45094419 251 5385090 110 9 46 2099
1.9574476 -0.64217329 0.43247789 288 5385090 128 10 38 2105
1.9919763 -0.57344586 0.41495377 294 5385090 131 11 24 2114
2.0221558 -0.83326346 0.41962692 197 5385090 98 12 80 2227
10.381467 -3.8375306 2.0096078 362 5385090 4587 13 63 11249
9.3256826 -3.0614285 1.685524 173 5385090 1718 14 92 9959
10.517784 -3.0306201 1.7769345 510 5385090 6265 15 57 11089
10.113805 -4.1677704 1.685611 441 5385090 5398 16 46 11068
7.881074 -2.915288 1.2123864 475 5385090 3427 17 68 8490
7.8874736 -2.5940225 1.1178992 580 5385090 4067 18 56 8378
8.1746588 -2.3608754 1.0638925 81 5385090 599 19 59 8575
6.3905745 -2.6336052 0.80768955 407 5385090 1972 20 216 6959
6.4267926 -2.3784826 0.73404646 609 5385090 2894 21 74 6892
6.5198364 -2.1476409 0.66931534 428 5385090 2034 22 49 6897
6.5536242 -1.8965561 0.60157382 448 5385090 2102 23 99 6849
6.2996736 -2.597559 0.54562348 437 5385090 2044 24 62 6836
6.3618035 -2.3563247 0.47832125 443 5385090 2051 25 67 6801
6.4257374 -2.1168933 0.41225201 443 5385090 2036 26 92 6778
6.459878 -1.8735819 0.34626102 468 5385090 2124 27 72 6735
6.1888604 -2.5554066 0.29105166 483 5385090 2172 28 59 6702
6.2456694 -2.3157897 0.22574598 420 5385090 1864 29 32 6665
6.3264375 -2.0907917 0.16435227 433 5385090 1922 30 52 6665
6.3623595 -1.8478267 0.098988883 466 5385090 2048 31 74 6626
6.1112361 -2.5237298 0.046160098 467 5385090 2043 32 65 6612
6.1405735 -2.2793822 -0.016576247 485 5385090 2079 33 51 6550
6.2156277 -2.0550132 -0.078156576 442 5385090 1897 34 67 6547
6.2586603 -1.8220927 -0.13984391 443 5385090 1885 35 58 6520
6.2857313 -2.5993867 -0.20199752 413 5385090 1913 36 108 6805
6.4002023 -2.3810961 -0.26710975 429 5385090 2002 37 50 6834
6.5368829 -2.1642644 -0.335208 394 5385090 1873 38 114 6894
6.679945 -1.9446154 -0.40468514 381 5385090 1848 39 57 6969
6.975049 -2.8908627 -0.50109929 420 5385090 2406 40 91 7567
7.0846443 -2.6393926 -0.57284325 364 5385090 2094 41 78 7582
7.2069426 -2.3883445 -0.6482268 400 5385090 2323 42 102 7620
7.3617411 -2.1474161 -0.72772712 338 5385090 2008 43 60 7703
8.951705 -3.7137647 -1.0004928 750 5385090 7123 44 77 9743
8.5842905 -3.2020123 -1.0322211 141 5385090 1194 45 57 9220
9.1078482 -3.0235887 -1.1727058 302 5385090 2824 46 100 9668
9.3443756 -2.7282271 -1.2853746 426 5385090 4107 47 114 9819
8.8073425 -3.6625249 -1.3386842 344 5385090 3194 48 88 9632
9.9515924 -3.7169747 -1.5938874 54 5385090 619 49 45 10742
10.03632 -3.3376544 -1.6905239 123 5385090 1406 50 47 10711
10.13218 -2.9613092 -1.791489 136 5385090 1554 51 56 10707
9.2930908 -3.8742292 -1.7945299 50 5385090 527 52 74 10227
9.8576231 -3.6875632 -1.9778345 47 5385090 544 53 63 10709
9.8969145 -3.2947476 -2.0631094 69 5385090 776 54 47 10633
9.9740009 -2.9148896 -2.1632671 266 5385090 2991 55 54 10614
10.305895 -4.3032184 -2.4228172 12 5385090 160 56 90 11428
10.548922 -3.9524634 -2.5541918 102 5385090 1367 57 63 11551
13.185827 -4.3924603 -3.2930782 310 5385090 6315 58 48 14283
14.407158 -4.2118387 -3.7146463 169 5385090 4047 59 84 15463
13.164958 -5.5151057 -3.6629505 184 5385090 3991 60 27 14736
13.342612 -5.0119524 -3.8009269 54 5385090 1168 61 36 14751
17.400843 -5.8002772 -5.0853348 140 5385090 5072 62 116 19034
17.635962 -5.1477408 -5.2996478 268 5385090 9800 63 109 19121
