# .PCD v0.7 - Point Cloud Data file format
VERSION 0.7
FIELDS x y z intensity t reflectivity ring noise range
SIZE 4 4 4 4 4 2 1 2 4
TYPE F F F F U U U U U
COUNT 1 1 1 1 1 1 1 1 1
WIDTH 802
HEIGHT 1
VIEWPOINT 0 0 0 1 0 0 0
POINTS 802
DATA ascii
5.0529099 -2.2147467 -0.88179976 285 6822790 888 50 47 5587
5.6251101 -2.2232075 -1.0265046 293 6822790 1101 51 52 6135
4.0847378 -2.1631567 -0.82383084 341 6822790 753 52 66 4695
4.4752159 -2.1618021 -0.93397224 305 6822790 779 53 57 5057
4.9705982 -2.1805303 -1.073562 247 6822790 755 54 47 5533
5.5667014 -2.2000101 -1.2461104 255 6822790 952 55 49 6114
4.0440974 -2.1445279 -0.99304128 326 6822790 716 56 81 4684
4.4519987 -2.1534626 -1.1213146 306 6822790 786 57 35 5071
4.9424381 -2.1693087 -1.2789123 281 6822790 863 58 39 5547
5.4985909 -2.1736472 -1.4632291 256 6822790 949 59 33 6091
3.9921122 -2.1229453 -1.1603321 353 6822790 769 60 30 4668
4.3847179 -2.125453 -1.2994424 306 6822790 778 61 20 5043
4.1522021 -1.8234133 -1.2573073 283 6822790 628 62 59 4706
4.0689583 -1.6065288 -1.2619267 283 6822790 586 63 38 4553
1.1851209 -0.63197017 0.419227 100 6920610 20 0 22 1407
1.3562851 -0.6581946 0.45248967 14 6920610 3 1 41 1574
5.4147081 -2.3808296 1.712763 307 6920610 1163 2 25 6158
5.5484776 -2.1942146 1.6666873 377 6920610 1446 3 32 6195
1.2193228 -0.64941603 0.37319189 121 6920610 25 4 29 1431
5.0818768 -2.4689355 1.4661033 206 6920610 701 5 19 5837
5.667994 -2.4947963 1.5426487 216 6920610 882 6 64 6382
6.4307208 -2.5506396 1.6537361 184 6920610 929 7 35 7113
4.5494189 -2.4219172 1.1876973 209 6920610 583 8 57 5289
5.0389309 -2.4456797 1.2320937 220 6920610 722 9 44 5735
5.5818014 -2.4604642 1.2805866 172 6920610 667 10 32 6233
6.2887764 -2.5006931 1.3547828 158 6920610 751 11 30 6902
4.4588323 -2.3727937 0.96908009 257 6920610 681 12 79 5143
4.9533291 -2.4064829 0.99989098 226 6920610 707 13 25 5597
5.528738 -2.4383414 1.0376492 162 6920610 610 14 66 6131
6.1860604 -2.4615996 1.0808389 164 6920610 745 15 29 6745
4.4112506 -2.3475718 0.77000803 263 6920610 672 16 40 5056
4.8976068 -2.380785 0.7856949 224 6920610 677 17 47 5502
5.4629846 -2.4128737 0.80406547 233 6920610 845 18 46 6026
6.1341548 -2.4452865 0.82567984 168 6920610 746 19 66 6655
4.3445535 -2.3121741 0.57509726 299 6920610 733 20 55 4955
4.8428988 -2.3551314 0.57684213 236 6920610 691 21 46 5416
5.4150271 -2.3947423 0.57731724 205 6920610 725 22 33 5949
6.0253301 -2.405684 0.57206166 197 6920610 837 23 68 6513
4.3465157 -2.3142896 0.39429194 263 6920610 641 24 42 4940
4.7763 -2.3242903 0.3745127 266 6920610 756 25 60 5325
5.3328753 -2.358634 0.35532254 233 6920610 796 26 88 5842
5.9669495 -2.386481 0.33083737 209 6920610 863 27 53 6435
4.2899399 -2.2868574 0.21131863 369 6920610 873 28 53 4866
4.7163091 -2.2971334 0.17778553 231 6920610 636 29 33 5249
5.2466111 -2.3263955 0.14156733 204 6920610 671 30 34 5741
5.9166842 -2.3688934 0.095224135 269 6920610 1091 31 54 6374
4.2567058 -2.2694273 0.0336776 310 6920610 722 32 68 4824
4.7010803 -2.2918482 -0.01323569 265 6920610 724 33 54 5230
5.1835656 -2.2991984 -0.06769909 183 6920610 587 34 46 5671
5.8049607 -2.3285127 -0.13418153 232 6920610 906 35 52 6256
4.2123799 -2.2484398 -0.141799 327 6920610 747 36 82 4777
4.6491346 -2.2707434 -0.20238431 306 6920610 819 37 50 5178
5.1430645 -2.2838125 -0.27394283 257 6920610 816 38 93 5634
5.7344594 -2.3001168 -0.35939106 253 6920610 968 39 43 6189
4.1662669 -2.2280321 -0.31355956 364 6920610 815 40 45 4735
4.6096978 -2.2540729 -0.38879603 292 6920610 772 41 56 5146
5.0697594 -2.2529559 -0.47366494 265 6920610 822 42 81 5568
5.6525555 -2.2708158 -0.57808155 247 6920610 924 43 37 6119
4.1034718 -2.1962931 -0.48047894 349 6920610 765 44 90 4679
4.5340395 -2.2193327 -0.56872922 317 6920610 817 45 44 5080
5.0131826 -2.2309577 -0.67053348 304 6920610 930 46 70 5528
5.6101403 -2.2553687 -0.79840106 254 6920610 946 47 76 6099
4.0703187 -2.1829374 -0.64821661 346 6920610 752 48 56 4664
4.4881639 -2.1993055 -0.74990761 313 6920610 798 49 52 5054
4.9418139 -2.2022982 -0.86475396 308 6920610 924 50 26 5479
5.5345325 -2.2267685 -1.0124497 280 6920610 1024 51 36 6051
4.0193577 -2.1602156 -0.81330264 347 6920610 747 52 61 4635
4.3983402 -2.1580515 -0.92067462 321 6920610 797 53 53 4985
4.8926187 -2.1822171 -1.0595919 288 6920610 860 54 58 5461
5.4659047 -2.1990459 -1.2265444 255 6920610 922 55 39 6018
3.9895561 -2.1470714 -0.98286498 361 6920610 776 56 88 4636
4.3861833 -2.1549366 -1.1080474 285 6920610 715 57 50 5011
4.833066 -2.1567678 -1.2540119 289 6920610 854 58 35 5439
5.3662796 -2.1595087 -1.4315189 274 6920610 971 59 51 5959
3.9278667 -2.1197989 -1.1454178 314 6920610 666 60 26 4608
4.319582 -2.1267095 -1.283982 291 6920610 722 61 21 4983
4.1409354 -1.8488563 -1.2573073 248 6920610 548 62 50 4706
4.1125145 -1.6529648 -1.2785563 275 6920610 585 63 30 4613
1.1711465 -0.63377821 0.4156515 132 7018460 26 0 26 1395
1.23882 -0.61060929 0.41454262 17 7018460 3 1 41 1442
5.4631348 -2.4422338 1.7327888 97 7018460 375 2 30 6230
5.5670738 -2.2411666 1.6763728 368 7018460 1428 3 37 6231
1.2458891 -0.67341083 0.38258037 126 7018460 27 4 30 1467
4.9728856 -2.4538126 1.4389764 210 7018460 688 5 31 5729
5.5888085 -2.5009899 1.525245 203 7018460 810 6 67 6310
6.2634363 -2.5288758 1.614677 195 7018460 939 7 44 6945
4.4624567 -2.4108789 1.1688343 82 7018460 223 8 67 5205
4.939734 -2.4350963 1.2114693 193 7018460 613 9 44 5639
5.5022969 -2.4658501 1.265794 211 7018460 800 10 35 6161
6.1969652 -2.5083299 1.3382946 191 7018460 887 11 29 6818
4.4338193 -2.3945079 0.96681893 239 7018460 630 12 68 5131
4.8749413 -2.405483 0.98702836 243 7018460 741 13 38 5525
5.3949633 -2.4189923 1.0153085 188 7018460 675 14 51 5999
6.0720329 -2.4594884 1.0635327 198 7018460 871 15 30 6637
4.3341513 -2.3407791 0.75904274 275 7018460 682 16 40 4984
4.829658 -2.3845015 0.77712679 245 7018460 724 17 56 5442
5.3395848 -2.3976326 0.78805351 212 7018460 738 18 36 5906
6.0418 -2.4515398 0.81525797 203 7018460 875 19 51 6571
4.30931 -2.3274601 0.5723117 293 7018460 711 20 50 4931
4.7641692 -2.3530989 0.56917363 242 7018460 690 21 56 5344
5.3021936 -2.3838458 0.56683642 219 7018460 746 22 50 5841
5.9329371 -2.4111066 0.56468362 180 7018460 745 23 80 6429
4.248045 -2.2954242 0.38662961 279 7018460 654 24 53 4844
4.6975617 -2.3217306 0.36944884 301 7018460 830 25 42 5253
5.2418327 -2.3569279 0.3502135 238 7018460 790 26 70 5758
5.8966956 -2.4004562 0.32775265 210 7018460 851 27 52 6375
4.1914711 -2.2675018 0.2071496 350 7018460 796 28 40 4770
4.6483765 -2.2994406 0.17575331 230 7018460 619 29 29 5189
5.1884913 -2.3388247 0.14038371 210 7018460 680 30 38 5693
5.7798119 -2.3553443 0.09325213 228 7018460 887 31 40 6242
4.1899309 -2.2669523 0.033258729 288 7018460 653 32 50 4764
4.6116519 -2.2833781 -0.01302311 296 7018460 783 33 51 5146
5.1146674 -2.3062987 -0.066982821 203 7018460 638 34 55 5611
5.7017059 -2.3278098 -0.13212247 219 7018460 830 35 38 6160
4.1035829 -2.2228272 -0.13859315 306 7018460 668 36 82 4669
4.5384374 -2.251271 -0.19816308 288 7018460 739 37 50 5070
5.0415602 -2.2758751 -0.26927498 258 7018460 792 38 95 5538
5.6204185 -2.2945085 -0.35311958 244 7018460 901 39 50 6081
4.0893745 -2.2192867 -0.30879158 360 7018460 784 40 71 4663
4.4886107 -2.2290933 -0.37972963 318 7018460 804 41 63 5026
4.9795666 -2.2495637 -0.46651912 304 7018460 915 42 86 5484
5.5721693 -2.2783291 -0.57127947 257 7018460 938 43 42 6047
4.0374722 -2.1929443 -0.47431764 381 7018460 812 44 54 4619
4.4349127 -2.2046461 -0.55798155 307 7018460 762 45 43 4984
4.9017262 -2.21749 -0.65743333 290 7018460 853 46 74 5420
5.4860888 -2.2446976 -0.78269219 299 7018460 1070 47 72 5979
4.0046587 -2.1794682 -0.63987768 348 7018460 739 48 62 4604
4.4320874 -2.2056539 -0.74278539 293 7018460 733 49 52 5006
4.8634458 -2.2032406 -0.85339016 301 7018460 879 50 30 5407
5.367487 -2.1979203 -0.98434013 300 7018460 1037 51 43 5883
3.9437973 -2.150898 -0.80066884 378 7018460 788 52 69 4563
4.3427935 -2.1639595 -0.91180956 322 7018460 784 53 55 4937
4.7933655 -2.1733079 -1.0409651 282 7018460 810 54 49 5365
5.3979487 -2.210284 -1.2143157 241 7018460 854 55 45 5958
3.8939676 -2.126544 -0.96251237 342 7018460 706 56 64 4540
4.2891035 -2.1400106 -1.0868195 299 7018460 721 57 39 4915
4.7346721 -2.1477923 -1.2318783 289 7018460 824 58 38 5343
5.2882509 -2.1659052 -1.4142225 257 7018460 889 59 51 5887
3.874007 -2.1215281 -1.1334864 357 7018460 742 60 20 4560
4.2234855 -2.111692 -1.2592454 309 7018460 737 61 30 4887
4.1716332 -1.8933464 -1.2701315 293 7018460 661 62 55 4754
4.1236372 -1.6868985 -1.2852082 307 7018460 659 63 38 4637
1.157195 -0.63543868 0.412076 180 7115210 34 0 7 1383
1.3481059 -0.67478871 0.45248967 17 7115210 4 1 39 1574
0 -0 0 7 7115210 0 2 28 0
5.5318279 -2.2665195 1.6699158 413 7115210 1590 3 33 6207
1.1706322 -0.64204645 0.3606739 116 7115210 22 4 24 1383
4.9161978 -2.4634652 1.4269201 230 7115210 741 5 34 5681
5.4991641 -2.5014856 1.5049405 187 7115210 723 6 57 6226
6.1614389 -2.5317731 1.5923575 188 7115210 880 7 38 6849
1.2381446 -0.67876524 0.32538733 65 7115210 14 8 52 1449
4.8513398 -2.4286354 1.1934229 211 7115210 650 9 44 5555
5.4229393 -2.4703543 1.2510015 178 7115210 659 10 32 6089
6.0726614 -2.5014904 1.3147399 174 7115210 780 11 24 6698
4.3260293 -2.3706956 0.94646889 291 7115210 733 12 57 5023
4.7650871 -2.3877449 0.96773446 226 7115210 662 13 41 5417
5.3262095 -2.4275253 1.0051538 190 7115210 671 14 69 5939
5.9692197 -2.4605863 1.0481493 204 7115210 871 15 35 6541
4.2781048 -2.3445296 0.75173253 300 7115210 730 16 27 4936
4.7512321 -2.3821511 0.76684505 241 7115210 696 17 63 5370
5.2382207 -2.3908463 0.775244 212 7115210 714 18 51 5810
5.9055791 -2.4385743 0.79888088 199 7115210 824 19 39 6439
4.2113309 -2.3080311 0.56116956 297 7115210 693 20 53 4835
4.6643181 -2.3394914 0.55894893 248 7115210 684 21 66 5248
5.189702 -2.3716567 0.55635566 213 7115210 699 22 52 5733
5.8186145 -2.4063501 0.55519754 230 7115210 920 23 93 6321
4.191926 -2.2984428 0.3827984 334 7115210 767 24 50 4796
4.6083384 -2.3129239 0.36354104 284 7115210 760 25 61 5169
5.1292267 -2.3442364 0.34364468 249 7115210 796 26 84 5650
5.7489948 -2.3815541 0.32034931 233 7115210 903 27 52 6231
4.1459508 -2.2758703 0.20558618 347 7115210 777 28 36 4734
4.6020293 -2.3117688 0.17453398 236 7115210 626 29 23 5153
5.0758877 -2.3256443 0.13772053 217 7115210 676 30 31 5585
5.6765833 -2.3539951 0.091817945 220 7115210 829 31 55 6146
4.1023111 -2.2521944 0.032672301 292 7115210 641 32 58 4680
4.4903436 -2.2577264 -0.012719423 292 7115210 739 33 59 5026
4.9913397 -2.2876444 -0.06555029 220 7115210 665 34 60 5491
5.5543652 -2.3075178 -0.12903389 272 7115210 983 35 56 6016
4.0583324 -2.2306316 -0.13752455 312 7115210 670 36 80 4633
4.4602842 -2.2467103 -0.19534892 327 7115210 816 37 35 4998
4.9512444 -2.2717779 -0.26519066 285 7115210 848 38 95 5454
5.5066652 -2.2875888 -0.3468481 244 7115210 869 39 38 5973
4.0127487 -2.2096827 -0.30402362 394 7115210 831 40 71 4591
4.4214282 -2.2296541 -0.37519646 340 7115210 839 41 84 4966
4.9113407 -2.2551293 -0.46141496 310 7115210 912 42 95 5424
5.4477868 -2.2665863 -0.55994266 280 7115210 982 43 42 5927
3.9821243 -2.1946304 -0.46938854 397 7115210 830 44 77 4571
4.3787212 -2.2103226 -0.55260777 335 7115210 815 45 41 4936
4.8663836 -2.2375727 -0.65452218 268 7115210 782 46 62 5396
5.3404183 -2.2234459 -0.76384163 283 7115210 964 47 82 5835
3.9183908 -2.1637874 -0.62820309 356 7115210 727 48 38 4520
4.3125539 -2.1792841 -0.72497994 294 7115210 701 49 48 4886
4.7744918 -2.1983495 -0.84013247 283 7115210 801 50 44 5323
5.332058 -2.2217124 -0.98032445 236 7115210 809 51 52 5859
3.889179 -2.1521759 -0.79224628 351 7115210 716 52 79 4515
4.2768178 -2.1639433 -0.90072823 336 7115210 800 53 67 4877
4.7157917 -2.1731179 -1.0269949 292 7115210 817 54 43 5293
5.2324624 -2.1801066 -1.1800752 262 7115210 878 55 27 5790
3.8500729 -2.1333451 -0.95488006 339 7115210 688 56 89 4504
4.2236934 -2.1398425 -1.0735521 311 7115210 732 57 57 4855
4.6577806 -2.1474695 -1.2152779 288 7115210 799 58 33 5271
5.2103486 -2.1714265 -1.396926 288 7115210 973 59 45 5815
3.8101149 -2.1170313 -1.118572 384 7115210 777 60 48 4500
4.1690941 -2.1165719 -1.2468772 283 7115210 662 61 33 4839
4.1599374 -1.9189074 -1.2701315 251 7115210 566 62 43 4754
4.1025643 -1.7077379 -1.2818823 306 7115210 654 63 31 4625
1.1732876 -0.65367734 0.419227 109 7212690 22 0 21 1407
1.3234479 -0.67263287 0.4455902 43 7212690 10 1 49 1550
0 -0 0 0 7212690 0 2 25 0
5.5284843 -2.304867 1.6731442 399 7212690 1542 3 28 6219
1.1261789 -0.62668473 0.34815595 105 7212690 19 4 44 1335
4.8285232 -2.4567137 1.4058214 230 7212690 719 5 34 5597
5.3568797 -2.4765451 1.4701331 175 7212690 649 6 63 6082
6.0273414 -2.520009 1.5616682 185 7212690 833 7 38 6717
1.2032992 -0.6692974 0.31730315 167 7212690 33 8 24 1413
4.7005286 -2.3893194 1.1599083 203 7212690 591 9 34 5399
5.3011065 -2.4542425 1.2263471 201 7212690 715 10 33 5969
5.9378266 -2.4886732 1.2888299 175 7212690 753 11 25 6566
4.2496018 -2.3628335 0.9329021 263 7212690 646 12 68 4951
4.7187767 -2.4008756 0.96130311 245 7212690 709 13 38 5381
5.236094 -2.4253647 0.99093717 223 7212690 766 14 61 5855
5.8338552 -2.4467726 1.0269973 201 7212690 824 15 36 6409
4.232542 -2.3534446 0.74624985 311 7212690 746 16 44 4900
4.630682 -2.3573766 0.74970889 259 7212690 713 17 39 5250
5.158721 -2.3929162 0.76563686 231 7212690 759 18 51 5738
5.7697496 -2.4240315 0.78250378 214 7212690 849 19 54 6307
4.1762562 -2.3222435 0.55838406 267 7212690 617 20 41 4811
4.586081 -2.3355784 0.55128038 244 7212690 655 21 61 5176
5.099227 -2.3682399 0.54820395 210 7212690 669 22 47 5649
5.7045779 -2.4002833 0.54571152 225 7212690 870 23 61 6213
4.0836663 -2.2717845 0.37417829 327 7212690 718 24 50 4688
4.508738 -2.2976761 0.35678929 278 7212690 714 25 47 5073
5.0278411 -2.3352995 0.33780578 239 7212690 738 26 69 5554
5.6238399 -2.3702407 0.31417981 238 7212690 890 27 64 6111
4.0585914 -2.260433 0.20193827 339 7212690 732 28 54 4650
4.5022883 -2.2963693 0.17128243 239 7212690 610 29 31 5057
4.9853959 -2.3212996 0.13564919 220 7212690 665 30 21 5501
5.5625367 -2.3468049 0.090204477 233 7212690 848 31 56 6038
4.0464821 -2.2539663 0.0323372 303 7212690 651 32 64 4632
4.4336548 -2.2634113 -0.012597948 295 7212690 730 33 41 4978
4.9554548 -2.3080952 -0.065263785 233 7212690 695 34 51 5467
5.4737973 -2.3135314 -0.1274896 220 7212690 779 35 60 5944
4.0131412 -2.2379651 -0.13645592 353 7212690 746 36 97 4597
4.371685 -2.2358167 -0.19206575 305 7212690 736 37 38 4914
4.8611708 -2.2666593 -0.26110631 271 7212690 782 38 104 5370
5.4263177 -2.2933521 -0.34266713 232 7212690 807 39 47 5901
3.9573035 -2.2109032 -0.300845 355 7212690 734 40 60 4543
4.3331089 -2.2185688 -0.36885002 312 7212690 744 41 80 4882
4.7998962 -2.2397201 -0.45222753 297 7212690 840 42 98 5316
5.3347645 -2.2580612 -0.5497396 274 7212690 926 43 47 5819
3.9269094 -2.1957211 -0.46445954 361 7212690 739 44 67 4523
4.33324 -2.2208319 -0.54857737 335 7212690 803 45 45 4900
4.7554393 -2.2220085 -0.64142203 297 7212690 832 46 66 5288
5.2938108 -2.2422521 -0.75912899 284 7212690 956 47 80 5799
3.8843057 -2.176173 -0.6248675 366 7212690 741 48 60 4496
4.2885423 -2.2002871 -0.72319937 291 7212690 691 49 32 4874
4.7179813 -2.2075164 -0.83255655 320 7212690 890 50 30 5275
5.2311845 -2.2174492 -0.96426183 297 7212690 985 51 36 5763
3.8346944 -2.1528652 -0.78382367 335 7212690 669 52 65 4467
4.2110076 -2.1632001 -0.88964689 329 7212690 764 53 60 4817
4.6703863 -2.1870358 -1.02001 294 7212690 814 54 59 5257
5.1540875 -2.1846626 -1.1654006 264 7212690 862 55 30 5718
3.8062425 -2.1396885 -0.94724786 362 7212690 723 56 68 4468
4.1896706 -2.1550124 -1.0682452 311 7212690 725 57 52 4831
4.5916476 -2.1512392 -1.2014444 307 7212690 833 58 32 5211
5.0896816 -2.1578867 -1.3680987 290 7212690 939 59 47 5695
3.7666769 -2.1232471 -1.1096234 330 7212690 657 60 51 4464
4.1251097 -2.1261768 -1.237601 278 7212690 641 61 36 4803
4.1271434 -1.9345801 -1.2637193 270 7212690 604 62 28 4730
4.1132431 -1.741871 -1.2885343 275 7212690 594 63 33 4649
1.1393377 -0.64395505 0.40850049 113 7310480 21 0 22 1371
1.206943 -0.62276798 0.40764317 69 7310480 14 1 31 1418
0 -0 0 6 7310480 0 2 15 0
5.524878 -2.3432586 1.6763728 412 7310480 1599 3 36 6231
1.1626651 -0.65636355 0.3606739 109 7310480 21 4 27 1383
4.7204795 -2.438319 1.3786947 228 7310480 686 5 37 5489
5.2572699 -2.469759 1.446928 175 7310480 625 6 55 5986
5.882884 -2.5021286 1.5281889 197 7310480 849 7 51 6573
1.2195379 -0.68816137 0.32269257 87 7310480 18 8 21 1437
4.6753645 -2.4127417 1.1573302 229 7310480 664 9 39 5387
5.2115602 -2.4517283 1.209089 202 7310480 699 10 32 5885
5.7925587 -2.4696827 1.2605643 217 7310480 894 11 20 6422
1.2788044 -0.72133952 0.28169838 25 7310480 6 12 108 1495
4.6095452 -2.381017 0.94200915 233 7310480 647 13 30 5273
5.103404 -2.4020441 0.96859658 195 7310480 640 14 71 5723
5.7206788 -2.4406886 1.009691 222 7310480 880 15 45 6301
4.1353831 -2.3327546 0.73162949 299 7310480 689 16 39 4804
4.5739255 -2.3639328 0.74285436 249 7310480 673 17 44 5202
5.0686374 -2.3890312 0.75442851 230 7310480 734 18 35 5654
5.6890717 -2.4313123 0.77357078 212 7310480 826 19 59 6235
4.1100235 -2.3185439 0.55142021 334 7310480 753 20 41 4751
4.4974713 -2.3253145 0.54233378 267 7310480 694 21 59 5092
5.0089922 -2.3638036 0.54005218 216 7310480 668 22 43 5565
5.5798492 -2.3882058 0.53517145 234 7310480 870 23 81 6093
4.0592327 -2.2909193 0.37322047 290 7310480 633 24 40 4676
4.4626594 -2.3087966 0.35425735 306 7310480 775 25 48 5037
4.9484248 -2.3354323 0.33342659 221 7310480 665 26 72 5482
5.5100589 -2.3622048 0.30862731 263 7310480 946 27 53 6003
4.0237699 -2.2734985 0.20089601 378 7310480 808 28 41 4626
4.4242129 -2.290864 0.16884376 266 7310480 661 29 13 4985
4.8843069 -2.3108027 0.13328192 265 7310480 773 30 35 5405
5.4377699 -2.3335738 0.088411741 263 7310480 920 31 51 5918
3.9698935 -2.2433317 0.03183455 298 7310480 619 32 53 4560
4.3664126 -2.262965 -0.012446105 279 7310480 674 33 47 4918
4.8218942 -2.2819958 -0.063687995 231 7310480 659 34 66 5335
5.3933678 -2.3186443 -0.12594531 238 7310480 819 35 57 5872
3.9262547 -2.221204 -0.1339625 355 7310480 724 36 87 4513
4.2940321 -2.2294471 -0.18925159 290 7310480 679 37 40 4842
4.7930131 -2.2707856 -0.25818893 295 7310480 832 38 107 5310
5.2910786 -2.27456 -0.33500195 257 7310480 854 39 38 5769
3.9019957 -2.2115273 -0.29766637 363 7310480 734 40 72 4495
4.2769451 -2.2230401 -0.36522347 312 7310480 730 41 64 4834
4.7320442 -2.2435186 -0.44712335 312 7310480 863 42 75 5256
5.2110825 -2.2435122 -0.5384028 331 7310480 1074 43 31 5699
3.830302 -2.1726604 -0.45460144 386 7310480 757 44 78 4427
4.2243261 -2.1978443 -0.53648633 306 7310480 702 45 37 4792
4.6556334 -2.2102776 -0.62977749 304 7310480 821 46 64 5192
5.1488419 -2.2182074 -0.74027836 303 7310480 970 47 73 5655
3.8192222 -2.1706066 -0.61652857 403 7310480 792 48 54 4436
4.1802349 -2.1772227 -0.70717442 306 7310480 694 49 35 4766
4.5973291 -2.1855478 -0.81361687 295 7310480 783 50 19 5155
5.1305671 -2.2120333 -0.94819909 289 7310480 927 51 50 5667
3.7598181 -2.1412749 -0.77118987 372 7310480 719 52 64 4395
4.1349125 -2.1562786 -0.87634927 308 7310480 694 53 72 4745
4.6143579 -2.195421 -1.0106965 275 7310480 745 54 49 5209
5.0650682 -2.1836886 -1.1482804 280 7310480 888 55 38 5634
3.7319186 -2.1281471 -0.93198335 345 7310480 667 56 83 4396
4.083003 -2.1319287 -1.0443639 321 7310480 715 57 28 4723
4.504559 -2.1442416 -1.1820774 279 7310480 732 58 44 5127
5.0228629 -2.1660125 -1.353685 305 7310480 967 59 47 5635
3.7031269 -2.1174707 -1.0947092 343 7310480 665 60 45 4404
4.0195236 -2.1030705 -1.2097723 316 7310480 696 61 31 4695
4.1465163 -1.974784 -1.2733375 303 7310480 687 62 39 4766
4.1024776 -1.7670766 -1.2885343 309 7310480 667 63 24 4649
1.1254275 -0.64523637 0.40492502 113 7407390 21 0 20 1359
1.2336432 -0.64616042 0.41799238 91 7407390 19 1 36 1454
0 -0 0 5 7407390 0 2 25 0
5.499784 -2.3725364 1.6731442 374 7407390 1445 3 34 6219
1.1887751 -0.68075591 0.37006238 142 7407390 29 4 20 1419
4.6437073 -2.4348743 1.3606101 90 7407390 263 5 50 5417
5.1894741 -2.4768922 1.4324249 172 7407390 606 6 59 5926
5.7495904 -2.4872062 1.4974996 341 7407390 1413 7 47 6441
1.1746981 -0.67239523 0.3119137 89 7407390 17 8 32 1389
4.5878015 -2.4033151 1.1392839 220 7407390 618 9 43 5303
5.1010556 -2.4380803 1.1869003 190 7407390 633 10 41 5777
5.6801376 -2.4630485 1.2393652 174 7407390 693 11 11 6314
1.172065 -0.67064363 0.25908715 65 7407390 12 12 61 1375
4.5216517 -2.3708758 0.92700273 251 7407390 675 13 50 5189
5.0352211 -2.4078019 0.95844179 202 7407390 649 14 64 5663
5.6186671 -2.4380245 0.99430776 209 7407390 803 15 39 6205
4.0695224 -2.3286335 0.72249174 322 7407390 724 16 37 4744
4.4962296 -2.3588467 0.73257262 235 7407390 617 17 44 5130
4.9573469 -2.3738594 0.74001777 225 7407390 691 18 52 5546
5.5430017 -2.4092166 0.75570482 219 7407390 811 19 53 6091
4.0129604 -2.296361 0.54027802 291 7407390 632 20 64 4655
4.4514241 -2.3362322 0.53849959 246 7407390 630 21 67 5056
4.8974676 -2.3480239 0.52957141 200 7407390 594 22 49 5457
5.4993286 -2.3937731 0.5288474 246 7407390 893 23 71 6021
4.0035763 -2.2920115 0.36938933 298 7407390 637 24 49 4628
4.3848224 -2.3027422 0.34919351 305 7407390 751 25 42 4965
4.8475981 -2.3243227 0.32758766 256 7407390 744 26 68 5386
5.4295483 -2.3672321 0.30492562 252 7407390 885 27 55 5931
3.9473357 -2.2623763 0.19776922 361 7407390 748 28 35 4554
4.3463769 -2.2844882 0.1664051 249 7407390 600 29 26 4913
4.826787 -2.3199418 0.13209829 242 7407390 694 30 39 5357
5.3133793 -2.3189015 0.086619012 250 7407390 839 31 49 5798
3.9248216 -2.2497456 0.031583223 304 7407390 623 32 59 4524
4.3099651 -2.2673664 -0.01232463 265 7407390 628 33 44 4870
4.7321024 -2.2751443 -0.062685229 238 7407390 655 34 49 5251
5.2581205 -2.2988286 -0.12311412 267 7407390 878 35 43 5740
3.8709381 -2.2213731 -0.13253768 371 7407390 740 36 81 4465
4.2484484 -2.2389815 -0.18784451 323 7407390 745 37 49 4806
4.7033896 -2.2637656 -0.25410458 300 7407390 820 38 96 5226
5.211163 -2.2781906 -0.33082098 281 7407390 911 39 51 5697
3.8364503 -2.2055891 -0.29369307 399 7407390 786 40 66 4435
4.1891427 -2.2101562 -0.358877 347 7407390 784 41 81 4750
4.6427846 -2.2361929 -0.43997756 281 7407390 752 42 91 5172
5.1315579 -2.2466969 -0.53160071 303 7407390 958 43 43 5627
3.8065529 -2.1901691 -0.4533692 374 7407390 730 44 74 4415
4.1580381 -2.1958802 -0.52976906 315 7407390 705 45 32 4732
4.5883398 -2.2129302 -0.62249964 321 7407390 847 46 68 5132
5.0697532 -2.2211142 -0.73085308 309 7407390 964 47 75 5583
3.7646501 -2.1702597 -0.60985732 369 7407390 711 48 77 4388
4.1248317 -2.1806459 -0.70005226 307 7407390 682 49 49 4718
4.5518212 -2.198256 -0.807935 326 7407390 853 50 47 5119
5.0410519 -2.210218 -0.93414426 311 7407390 968 51 47 5583
3.7056901 -2.1406672 -0.76276731 378 7407390 715 52 73 4347
4.0903335 -2.1650574 -0.86970043 341 7407390 757 53 66 4709
4.5054107 -2.1775882 -0.98974144 311 7407390 808 54 50 5101
4.9547391 -2.1722715 -1.1262686 281 7407390 857 55 29 5526
3.657882 -2.1157753 -0.91671884 344 7407390 644 56 85 4324
4.0284829 -2.1350205 -1.0337501 293 7407390 641 57 59 4675
4.4597812 -2.1565905 -1.1737772 322 7407390 834 58 28 5091
4.9134669 -2.1546881 -1.3277406 316 7407390 964 59 46 5527
3.6397913 -2.1109955 -1.0797949 369 7407390 696 60 33 4344
3.986063 -2.1168177 -1.2035881 357 7407390 778 61 41 4671
4.1343212 -2.0001893 -1.2733375 278 7407390 631 62 46 4766
4.102119 -1.7968417 -1.2918602 297 7407390 645 63 32 4661
1.09174 -0.63485473 0.39419851 109 7504870 19 0 25 1323
1.1586159 -0.61595136 0.39384428 144 7504870 27 1 32 1370
0 -0 0 4 7504870 0 2 19 0
5.495707 -2.410881 1.6763728 394 7504870 1529 3 37 6231
1.2046108 -0.69967431 0.37632138 166 7504870 35 4 3 1443
1.2552208 -0.66801178 0.36897478 76 7504870 16 5 22 1469
5.0694027 -2.4578874 1.4034187 192 7504870 649 6 61 5806
5.6594381 -2.4895418 1.47797 247 7504870 997 7 44 6357
1.1705502 -0.6795904 0.3119137 88 7504870 17 8 33 1389
4.5212283 -2.4039099 1.1263936 219 7504870 601 9 38 5243
4.9909177 -2.4231701 1.1647112 219 7504870 703 10 42 5669
5.5895534 -2.4646239 1.222877 182 7504870 706 11 21 6230
1.2596632 -0.73106253 0.27943724 81 7504870 18 12 55 1483
4.5070195 -2.3985755 0.92700273 251 7504870 675 13 41 5189
4.9246082 -2.3921442 0.9401632 203 7504870 625 14 55 5555
5.5169063 -2.4342017 0.97892439 202 7504870 752 15 44 6109
4.0243845 -2.3356996 0.71700907 301 7504870 667 16 31 4708
4.408287 -2.3473153 0.7205773 267 7504870 681 17 60 5046
4.8571305 -2.3626158 0.7272082 224 7504870 664 18 35 5450
5.4192042 -2.3950491 0.74081653 210 7504870 750 19 67 5971
3.9575615 -2.2970085 0.53470701 274 7504870 581 20 45 4607
4.3422279 -2.3130157 0.52699685 252 7504870 616 21 53 4948
4.8078046 -2.3414247 0.52141964 246 7504870 710 22 30 5373
5.3424368 -2.3645771 0.5151453 209 7504870 720 23 74 5865
3.8859947 -2.2564681 0.3598114 321 7504870 652 24 48 4508
4.3177934 -2.3014514 0.34497365 306 7504870 737 25 66 4905
4.7794027 -2.3277993 0.32393834 251 7504870 713 26 76 5326
5.2944069 -2.3470774 0.29813921 241 7504870 809 27 49 5799
3.8608272 -2.2443779 0.1941213 375 7504870 749 28 49 4470
4.2899518 -2.2885344 0.16477932 263 7504870 622 29 42 4865
4.7262197 -2.30741 0.12973101 259 7504870 716 30 30 5261
5.2222795 -2.3173928 0.085364096 259 7504870 847 31 66 5714
3.8590744 -2.2436292 0.031164348 313 7504870 625 32 68 4464
4.2007017 -2.2429011 -0.012051311 317 7504870 720 33 58 4762
4.6857071 -2.2883401 -0.062255464 222 7504870 603 34 52 5215
5.1562128 -2.2920623 -0.12105506 271 7504870 865 35 61 5644
3.8365018 -2.2330151 -0.13182527 311 7504870 614 36 97 4441
4.1606169 -2.2254193 -0.18456134 320 7504870 713 37 38 4722
4.6032677 -2.2504683 -0.24943675 288 7504870 758 38 99 5130
5.0985632 -2.2663288 -0.32454947 260 7504870 811 39 47 5589
3.7918136 -2.2109933 -0.29130909 364 7504870 705 40 76 4399
4.143857 -2.2188737 -0.35615709 341 7504870 759 41 58 4714
4.5430555 -2.2226033 -0.43181092 305 7504870 786 42 83 5076
5.0631065 -2.25385 -0.52593231 306 7504870 947 43 43 5567
3.7311854 -2.1773868 -0.44597563 389 7504870 735 44 74 4343
4.0919361 -2.193186 -0.5230518 335 7504870 730 45 47 4672
4.4997973 -2.204361 -0.61231059 321 7504870 819 46 67 5048
5.0016928 -2.2279758 -0.72299868 308 7504870 940 47 82 5523
3.6999695 -2.1633277 -0.60151833 382 7504870 716 48 75 4328
4.0590882 -2.177861 -0.69114947 303 7504870 657 49 45 4658
4.4531384 -2.1843958 -0.79278326 314 7504870 791 50 39 5023
4.9193373 -2.1929376 -0.91406596 315 7504870 939 51 45 5463
3.6619062 -2.1454487 -0.75645047 358 7504870 666 52 78 4311
4.0042462 -2.151047 -0.85418653 336 7504870 720 53 59 4625
4.3968587 -2.1585028 -0.9687863 313 7504870 779 54 50 4993
4.876935 -2.1739335 -1.1115942 308 7504870 915 55 28 5454
3.6246004 -2.126312 -0.91163063 337 7504870 624 56 76 4300
3.9843872 -2.1430678 -1.0257896 300 7504870 645 57 52 4639
4.3730993 -2.1478808 -1.1544104 302 7504870 756 58 37 5007
4.8363194 -2.1563346 -1.3104441 349 7504870 1037 59 40 5455
3.5766764 -2.1038237 -1.0648806 371 7504870 680 60 36 4284
3.9015522 -2.1027296 -1.1819438 335 7504870 704 61 28 4587
4.1634841 -2.0459189 -1.2861617 290 7504870 671 62 39 4814
4.1015491 -1.8266689 -1.2951862 287 7504870 626 63 34 4673
1.1371584 -0.67063642 0.412076 99 7602810 19 0 20 1383
1.1548147 -0.6230489 0.39384428 169 7602810 32 1 15 1370
1.2738655 -0.62670559 0.41108534 11 7602810 2 2 25 1478
5.4808106 -2.4445565 1.6763728 470 7602810 1824 3 27 6231
1.0705334 -0.6306144 0.33563799 97 7602810 16 4 43 1287
1.2306583 -0.66466171 0.36294657 135 7602810 28 5 1 1445
4.9811025 -2.4529369 1.3831142 218 7602810 712 6 54 5722
5.5375142 -2.4765713 1.4500706 203 7602810 788 7 40 6237
1.065593 -0.62742865 0.28496653 86 7602810 14 8 33 1269
4.4238806 -2.3870835 1.1057692 222 7602810 587 9 51 5147
4.9232903 -2.427778 1.1523842 219 7602810 688 10 49 5609
5.4454808 -2.4411156 1.1946114 182 7602810 673 11 23 6086
1.1942158 -0.70291007 0.26587051 51 7602810 10 12 53 1411
4.3675537 -2.358856 0.90127748 226 7602810 575 13 30 5045
4.8992314 -2.4170833 0.93813223 178 7602810 548 14 61 5543
5.4478292 -2.4437673 0.96930981 200 7602810 731 15 29 6049
3.9486523 -2.3242517 0.70604372 304 7602810 653 16 33 4636
4.3520055 -2.3517342 0.71372283 280 7602810 698 17 51 4998
4.7785678 -2.3607683 0.71760106 223 7602810 644 18 46 5378
5.3501 -2.4038551 0.73337239 240 7602810 837 19 57 5911
3.9125781 -2.3031096 0.53052866 293 7602810 613 20 66 4571
4.2964644 -2.3225932 0.52316254 294 7602810 708 21 54 4912
4.7505255 -2.3497005 0.51676154 247 7602810 699 22 45 5325
5.2624216 -2.3678832 0.50882131 228 7602810 767 23 72 5793
3.8514616 -2.2681296 0.35789579 346 7602810 695 24 33 4484
4.2614765 -2.3051209 0.34159777 312 7602810 735 25 46 4857
4.6576691 -2.3039742 0.31663972 262 7602810 711 26 67 5206
5.2034249 -2.3450511 0.29382059 248 7602810 811 27 64 5715
3.795346 -2.237582 0.19151565 386 7602810 750 28 54 4410
4.1914544 -2.2691362 0.16152775 292 7602810 664 29 24 4769
4.6474862 -2.3043916 0.12795557 270 7602810 726 30 31 5189
5.1532755 -2.3247225 0.084467724 292 7602810 932 31 49 5654
3.7935519 -2.2367918 0.030745473 335 7602810 651 32 64 4404
4.1657596 -2.2572002 -0.011990575 285 7602810 639 33 46 4738
4.6070805 -2.2850583 -0.061395943 244 7602810 647 34 65 5143
5.0764556 -2.2940145 -0.11951077 299 7602810 927 35 44 5572
3.7607522 -2.2199297 -0.12968805 347 7602810 663 36 91 4369
4.1258068 -2.2394662 -0.1836233 330 7602810 728 37 40 4698
4.5249605 -2.2466898 -0.24593589 309 7602810 791 38 96 5058
4.9972253 -2.258106 -0.31897482 248 7602810 750 39 59 5493
3.7369502 -2.2098391 -0.28813043 382 7602810 724 40 83 4351
4.0670815 -2.2099802 -0.35071728 342 7602810 738 41 80 4642
4.4543786 -2.2131958 -0.42466509 303 7602810 755 42 94 4992
4.9729953 -2.2503977 -0.51799655 307 7602810 922 43 34 5483
3.6766651 -2.1759222 -0.44104657 394 7602810 728 44 61 4295
4.0469756 -2.2011597 -0.51902139 338 7602810 725 45 55 4636
4.4328647 -2.2054012 -0.60503274 315 7602810 785 46 71 4988
4.8687162 -2.2046425 -0.70571899 317 7602810 922 47 89 5391
3.6355174 -2.1556847 -0.5931794 404 7602810 736 48 90 4268
3.9622695 -2.1573286 -0.6769051 284 7602810 590 49 42 4562
4.3972259 -2.1905437 -0.78520739 301 7602810 744 50 41 4975
4.8626852 -2.2035482 -0.90603465 325 7602810 952 51 53 5415
3.6080472 -2.1437392 -0.74802786 367 7602810 668 52 69 4263
3.9495525 -2.152997 -0.84532148 334 7602810 701 53 60 4577
4.3203206 -2.1539264 -0.95481622 288 7602810 696 54 49 4921
4.8314013 -2.18927 -1.1042569 279 7602810 818 55 49 5418
3.6014068 -2.1425161 -0.90908653 353 7602810 650 56 69 4288
3.8889828 -2.1226211 -1.0045618 321 7602810 662 57 35 4543
4.286695 -2.1381898 -1.1350433 284 7602810 687 58 49 4923
4.7487292 -2.152308 -1.2902648 355 7602810 1023 59 52 5371
3.5337529 -2.1078668 -1.0559319 376 7602810 678 60 41 4248
3.8682308 -2.1155026 -1.1757596 346 7602810 720 61 50 4563
4.1301584 -2.0611002 -1.2797498 274 7602810 628 62 41 4790
4.0902638 -1.851801 -1.2951862 276 7602810 602 63 41 4673
1.0445431 -0.62468666 0.37989655 94 7699770 15 0 36 1275
1.15097 -0.63012302 0.39384428 111 7699770 21 1 34 1370
1.321552 -0.66026831 0.42777354 10 7699770 2 2 17 1538
5.4446554 -2.468595 1.6699158 542 7699770 2087 3 36 6207
1.1163709 -0.6668762 0.35128546 93 7699770 17 4 33 1347
1.2571146 -0.6889472 0.37198886 93 7699770 20 5 3 1481
4.8618131 -2.4313719 1.3541081 205 7699770 645 6 60 5602
5.4690905 -2.4863513 1.436121 233 7699770 888 7 35 6177
1.1018828 -0.65793455 0.2957454 81 7699770 14 8 34 1317
4.4297099 -2.4254403 1.1109253 28 7699770 74 9 30 5171
4.8242941 -2.4158726 1.1326607 218 7699770 662 10 41 5513
5.4089851 -2.4647243 1.1899005 214 7699770 786 11 26 6062
1.1797609 -0.70418423 0.26360938 65 7699770 13 12 59 1399
4.3115816 -2.3629127 0.8927024 253 7699770 631 13 44 4997
4.7785683 -2.3941219 0.91782272 215 7699770 634 14 60 5423
5.3249578 -2.4280069 0.95008069 210 7699770 737 15 33 5929
3.8833978 -2.3180425 0.69690603 314 7699770 657 16 29 4576
4.2333522 -2.3212891 0.69658661 299 7699770 710 17 53 4878
4.7108426 -2.36338 0.70959514 240 7699770 678 18 42 5318
5.2486 -2.3970642 0.72146177 214 7699770 725 19 58 5815
3.8369677 -2.2904186 0.52217203 295 7699770 596 20 56 4499
4.2402878 -2.3259585 0.51805025 296 7699770 699 21 53 4864
4.6826553 -2.3520014 0.51093888 258 7699770 715 22 26 5265
5.171699 -2.3653257 0.50144321 269 7699770 878 23 73 5709
3.7963932 -2.2671869 0.35406461 312 7699770 613 24 51 4436
4.1528101 -2.2793884 0.33400202 309 7699770 696 25 45 4749
4.6113343 -2.31638 0.31445009 298 7699770 797 26 83 5170
5.0908794 -2.332016 0.28826809 279 7699770 878 27 71 5607
3.7918351 -2.2669795 0.19203679 369 7699770 721 28 34 4422
4.1354065 -2.2717147 0.15990198 304 7699770 677 29 27 4721
4.5689707 -2.3004949 0.12618011 256 7699770 670 30 28 5117
5.0298467 -2.306289 0.082674995 285 7699770 872 31 44 5534
3.7385597 -2.2353942 0.030410374 324 7699770 616 32 58 4356
4.0887384 -2.2480295 -0.011808363 319 7699770 694 33 50 4666
4.5393896 -2.2862961 -0.060679678 254 7699770 655 34 54 5083
4.9641638 -2.2800529 -0.11719435 270 7699770 805 35 44 5464
3.7264767 -2.2306423 -0.12897564 334 7699770 631 36 98 4345
4.0489693 -2.2300308 -0.18080916 348 7699770 744 37 54 4626
4.4789824 -2.2582242 -0.24418546 317 7699770 800 38 95 5022
4.9397302 -2.2687261 -0.3161875 294 7699770 871 39 43 5445
3.6822448 -2.2080956 -0.28495178 419 7699770 775 40 53 4303
4.0010519 -2.2060068 -0.3461841 314 7699770 660 41 72 4582
4.4086905 -2.2243285 -0.42160264 332 7699770 816 42 78 4956
4.8831196 -2.2459259 -0.51006085 301 7699770 876 43 37 5399
3.6325402 -2.1800139 -0.4373498 378 7699770 687 44 63 4259
3.970752 -2.1913795 -0.51096064 328 7699770 683 45 34 4564
4.3448272 -2.194962 -0.59484375 327 7699770 787 46 79 4904
4.8010616 -2.2096059 -0.69786459 309 7699770 879 47 75 5331
3.5916691 -2.1595805 -0.58817601 391 7699770 700 48 100 4232
3.9385703 -2.1758616 -0.67512459 313 7699770 647 49 34 4550
4.3202596 -2.1853912 -0.77384359 343 7699770 824 50 32 4903
4.7845979 -2.2036481 -0.89398766 322 7699770 918 51 45 5343
3.54423 -2.1353543 -0.73749965 361 7699770 638 52 80 4203
3.874347 -2.1429415 -0.83202392 356 7699770 722 53 45 4505
4.2650118 -2.159127 -0.94550282 332 7699770 787 54 55 4873
4.7218399 -2.1746438 -1.0822451 305 7699770 859 55 37 5310
3.5179017 -2.1221704 -0.89127791 400 7699770 707 56 94 4204
3.8451719 -2.1294346 -0.9966014 339 7699770 688 57 34 4507
4.2318273 -2.1433482 -1.1239763 291 7699770 691 58 32 4875
4.6507936 -2.1424153 -1.267203 344 7699770 956 59 38 5275
3.4809704 -2.1054478 -1.0440006 385 7699770 679 60 43 4200
3.8044848 -2.111069 -1.1602992 348 7699770 705 61 30 4503
4.1483793 -2.1020844 -1.2893678 304 7699770 707 62 46 4826
4.0997725 -1.8865029 -1.301838 296 7699770 652 63 36 4697
1.06028 -0.64296329 0.3870475 94 7799190 16 0 27 1299
1.1973191 -0.66507876 0.41109291 105 7799190 21 1 38 1430
1.3791523 -0.69965363 0.44779935 24 7799190 6 2 21 1610
5.4084125 -2.4922822 1.6634588 237 7799190 905 3 33 6183
1.1419842 -0.69171917 0.3606739 115 7799190 22 4 12 1383
1.2122577 -0.67406905 0.35993251 88 7799190 18 5 6 1433
4.8156567 -2.4453416 1.3454063 206 7799190 640 6 59 5566
5.358377 -2.4758043 1.4110115 191 7799190 702 7 41 6069
1.0978251 -0.66468322 0.2957454 74 7799190 13 8 41 1317
1.259282 -0.69958377 0.31688547 134 7799190 29 9 15 1475
4.7465692 -2.413491 1.1178682 233 7799190 689 10 35 5441
5.2763109 -2.4434757 1.1639905 226 7799190 794 11 18 5930
1.1855001 -0.71751195 0.26587051 68 7799190 13 12 57 1411
4.2247691 -2.3491588 0.87769598 268 7799190 646 13 37 4913
4.6794577 -2.3804977 0.90157503 244 7799190 691 14 48 5327
5.1595001 -2.3909116 0.92315984 231 7799190 766 15 33 5761
3.808224 -2.30498 0.68594068 347 7799190 704 16 22 4504
4.1671348 -2.3183496 0.68801856 282 7799190 654 17 54 4818
4.6326704 -2.3598523 0.69998795 252 7799190 692 18 44 5246
5.1257873 -2.3790936 0.70657349 221 7799190 715 19 57 5695
3.7922523 -2.2954032 0.51799375 321 7799190 639 20 55 4463
4.1529551 -2.3113153 0.50910366 270 7799190 616 21 49 4780
4.593658 -2.3427067 0.50278711 252 7799190 675 22 53 5181
5.0920486 -2.3667839 0.49511918 236 7799190 750 23 105 5637
3.7312508 -2.2594588 0.34927565 318 7799190 608 24 50 4376
4.0864563 -2.275707 0.32978216 311 7799190 683 25 55 4689
4.5010037 -2.2956524 0.30788133 305 7799190 782 26 83 5062
4.9895582 -2.3227475 0.28333253 262 7799190 797 27 62 5511
3.7060897 -2.2466986 0.18838887 379 7799190 713 28 41 4338
4.0794864 -2.2736914 0.15827622 299 7799190 652 29 31 4673
4.5013614 -2.3011835 0.12470058 255 7799190 652 30 28 5057
4.9394693 -2.3016334 0.081420079 264 7799190 783 31 44 5450
3.6734674 -2.2271852 0.029991494 351 7799190 647 32 54 4296
4.0434284 -2.2555375 -0.011717256 343 7799190 735 33 44 4630
4.4077592 -2.2540114 -0.059103895 255 7799190 626 34 58 4951
4.8848524 -2.2800241 -0.11565006 280 7799190 815 35 58 5392
3.6409431 -2.2099001 -0.1264822 388 7799190 705 36 78 4261
3.982872 -2.2255869 -0.17846401 324 7799190 675 37 44 4566
4.390358 -2.2474332 -0.24010111 358 7799190 873 38 104 4938
4.8388724 -2.2584598 -0.31061286 264 7799190 754 39 53 5349
3.6072419 -2.1933236 -0.28018385 397 7799190 711 40 65 4231
3.9561121 -2.2129903 -0.34346417 323 7799190 668 41 82 4546
4.3523932 -2.2295332 -0.41751933 331 7799190 798 42 101 4908
4.7610216 -2.2252624 -0.49872404 342 7799190 952 43 43 5279
3.5681105 -2.1712368 -0.43118849 379 7799190 669 44 80 4199
3.9364223 -2.2040513 -0.50827378 336 7799190 692 45 32 4540
4.2888832 -2.1998355 -0.5890215 288 7799190 680 46 65 4856
4.7335315 -2.2138231 -0.69001019 286 7799190 795 47 94 5271
3.5073247 -2.1382763 -0.57650143 374 7799190 644 48 69 4148
3.8837373 -2.1767786 -0.66800237 341 7799190 691 49 29 4502
4.2224431 -2.1685507 -0.75869179 342 7799190 789 50 49 4807
4.6852636 -2.1928437 -0.87792498 312 7799190 858 51 47 5247
3.5108981 -2.1447439 -0.73328847 369 7799190 645 52 73 4179
3.8199856 -2.1435883 -0.82315886 353 7799190 700 53 45 4457
4.1993337 -2.1583495 -0.93386114 326 7799190 754 54 36 4813
4.6445651 -2.1736965 -1.0675706 297 7799190 814 55 37 5238
3.4647973 -2.1192398 -0.88110155 371 7799190 641 56 98 4156
3.7912216 -2.1300583 -0.98598742 337 7799190 669 57 53 4459
4.156291 -2.1372356 -1.1073762 327 7799190 754 58 32 4803
4.5848107 -2.1462188 -1.2527893 339 7799190 921 59 40 5215
3.448169 -2.1146138 -1.0380348 328 7799190 571 60 49 4176
3.7611482 -2.1173093 -1.1510229 342 7799190 682 61 40 4467
3.9708781 -2.0428572 -1.238071 509 7799190 1094 62 60 4634
4.0985641 -1.916507 -1.3051641 314 7799190 696 63 34 4709
1.0563148 -0.64945692 0.3870475 94 7896000 16 0 22 1299
1.1431508 -0.64419973 0.39384428 118 7896000 22 1 19 1370
1.2416197 -0.63949156 0.40441009 29 7896000 6 2 28 1454
5.351151 -2.5058153 1.6505451 209 7896000 785 3 40 6135
1.0192575 -0.62596226 0.32312003 100 7896000 15 4 33 1239
1.2182155 -0.6872015 0.36294657 93 7896000 19 5 1 1445
4.7177634 -2.4321589 1.3222013 203 7896000 609 6 69 5470
5.2374382 -2.4590337 1.3831121 226 7896000 799 7 35 5949
1.1435541 -0.7019949 0.309219 80 7896000 15 8 25 1377
1.2141262 -0.68428028 0.30657327 114 7896000 23 9 9 1427
4.6586218 -2.4048607 1.1006101 248 7896000 711 10 32 5357
5.1866918 -2.4407341 1.1475022 219 7896000 748 11 19 5846
1.2011644 -0.73710042 0.27039275 66 7896000 13 12 57 1435
4.1794248 -2.3576343 0.8712647 242 7896000 575 13 46 4877
4.5912056 -2.371176 0.88735831 222 7896000 611 14 69 5243
5.1125836 -2.4073865 0.91739112 216 7896000 707 15 31 5725
3.7333591 -2.2910836 0.6749754 308 7896000 605 16 32 4432
4.142488 -2.3380373 0.68630493 286 7896000 660 17 55 4806
4.5335932 -2.3445294 0.68717837 263 7896000 696 18 54 5150
5.0033965 -2.3597083 0.6916852 227 7896000 707 19 58 5575
3.7476211 -2.299926 0.5138154 306 7896000 599 20 49 4427
4.1075253 -2.319155 0.50526941 297 7896000 667 21 51 4744
4.5261664 -2.3433926 0.49696448 244 7896000 639 22 44 5121
4.9693427 -2.3469355 0.48457915 260 7896000 792 23 78 5517
3.6867354 -2.2635348 0.34640226 342 7896000 643 24 53 4340
4.0515718 -2.2889621 0.32809421 332 7896000 722 25 41 4665
4.4549236 -2.3067043 0.30569172 288 7896000 728 26 71 5026
4.9210453 -2.327698 0.28024778 261 7896000 774 27 57 5451
3.6411664 -2.2380078 0.18578322 398 7896000 728 28 32 4278
3.9923792 -2.2573597 0.15543109 287 7896000 604 29 26 4589
4.4232702 -2.2956038 0.12292513 264 7896000 655 30 35 4985
4.8493414 -2.2959569 0.080165163 286 7896000 822 31 57 5366
3.6290646 -2.2308314 0.02974017 320 7896000 580 32 47 4260
3.9355199 -2.2271144 -0.011443938 293 7896000 598 33 42 4522
4.3725467 -2.2699573 -0.058817387 259 7896000 630 34 58 4927
4.8057303 -2.279109 -0.11410577 293 7896000 828 35 48 5320
3.5966687 -2.2133398 -0.1254136 336 7896000 600 36 85 4225
3.9169841 -2.2204175 -0.1761189 342 7896000 694 37 37 4506
4.3020368 -2.235641 -0.23601677 294 7896000 693 38 103 4854
4.7599778 -2.2573092 -0.30643186 312 7896000 868 39 44 5277
3.542753 -2.1839988 -0.27621052 414 7896000 721 40 64 4171
3.9008317 -2.2136006 -0.33983764 336 7896000 679 41 42 4498
4.253768 -2.2120659 -0.40935266 351 7896000 813 42 92 4812
4.704113 -2.2339349 -0.49418935 335 7896000 916 43 33 5231
3.5242443 -2.1742868 -0.42749169 376 7896000 652 44 78 4163
3.8606122 -2.1928265 -0.50021303 311 7896000 620 45 42 4468
4.2119145 -2.1931036 -0.58028805 328 7896000 752 46 75 4784
4.6446414 -2.2070835 -0.67901397 321 7896000 864 47 94 5187
3.48403 -2.1535084 -0.57483363 378 7896000 647 48 68 4136
3.798094 -2.1595087 -0.65553856 328 7896000 640 49 39 4418
4.1880426 -2.1834621 -0.75490385 350 7896000 800 50 28 4783
4.6076145 -2.191066 -0.86587793 336 7896000 899 51 50 5175
3.4374108 -2.1289237 -0.72065461 409 7896000 691 52 66 4107
3.8067608 -2.1669869 -0.82315886 323 7896000 643 53 64 4457
4.1338272 -2.1568484 -0.9222194 325 7896000 733 54 48 4753
4.5568719 -2.1668389 -1.0504503 300 7896000 798 55 63 5154
3.4118626 -2.1157382 -0.87092525 369 7896000 623 56 83 4108
3.7374105 -2.1301012 -0.97537357 327 7896000 635 57 49 4411
4.1120448 -2.1464877 -1.099076 311 7896000 706 58 45 4767
4.4874005 -2.1342847 -1.2297275 357 7896000 937 59 64 5119
3.3759027 -2.0989087 -1.0201377 345 7896000 580 60 53 4104
3.6776052 -2.1000993 -1.1293786 337 7896000 647 61 26 4383
3.9377682 -2.0564773 -1.2316588 484 7896000 1028 62 34 4610
4.1075563 -1.951515 -1.311816 272 7896000 609 63 31 4733
1.0814732 -0.67410421 0.39777401 112 7995380 20 0 27 1335
1.1291983 -0.64549786 0.39039451 126 7995380 23 1 17 1358
1.278531 -0.66846019 0.41776064 68 7995380 15 2 21 1502
5.2208734 -2.4839818 1.6150321 164 7995380 590 3 30 6003
1.0547349 -0.65669668 0.33563799 116 7995380 19 4 38 1287
1.1434058 -0.65428156 0.34184796 89 7995380 16 5 8 1361
4.6305332 -2.4232674 1.3018968 196 7995380 570 6 77 5386
5.1485128 -2.4559491 1.3635825 240 7995380 824 7 48 5865
1.0598021 -0.65956926 0.28766122 83 7995380 14 8 25 1281
1.1692071 -0.66844982 0.29626107 70 7995380 13 9 3 1379
4.6021681 -2.4115963 1.0907483 205 7995380 577 10 29 5309
5.0548453 -2.4166849 1.1215922 255 7995380 832 11 35 5714
1.2066256 -0.75068212 0.27265388 49 7995380 10 12 43 1447
4.1136408 -2.3539145 0.86054587 228 7995380 529 13 28 4817
4.5346713 -2.3773367 0.87923455 229 7995380 619 14 67 5195
5.0122347 -2.3978179 0.90200776 252 7995380 798 15 30 5629
3.6890206 -2.2951524 0.66949278 337 7995380 651 16 36 4396
4.0352988 -2.3103008 0.67088234 296 7995380 654 17 63 4698
4.4770021 -2.3501923 0.68077362 263 7995380 684 18 41 5102
4.9243937 -2.359493 0.68275225 237 7995380 717 19 41 5503
3.6929586 -2.2976918 0.5082444 340 7995380 653 20 66 4379
4.020741 -2.3028047 0.49632281 300 7995380 650 21 57 4660
4.4165521 -2.3211143 0.48648366 276 7995380 693 22 47 5013
4.8794079 -2.3411853 0.4772011 267 7995380 789 23 82 5433
3.6321566 -2.2608294 0.34257108 332 7995380 611 24 53 4292
3.9959078 -2.2899716 0.32471833 321 7995380 683 25 52 4617
4.3770714 -2.3005605 0.30131257 332 7995380 815 26 83 4954
4.8202562 -2.3163238 0.27531222 272 7995380 781 27 68 5355
3.5866656 -2.2349463 0.18369868 390 7995380 697 28 36 4230
3.9368393 -2.2579467 0.15380533 302 7995380 622 29 18 4541
4.3348055 -2.2835624 0.12085377 297 7995380 713 30 26 4901
4.7594724 -2.2892623 0.078910239 295 7995380 822 31 43 5282
3.5643883 -2.2213237 0.029321296 336 7995380 593 32 68 4200
3.9113731 -2.2452464 -0.011413569 324 7995380 658 33 51 4510
4.2948432 -2.2631807 -0.057957865 268 7995380 633 34 74 4855
4.7268062 -2.2773099 -0.11256148 285 7995380 784 35 52 5248
3.5219605 -2.197273 -0.12327638 352 7995380 607 36 113 4153
3.8617067 -2.2205014 -0.17424279 338 7995380 671 37 35 4458
4.2246304 -2.2284434 -0.23251589 312 7995380 714 38 100 4782
4.6381116 -2.2344782 -0.29946351 312 7995380 829 39 52 5157
3.4988244 -2.1866584 -0.27382657 390 7995380 666 40 55 4135
3.8249533 -2.2016783 -0.33439782 329 7995380 645 41 67 4426
4.1872458 -2.2102182 -0.40424854 375 7995380 847 42 99 4752
4.6149993 -2.2264211 -0.48625359 327 7995380 865 43 37 5147
3.4501159 -2.1578922 -0.42009813 402 7995380 674 44 64 4091
3.8057549 -2.1926618 -0.49483919 367 7995380 716 45 52 4420
4.1562538 -2.1966426 -0.57446569 381 7995380 856 46 68 4736
4.5560155 -2.1993377 -0.6680178 302 7995380 787 47 93 5103
3.4204013 -2.1432955 -0.56649464 385 7995380 639 48 51 4076
3.7436519 -2.1590576 -0.64841634 321 7995380 612 49 44 4370
4.1117258 -2.175864 -0.74354011 306 7995380 678 50 38 4711
4.5088601 -2.1781273 -0.84981531 315 7995380 812 51 49 5079
3.3942673 -2.1311295 -0.71433765 382 7995380 634 52 66 4071
3.7116861 -2.1431265 -0.80542868 362 7995380 689 53 71 4361
4.0789027 -2.160135 -0.91290605 330 7995380 732 54 62 4705
4.4694409 -2.1589882 -1.0333301 349 7995380 896 55 40 5070
3.3293178 -2.0929434 -0.85311663 381 7995380 617 56 82 4024
3.6938746 -2.135422 -0.96741307 343 7995380 657 57 58 4375
4.0059357 -2.1224775 -1.0741757 317 7995380 687 58 33 4659
4.4112892 -2.1313727 -1.2124311 369 7995380 939 59 48 5047
3.3531272 -2.1133857 -1.0171548 358 7995380 599 60 46 4092
3.6345499 -2.1051908 -1.1201023 360 7995380 680 61 33 4347
3.9863784 -2.1130958 -1.2508951 325 7995380 711 62 49 4682
4.1162724 -1.9867051 -1.318468 300 7995380 678 63 32 4757
0.99016303 -0.62565732 0.36559457 92 8092710 14 0 25 1227
1.1451024 -0.66394448 0.39729398 118 8092710 23 1 22 1382
1.2031336 -0.63847059 0.3943972 89 8092710 18 2 18 1418
5.1222863 -2.4757345 1.5892044 33 8092710 114 3 24 5907
1.0702789 -0.67552263 0.34189698 106 8092710 18 4 35 1311
1.1594615 -0.67294621 0.34787616 90 8092710 17 5 2 1385
4.6258607 -2.4570966 1.3047974 40 8092710 118 6 68 5398
5.0283165 -2.4365985 1.3356831 252 8092710 830 7 57 5745
1.0260657 -0.64734137 0.27957708 93 8092710 14 8 46 1245
1.1448065 -0.66385305 0.29110494 73 8092710 13 9 5 1355
4.4732289 -2.3791277 1.0636286 251 8092710 672 10 37 5177
4.9658313 -2.4116731 1.1051039 227 8092710 719 11 24 5630
1.1222514 -0.7077781 0.25456488 32 8092710 6 12 63 1351
4.0480618 -2.3494771 0.84982699 266 8092710 602 13 26 4757
4.4469132 -2.3662269 0.86501783 230 8092710 602 14 62 5111
4.933506 -2.397464 0.89047027 253 8092710 780 15 39 5557
3.624711 -2.2861104 0.66035503 308 8092710 579 16 28 4336
4.000505 -2.3230889 0.66745508 299 8092710 652 17 56 4674
4.3680348 -2.3272886 0.66636294 269 8092710 670 18 48 4994
4.8562908 -2.3636093 0.67530811 265 8092710 784 19 53 5443
