# .PCD v0.7 - Point Cloud Data file format
VERSION 0.7
FIELDS x y z intensity t reflectivity ring noise range
SIZE 4 4 4 4 4 2 1 2 4
TYPE F F F F U U U U U
COUNT 1 1 1 1 1 1 1 1 1
WIDTH 769
HEIGHT 1
VIEWPOINT 0 0 0 1 0 0 0
POINTS 769
DATA ascii
0.94604987 -2.0561686 0.36743718 356 19058420 187 15 31 2293
0.67831701 -2.0408428 0.33139586 327 19058420 155 16 26 2176
0.77921063 -2.0861676 0.32130378 310 19058420 157 17 44 2250
0.86825675 -2.0882859 0.30449343 288 19058420 150 18 47 2282
0.9671635 -2.1054437 0.28970131 175 19058420 95 19 46 2335
0.68760079 -2.0688953 0.25476053 314 19058420 151 20 51 2195
0.79012275 -2.1163964 0.24198398 280 19058420 145 21 61 2272
0.85989898 -2.0709367 0.21864107 291 19058420 148 22 38 2253
0.96563035 -2.105108 0.20421362 171 19058420 93 23 78 2325
0.67741823 -2.0395658 0.17208371 285 19058420 132 24 57 2156
0.77712739 -2.083252 0.15676785 316 19058420 157 25 51 2229
0.87646621 -2.1110444 0.13928255 120 19058420 63 26 64 2290
0.95436698 -2.0838156 0.11799095 271 19058420 143 27 60 2295
0.68109065 -2.0539775 0.094064154 355 19058420 166 28 29 2166
0.77648503 -2.0837507 0.075361557 246 19058420 122 29 26 2225
0.85556138 -2.06619 0.055162188 125 19058420 63 30 12 2237
0.95434338 -2.085783 0.034271128 36 19058420 19 31 29 2294
0.67594522 -2.0388176 0.014995747 292 19058420 135 32 36 2148
0.75697798 -2.03368 -0.005491673 273 19058420 128 33 36 2170
0.8379162 -2.0242763 -0.026155654 258 19058420 124 34 63 2191
0.86897641 -1.9024539 -0.044870161 25 19058420 11 35 43 2092
0.67121279 -2.0278606 -0.063434049 268 19058420 123 36 64 2137
0.74517137 -2.0064583 -0.083720967 280 19058420 128 37 36 2142
0.84033549 -2.0325298 -0.10706817 88 19058420 43 38 64 2202
0.92954671 -2.0349667 -0.13013338 304 19058420 153 39 46 2241
0.65906078 -1.9964018 -0.13952903 314 19058420 139 40 46 2107
0.73992717 -1.9951112 -0.16123022 290 19058420 132 41 68 2134
0.83086675 -2.0112181 -0.18579097 302 19058420 144 42 86 2184
0.91180837 -1.9989951 -0.20850235 325 19058420 158 43 45 2207
0.6538322 -1.9828885 -0.21554291 341 19058420 150 44 49 2099
0.74693984 -2.0165026 -0.24226968 312 19058420 146 45 33 2164
0.82971126 -2.0114048 -0.26588449 318 19058420 153 46 62 2192
0.89931262 -1.9728767 -0.28629333 302 19058420 145 47 64 2187
0.64834565 -1.9718022 -0.29130834 359 19058420 158 48 51 2096
0.75001734 -2.0275264 -0.32435656 296 19058420 141 49 40 2186
0.80593091 -1.9566616 -0.33823103 322 19058420 148 50 28 2143
0.90359122 -1.9837306 -0.36994323 297 19058420 145 51 46 2211
0.6375832 -1.9449031 -0.36480176 378 19058420 163 52 54 2079
0.71676463 -1.9406523 -0.38877031 321 19058420 142 53 59 2105
0.81123912 -1.9713074 -0.42162481 345 19058420 163 54 61 2173
0.8887856 -1.9511362 -0.44634965 355 19058420 170 55 36 2190
0.63578188 -1.943074 -0.44351888 363 19058420 159 56 70 2092
0.70282614 -1.9059836 -0.46059921 356 19058420 154 57 34 2083
0.79171526 -1.9249145 -0.4931663 348 19058420 159 58 40 2139
0.88149005 -1.9355681 -0.52633971 378 19058420 181 59 43 2191
0.63030022 -1.9339695 -0.52200031 429 19058420 189 60 10 2100
0.70141876 -1.9070872 -0.54188526 375 19058420 166 61 18 2103
0.7789306 -1.8948649 -0.5680058 363 19058420 164 62 29 2126
0.88207698 -1.934708 -0.61336333 368 19058420 180 63 40 2213
0.67292637 -2.0728085 0.68023825 390 19156410 203 0 55 2283
0.7654413 -2.0840275 0.66637295 431 19156410 231 1 56 2318
0.86309266 -2.1023729 0.65807033 372 19156410 208 2 30 2366
0.9302159 -2.0432749 0.6271264 439 19156410 238 3 42 2331
0.68519503 -2.1069677 0.59851527 451 19156410 238 4 80 2295
0.76963764 -2.0982811 0.579961 437 19156410 233 5 25 2309
0.85636038 -2.0882559 0.56223768 412 19156410 223 6 50 2326
0.96380895 -2.1227598 0.55729026 427 19156410 246 7 65 2397
0.68299103 -2.0988202 0.50862819 352 19156410 181 8 58 2265
0.76727426 -2.0893559 0.4896149 334 19156410 173 9 46 2279
0.85625964 -2.0912328 0.47439024 372 19156410 198 10 34 2309
0.93785465 -2.070394 0.45499659 351 19156410 188 11 37 2318
0.6734665 -2.0684474 0.41736585 330 19156410 162 12 88 2215
0.76200753 -2.0774791 0.40177861 328 19156410 166 13 37 2249
0.8506999 -2.0787921 0.38571233 300 19156410 156 14 63 2279
0.95295507 -2.1050978 0.37512884 352 19156410 193 15 31 2341
0.66578192 -2.0449665 0.33139586 349 19156410 165 16 26 2176
0.75822061 -2.0686064 0.31787655 325 19156410 161 17 50 2226
0.83743382 -2.0495377 0.29808867 306 19156410 152 18 42 2234
0.95422655 -2.1113384 0.28970131 170 19156410 93 19 41 2335
0.67489332 -2.0730755 0.25476053 315 19156410 152 20 55 2195
0.76070386 -2.0763907 0.23687166 301 19156410 149 21 54 2224
0.85620034 -2.0982904 0.22097015 322 19156410 167 22 46 2277
0.95761263 -2.1218889 0.20526762 129 19156410 71 23 79 2337
0.67229229 -2.0664334 0.17399928 297 19156410 141 24 41 2180
0.7478708 -2.0430176 0.15339194 305 19156410 145 25 59 2181
0.84539706 -2.0720215 0.13636309 333 19156410 167 26 74 2242
0.92679334 -2.0568535 0.11614011 267 19156410 136 27 48 2259
0.66477138 -2.0467157 0.093543015 346 19156410 160 28 41 2154
0.75544727 -2.0659487 0.074548669 254 19156410 123 29 22 2201
0.84286737 -2.0714006 0.055162188 125 19156410 62 30 25 2237
0.93167698 -2.0697172 0.033912584 154 19156410 79 31 38 2270
0.66342252 -2.0429268 0.014995747 276 19156410 127 32 52 2148
0.75271922 -2.0608296 -0.0055524101 262 19156410 126 33 43 2194
0.83452189 -2.051609 -0.026442159 266 19156410 130 34 56 2215
0.88679188 -1.9734087 -0.04641445 26 19156410 12 35 39 2164
0.65505826 -2.0205309 -0.063077837 290 19156410 131 36 97 2125
0.74926823 -2.056057 -0.085597068 284 19156410 136 37 44 2190
0.82784832 -2.0376477 -0.10706817 105 19156410 51 38 51 2202
0.91213232 -2.029705 -0.12943654 275 19156410 136 39 48 2229
0.65048242 -2.011801 -0.1403237 326 19156410 146 40 41 2119
0.73585516 -2.0221024 -0.16304348 280 19156410 130 41 50 2158
0.80951595 -1.9941214 -0.18374932 302 19156410 141 42 96 2160
0.90441662 -2.0154514 -0.20963603 313 19156410 154 43 27 2219
0.64898974 -2.0095806 -0.21800743 350 19156410 158 44 63 2123
0.72640616 -1.9986331 -0.23958278 319 19156410 146 45 38 2140
0.8173539 -2.016458 -0.26588449 309 19156410 149 46 75 2192
0.90666229 -2.0217783 -0.29257688 315 19156410 158 47 73 2235
0.6362347 -1.9757433 -0.29130834 364 19156410 160 48 31 2096
0.73351371 -2.0209351 -0.32257599 281 19156410 133 49 26 2174
0.79835552 -1.972554 -0.34012502 331 19156410 154 50 22 2155
0.8914023 -1.9892375 -0.36994323 336 19156410 164 51 55 2211
0.62202632 -1.9375305 -0.36269614 387 19156410 165 52 40 2067
0.70082545 -1.9339259 -0.38655406 331 19156410 145 53 62 2093
0.79471511 -1.9653344 -0.41929644 350 19156410 164 54 70 2161
0.8767969 -1.956553 -0.44634965 361 19156410 173 55 33 2190
0.62026906 -1.9357708 -0.44097483 376 19156410 163 56 58 2080
0.71500689 -1.9762894 -0.47652009 353 19156410 164 57 33 2155
0.77988929 -1.9297361 -0.4931663 375 19156410 172 58 61 2139
0.87435973 -1.9515706 -0.52922237 387 19156410 188 59 49 2203
0.61488783 -1.9267273 -0.5190174 431 19156410 188 60 14 2088
0.6936394 -1.9222615 -0.54497731 378 19156410 169 61 14 2115
0.78028196 -1.9317752 -0.57762396 346 19156410 162 62 44 2162
0.86075205 -1.9190437 -0.60671145 361 19156410 173 63 29 2189
0.66713554 -2.098732 0.68738925 369 19253940 196 0 52 2307
0.75263953 -2.088685 0.66637295 416 19253940 224 1 58 2318
0.84586447 -2.0969393 0.6547327 323 19253940 179 2 25 2354
0.92238528 -2.0594921 0.63035488 425 19253940 233 3 29 2343
0.6652239 -2.0890551 0.59225631 426 19253940 219 4 56 2271
0.76461411 -2.1248229 0.58598924 449 19253940 244 5 34 2333
0.84353095 -2.0934711 0.56223768 421 19253940 228 6 60 2326
0.93648648 -2.0966642 0.54892039 442 19253940 246 7 47 2361
0.67010003 -2.1029713 0.50862819 359 19253940 184 8 49 2265
0.74649483 -2.0719726 0.48445883 346 19253940 176 9 41 2255
0.83902878 -2.085552 0.47192484 381 19253940 201 10 22 2297
0.92992264 -2.0868573 0.45735207 364 19253940 197 11 28 2330
0.66076207 -2.0725408 0.41736585 338 19253940 166 12 65 2215
0.74524826 -2.0710061 0.39963484 334 19253940 167 13 36 2237
0.84234077 -2.0949459 0.38774329 301 19253940 158 14 65 2291
0.92074627 -2.0676234 0.36743718 330 19253940 173 15 41 2293
0.65322167 -2.0490131 0.33139586 369 19253940 175 16 26 2176
0.75757045 -2.1067491 0.32301742 304 19253940 155 17 47 2262
0.82927293 -2.0656738 0.29968983 304 19253940 153 18 46 2246
0.91706729 -2.0627515 0.2822572 341 19253940 176 19 53 2275
0.6549204 -2.0544655 0.251975 317 19253940 150 20 58 2171
0.75198472 -2.0922475 0.23814973 297 19253940 149 21 60 2236
0.82997644 -2.0702477 0.21747655 294 19253940 148 22 36 2241
0.93972474 -2.1167994 0.20421362 163 19253940 88 23 56 2325
0.64870781 -2.0363276 0.1711259 296 19253940 136 24 30 2144
0.73532099 -2.0475681 0.15339194 286 19253940 136 25 41 2181
0.81484044 -2.0326986 0.13344362 265 19253940 128 26 74 2194
0.91901135 -2.073458 0.11675707 196 19253940 101 27 73 2271
0.64856708 -2.0393314 0.093021892 333 19253940 153 28 37 2142
0.73870707 -2.0592563 0.074142225 270 19253940 129 29 38 2189
0.8301416 -2.0765333 0.055162188 127 19253940 64 30 11 2237
0.90924394 -2.0534523 0.033554032 210 19253940 106 31 36 2246
0.65087485 -2.0469589 0.014995747 263 19253940 121 32 47 2148
0.71982139 -2.0089262 -0.0054005668 272 19253940 124 33 42 2134
0.81301212 -2.0344064 -0.026155654 251 19253940 120 34 49 2191
0.91831911 -2.0775707 -0.048730884 33 19253940 17 35 33 2272
0.64264822 -2.0245121 -0.063077837 270 19253940 122 36 76 2125
0.72856569 -2.0380337 -0.084659018 261 19253940 122 37 28 2166
0.81532997 -2.0426888 -0.10706817 276 19253940 134 38 79 2202
0.88997436 -2.0133495 -0.12804288 292 19253940 142 39 33 2205
0.63451219 -2.0043392 -0.13952903 332 19253940 147 40 50 2107
0.72745675 -2.0378487 -0.16395013 293 19253940 138 41 57 2170
0.79726499 -1.9990511 -0.18374932 320 19253940 149 42 95 2160
0.89685702 -2.0318921 -0.21076973 311 19253940 155 43 58 2231
0.63304836 -2.0021436 -0.21677516 349 19253940 155 44 47 2111
0.71813363 -2.0142848 -0.24092625 292 19253940 135 45 45 2152
0.80937243 -2.0325012 -0.26734003 325 19253940 158 46 67 2204
0.87023342 -1.9728793 -0.28472248 304 19253940 144 47 82 2175
0.61695355 -1.9569426 -0.28797275 361 19253940 155 48 40 2072
0.71313906 -2.0030384 -0.31901491 310 19253940 143 49 40 2150
0.79499334 -1.9994377 -0.34391293 328 19253940 156 50 44 2179
0.87440807 -1.9838437 -0.36793539 311 19253940 150 51 36 2199
0.6101262 -1.9413106 -0.36269614 380 19253940 162 52 38 2067
0.68499589 -1.9270772 -0.38433778 343 19253940 149 53 61 2081
0.77394909 -1.9482931 -0.41463977 351 19253940 161 54 60 2137
0.8742522 -1.9833962 -0.45124114 329 19253940 161 55 50 2214
0.59785002 -1.9059712 -0.43334258 372 19253940 155 56 55 2044
0.68329769 -1.9254938 -0.46325266 372 19253940 163 57 36 2095
0.76803398 -1.9344851 -0.4931663 354 19253940 162 58 37 2139
0.86236864 -1.9568989 -0.52922237 400 19253940 194 59 55 2203
0.60651994 -1.9415586 -0.52200031 409 19253940 180 60 37 2100
0.68570012 -1.9374119 -0.54806936 377 19253940 170 61 31 2127
0.759884 -1.9150293 -0.57121181 366 19253940 167 62 39 2138
0.84430683 -1.91374 -0.60338545 365 19253940 173 63 29 2177
0.65424544 -2.1027858 0.68738925 385 19353980 205 0 38 2307
0.72831976 -2.0607541 0.65602374 406 19353980 211 1 57 2282
0.84147453 -2.1235216 0.66140795 349 19353980 197 2 27 2378
0.91904968 -2.0862665 0.63681179 403 19353980 226 3 42 2367
0.65928769 -2.1152174 0.59851527 388 19353980 204 4 55 2295
0.74383056 -2.1075678 0.579961 429 19353980 229 5 27 2309
0.83495522 -2.1094341 0.56513828 413 19353980 226 6 54 2338
0.90952104 -2.0703144 0.54055059 452 19353980 244 7 41 2325
0.65022033 -2.0847173 0.5032388 348 19353980 175 8 71 2241
0.74157685 -2.0986145 0.4896149 343 19353980 178 9 40 2279
0.83053255 -2.101583 0.47439024 378 19353980 201 10 28 2309
0.91710043 -2.0925241 0.45735207 374 19353980 203 11 21 2330
0.63750041 -2.0428061 0.41058245 331 19353980 157 12 68 2179
0.73645633 -2.0866737 0.40177861 324 19353980 164 13 40 2249
0.81643653 -2.0670753 0.38165042 301 19353980 153 14 51 2255
0.89853805 -2.0515339 0.36359134 338 19353980 174 15 44 2269
0.64416981 -2.0643044 0.33322343 343 19353980 164 16 27 2188
0.72882819 -2.0665543 0.31616291 313 19353980 153 17 57 2214
0.82530838 -2.0928504 0.30289224 326 19353980 168 18 50 2270
0.91393405 -2.0901594 0.28523484 317 19353980 167 19 51 2299
0.63520163 -2.0356898 0.24918947 313 19353980 144 20 45 2147
0.73119932 -2.0743163 0.23559357 307 19353980 150 21 48 2212
0.817258 -2.0753012 0.21747655 303 19353980 152 22 39 2241
0.91236943 -2.0896606 0.20105159 155 19353980 81 23 74 2289
0.63264012 -2.0288506 0.17016812 318 19353980 144 24 32 2132
0.73864985 -2.0972033 0.15676785 310 19353980 154 25 53 2229
0.81112963 -2.0599501 0.13490336 284 19353980 140 26 70 2218
0.90627158 -2.0790577 0.11675707 146 19353980 76 27 62 2271
0.63247848 -2.0318255 0.092500754 339 19353980 154 28 21 2130
0.73003805 -2.0750637 0.074548669 244 19353980 118 29 27 2201
0.83492351 -2.1262534 0.056345824 207 19353980 108 30 28 2285
0.9109987 -2.091995 0.034091856 199 19353980 103 31 50 2282
0.63473684 -2.0394566 0.014911973 272 19353980 124 32 48 2136
0.71941632 -2.0472691 -0.005491673 276 19353980 130 33 48 2170
0.81805134 -2.0840342 -0.026728665 270 19353980 135 34 48 2239
0.84337699 -1.940132 -0.045384929 114 19353980 51 35 41 2116
0.63733166 -2.0513265 -0.063790254 274 19353980 127 36 72 2149
0.70414573 -2.0085189 -0.083251946 277 19353980 126 37 36 2130
0.80715567 -2.0588119 -0.10765164 310 19353980 152 38 87 2214
0.87282783 -2.0077858 -0.12734604 222 19353980 107 39 36 2193
0.62220186 -2.0081947 -0.13952903 358 19353980 159 40 58 2107
0.71493906 -2.042274 -0.16395013 284 19353980 133 41 56 2170
0.78934509 -2.0150383 -0.18477017 331 19353980 156 42 92 2172
0.86058849 -1.9825644 -0.20510131 317 19353980 149 43 38 2171
0.61369419 -1.9831843 -0.21431065 333 19353980 145 44 37 2087
0.7018252 -2.0073967 -0.23958278 323 19353980 148 45 31 2140
0.79688603 -2.0374293 -0.26734003 309 19353980 150 46 60 2204
0.86284602 -1.9890958 -0.28629333 299 19353980 143 47 65 2187
0.6084379 -1.9720467 -0.28964055 364 19353980 158 48 38 2084
0.69692355 -1.9961723 -0.31723434 303 19353980 138 49 39 2138
0.77408916 -1.9822025 -0.34012502 310 19353980 144 50 38 2155
0.86692417 -2.0000267 -0.36994323 318 19353980 155 51 44 2211
0.59820306 -1.9450178 -0.36269614 384 19353980 164 52 46 2067
0.68868572 -1.9757898 -0.39320287 366 19353980 166 53 53 2129
0.76625884 -1.9639722 -0.41696814 313 19353980 144 54 50 2149
0.84804863 -1.9563864 -0.44390392 347 19353980 164 55 39 2178
0.59990859 -1.9544474 -0.44351888 362 19353980 159 56 64 2092
0.67147022 -1.9296502 -0.46325266 371 19353980 163 57 48 2095
0.75614971 -1.9391613 -0.4931663 381 19353980 174 58 51 2139
0.83644933 -1.9300892 -0.52057415 395 19353980 185 59 53 2167
0.58780003 -1.9230123 -0.5160346 429 19353980 185 60 20 2076
0.67379951 -1.9415828 -0.54806936 405 19353980 183 61 25 2127
0.75231832 -1.9304304 -0.57441789 380 19353980 176 62 25 2150
0.83254844 -1.9188846 -0.60338545 351 19353980 166 63 30 2177
0.6513384 -2.139636 0.69811577 389 19452320 213 0 57 2343
0.72695148 -2.0977638 0.66637295 411 19452320 221 1 48 2318
0.82424861 -2.1179032 0.65807033 334 19452320 187 2 23 2366
0.89244831 -2.060051 0.6271264 396 19452320 215 3 36 2331
0.63953793 -2.0970612 0.59225631 388 19452320 200 4 61 2271
0.72328788 -2.0901389 0.57393283 400 19452320 209 5 20 2285
0.82199621 -2.1145177 0.56513828 401 19452320 219 6 46 2338
0.90142941 -2.0865703 0.54334056 456 19452320 249 7 50 2337
0.63400328 -2.0774834 0.50054401 347 19452320 172 8 56 2229
0.71717542 -2.0699034 0.48188075 338 19452320 170 9 44 2243
0.81337267 -2.0956912 0.47192484 363 19452320 191 10 33 2297
0.89958656 -2.087306 0.45499659 376 19452320 202 11 33 2318
0.63872069 -2.0917645 0.41962692 334 19452320 166 12 77 2227
0.7120555 -2.0576799 0.3953473 339 19452320 166 13 40 2213
0.79518366 -2.049993 0.37758851 305 19452320 152 14 71 2231
0.88593316 -2.0570087 0.36359134 333 19452320 171 15 35 2269
0.6211012 -2.0341887 0.32774079 353 19452320 163 16 33 2152
0.72777879 -2.1046619 0.32130378 303 19452320 153 17 50 2250
0.8038615 -2.0756948 0.29968983 294 19452320 148 18 41 2246
0.90109187 -2.0957279 0.28523484 301 19452320 159 19 56 2299
0.63314009 -2.0737474 0.25336778 317 19452320 151 20 52 2183
0.71845782 -2.0787637 0.23559357 300 19452320 147 21 62 2212
0.80020082 -2.0691373 0.21631201 276 19452320 137 22 45 2229
0.90424609 -2.1062036 0.20210561 199 19452320 106 23 68 2301
0.62017941 -2.0326941 0.17016812 292 19452320 133 24 40 2132
0.71795332 -2.0790668 0.1550799 308 19452320 150 25 38 2205
0.80711466 -2.0872316 0.13636309 294 19452320 148 26 71 2242
0.89349765 -2.0845795 0.11675707 148 19452320 77 27 65 2271
0.62698543 -2.0586052 0.093543015 354 19452320 164 28 51 2154
0.70947045 -2.0568285 0.073735781 253 19452320 120 29 27 2177
0.80028081 -2.0753713 0.054866284 268 19452320 133 30 28 2225
0.88397646 -2.0644553 0.033554032 201 19452320 101 31 41 2246
0.62920213 -2.0662715 0.015079523 262 19452320 122 32 57 2160
0.69902343 -2.0289538 -0.0054309354 297 19452320 137 33 48 2146
0.80524856 -2.0890145 -0.026728665 273 19452320 137 34 55 2239
0.86446345 -2.0224926 -0.047186594 103 19452320 50 35 46 2200
0.62124443 -2.0437224 -0.063434049 293 19452320 134 36 83 2137
0.71129602 -2.0695002 -0.085597068 309 19452320 148 37 40 2190
0.78589535 -2.0413549 -0.1064847 289 19452320 139 38 58 2190
0.84165764 -1.9690412 -0.12455872 93 19452320 43 39 53 2145
0.61334151 -2.0234334 -0.1403237 332 19452320 149 40 42 2119
0.68685764 -2.0013516 -0.16032359 272 19452320 122 41 55 2122
0.77696621 -2.0198436 -0.18477017 293 19452320 138 42 86 2172
0.85309702 -1.9987952 -0.20623501 337 19452320 160 43 53 2183
0.6015141 -1.9869125 -0.21431065 360 19452320 157 44 49 2087
0.68176222 -1.9891046 -0.23689587 302 19452320 135 45 31 2116
0.75447536 -1.9644442 -0.25715104 310 19452320 140 46 58 2120
0.84595764 -1.9834099 -0.28472248 296 19452320 140 47 69 2175
0.59975994 -1.9871196 -0.29130834 330 19452320 145 48 34 2096
0.68081939 -1.9891834 -0.31545383 312 19452320 141 49 30 2126
0.77464002 -2.020107 -0.34580693 337 19452320 162 50 32 2191
0.85463589 -2.0053084 -0.36994323 343 19452320 167 51 47 2211
0.58966082 -1.9599645 -0.36480176 395 19452320 171 52 27 2079
0.66892278 -1.9576581 -0.38877031 348 19452320 154 53 53 2105
0.75419372 -1.9686369 -0.41696814 365 19452320 168 54 55 2149
0.82220984 -1.9291308 -0.43656668 376 19452320 172 55 35 2142
0.58453274 -1.9468598 -0.44097483 376 19452320 163 56 64 2080
0.66339576 -1.9448103 -0.46590617 363 19452320 161 57 37 2107
0.74006176 -1.9328597 -0.49039957 377 19452320 170 58 40 2127
0.82459074 -1.9351852 -0.52057415 388 19452320 182 59 48 2167
0.57598954 -1.9265828 -0.5160346 418 19452320 180 60 16 2076
0.64693695 -1.9017723 -0.5357011 378 19452320 163 61 20 2079
0.73632646 -1.9242101 -0.57121181 373 19452320 170 62 42 2138
0.8207587 -1.923957 -0.60338545 359 19452320 170 63 41 2177
0.62512308 -2.0996773 0.68381375 441 19549550 232 0 50 2295
0.71036953 -2.0913019 0.66292322 392 19549550 208 1 48 2306
0.81123787 -2.122921 0.65807033 340 19549550 190 2 22 2366
0.8843205 -2.0761213 0.63035488 410 19549550 225 3 27 2343
0.62334722 -2.0898442 0.58912677 389 19549550 198 4 53 2259
0.72164249 -2.127537 0.58297509 404 19549550 217 5 28 2321
0.80485409 -2.1086431 0.56223768 391 19549550 212 6 68 2326
0.89317232 -2.1028044 0.54613048 463 19549550 255 7 51 2349
0.61455512 -2.0589244 0.49515462 339 19549550 165 8 73 2205
0.711999 -2.0964594 0.48703688 354 19549550 182 9 40 2267
0.80468035 -2.1116166 0.47439024 349 19549550 186 10 31 2309
0.87758088 -2.0711184 0.4502857 362 19549550 190 11 27 2294
0.61912894 -2.0730598 0.41510469 356 19549550 173 12 75 2203
0.6994164 -2.0620103 0.3953473 306 19549550 150 13 36 2213
0.78259015 -2.0548337 0.37758851 315 19549550 156 14 57 2231
0.87791353 -2.0733135 0.36551425 306 19549550 159 15 50 2281
0.61539537 -2.0606897 0.33139586 351 19549550 166 16 32 2176
0.69960105 -2.0640941 0.31444931 292 19549550 142 17 62 2202
0.7953369 -2.0917044 0.30129105 311 19549550 158 18 44 2258
0.88357961 -2.09025 0.28374603 277 19549550 145 19 49 2287
0.62040389 -2.0775931 0.25336778 301 19549550 143 20 50 2183
0.69420427 -2.0492303 0.23175931 296 19549550 140 21 49 2176
0.78748977 -2.0740082 0.21631201 283 19549550 140 22 46 2229
0.89595395 -2.1227252 0.20315962 335 19549550 179 23 81 2313
0.60769534 -2.0364611 0.17016812 304 19549550 138 24 38 2132
0.69366968 -2.0494177 0.15254799 279 19549550 131 25 48 2169
0.78153843 -2.0585508 0.13417348 287 19549550 140 26 64 2206
0.88534361 -2.1010661 0.117374 166 19549550 86 27 55 2283
0.60749727 -2.039434 0.092500754 340 19549550 154 28 35 2130
0.70067769 -2.0725045 0.074142225 250 19549550 120 29 41 2189
0.80027354 -2.1139004 0.05575401 235 19549550 120 30 23 2261
0.86663747 -2.0587819 0.033374764 190 19549550 95 31 45 2234
0.6062367 -2.0355916 0.014828198 290 19549550 131 32 26 2124
0.68656081 -2.0332048 -0.0054309354 267 19549550 123 33 41 2146
0.77967453 -2.0602489 -0.026298905 268 19549550 130 34 59 2203
0.87062734 -2.072001 -0.048216123 273 19549550 138 35 38 2248
0.59843862 -2.0130036 -0.062365435 287 19549550 127 36 66 2101
0.67561722 -2.005645 -0.082782917 299 19549550 134 37 46 2118
0.77335501 -2.0461385 -0.1064847 280 19549550 134 38 80 2190
0.84348255 -2.0073011 -0.1266492 125 19549550 59 39 37 2181
0.59070539 -1.9927192 -0.13793972 320 19549550 139 40 52 2083
0.67456466 -2.0055282 -0.16032359 279 19549550 126 41 59 2122
0.76033396 -2.0133874 -0.18374932 297 19549550 139 42 97 2160
0.8454386 -2.015008 -0.20736869 330 19549550 159 43 50 2195
0.58592278 -1.9791204 -0.21307838 368 19549550 158 44 48 2075
0.66954446 -1.9932505 -0.23689587 282 19549550 126 45 40 2116
0.75501442 -2.0024731 -0.26151776 351 19549550 163 46 53 2156
0.84757209 -2.0214775 -0.28943512 313 19549550 153 47 72 2211
0.58082813 -1.9679672 -0.28797275 318 19549550 136 48 49 2072
0.66482729 -1.9820721 -0.31367326 296 19549550 132 49 29 2114
0.74553144 -1.9804626 -0.33823103 332 19549550 152 50 32 2143
0.8423155 -2.0105145 -0.36994323 330 19549550 161 51 46 2211
0.57428962 -1.9522122 -0.36269614 403 19549550 172 52 51 2067
0.66064304 -1.972909 -0.39098659 360 19549550 161 53 43 2117
0.74210018 -1.9732275 -0.41696814 343 19549550 159 54 63 2149
0.82397687 -1.966646 -0.44390392 391 19549550 185 55 41 2178
0.5692727 -1.9391574 -0.43843073 382 19549550 164 56 60 2068
0.65145016 -1.9488442 -0.46590617 355 19549550 157 57 47 2107
0.72407973 -1.9264339 -0.48763284 360 19549550 161 58 40 2115
0.80820078 -1.9294645 -0.51769149 384 19549550 178 59 45 2155
0.5674184 -1.9412371 -0.5190174 403 19549550 176 60 19 2088
0.64258915 -1.9277056 -0.54188526 355 19549550 157 61 17 2103
0.7123065 -1.8962163 -0.56159365 385 19549550 170 62 30 2102
0.80447912 -1.9183242 -0.60005951 365 19549550 171 63 31 2165
0.60902673 -2.0924749 0.68023825 469 19647490 244 0 55 2283
0.7047838 -2.1174319 0.66982269 399 19647490 217 1 62 2330
0.79414827 -2.1170664 0.6547327 345 19647490 191 2 21 2354
0.88049263 -2.1028297 0.63681179 439 19647490 246 3 41 2367
0.61699861 -2.1158726 0.59538573 387 19647490 201 4 56 2283
0.69025731 -2.0768127 0.56790465 358 19647490 183 5 22 2261
0.79190052 -2.1135418 0.56223768 369 19647490 200 6 58 2326
0.87125927 -2.086705 0.54055059 447 19647490 241 7 28 2325
0.60846162 -2.0851071 0.50054401 314 19647490 156 8 63 2229
0.69172049 -2.0785482 0.48188075 350 19647490 176 9 46 2243
0.78347951 -2.0945151 0.46945941 367 19647490 192 10 24 2285
0.86485624 -2.0764642 0.4502857 387 19647490 204 11 19 2294
0.60309416 -2.0655072 0.41284361 325 19647490 156 12 54 2191
0.69419879 -2.0886717 0.39963484 365 19647490 183 13 48 2237
0.7699672 -2.0595968 0.37758851 324 19647490 161 14 58 2231
0.86517537 -2.0786612 0.36551425 329 19647490 171 15 27 2281
0.59609181 -2.0416574 0.32774079 337 19647490 156 16 34 2152
0.68692285 -2.0683479 0.31444931 287 19647490 139 17 52 2202
0.77832896 -2.0854032 0.29968983 293 19647490 148 18 53 2246
0.87530619 -2.1066279 0.28523484 301 19647490 159 19 63 2299
0.59762359 -2.0470369 0.24918947 305 19647490 140 20 41 2147
0.68913513 -2.0760996 0.23431547 324 19647490 157 21 45 2200
0.76640725 -2.0564184 0.21398295 276 19647490 134 22 37 2205
0.86458981 -2.084018 0.19894359 293 19647490 151 23 68 2265
0.59518844 -2.0401516 0.17016812 295 19647490 134 24 39 2132
0.68484968 -2.064997 0.15339194 294 19647490 140 25 55 2181
0.76471013 -2.0520837 0.13344362 283 19647490 136 26 78 2194
0.86784935 -2.095387 0.11675707 143 19647490 73 27 52 2271
0.58156425 -1.9970809 0.09041623 353 19647490 153 28 18 2082
0.68417656 -2.0653801 0.073735781 249 19647490 118 29 28 2177
0.76639569 -2.0625455 0.05427447 247 19647490 120 30 29 2201
0.86316311 -2.0862348 0.033733308 180 19647490 92 31 44 2258
0.60044396 -2.0623157 0.014995747 274 19647490 126 32 34 2148
0.6778416 -2.0487716 -0.005461304 277 19647490 129 33 41 2158
0.7544843 -2.0312493 -0.025869144 269 19647490 126 34 53 2167
0.84415877 -2.0440376 -0.047443978 291 19647490 142 35 46 2212
0.59946549 -2.0627103 -0.063790254 270 19647490 125 36 80 2149
0.6670562 -2.0211396 -0.083251946 268 19647490 121 37 44 2130
0.76078558 -2.0508454 -0.1064847 293 19647490 141 38 76 2190
0.82657713 -2.0013666 -0.12595238 131 19647490 61 39 50 2169
0.57513463 -1.9848055 -0.13714506 318 19647490 136 40 46 2071
0.65850121 -1.998265 -0.15941694 278 19647490 124 41 58 2110
0.73549962 -1.9843812 -0.18068683 286 19647490 129 42 87 2124
0.83305883 -2.0201576 -0.20736869 329 19647490 158 43 39 2195
0.57376814 -1.9826782 -0.21307838 369 19647490 159 44 65 2075
0.66475666 -2.0199749 -0.23958278 342 19647490 156 45 38 2140
0.73857939 -1.9958968 -0.26006219 337 19647490 155 46 62 2144
0.82608712 -2.0046411 -0.28629333 303 19647490 145 47 58 2187
0.57532978 -1.9943299 -0.29130834 353 19647490 155 48 38 2096
0.65265304 -1.9861141 -0.31367326 316 19647490 141 49 30 2114
0.73336554 -1.9849998 -0.33823103 311 19647490 143 50 32 2143
0.82545877 -2.0047052 -0.36793539 322 19647490 156 51 53 2199
0.55250692 -1.9216377 -0.35637924 397 19647490 164 52 36 2031
0.63749677 -1.9433074 -0.38433778 339 19647490 147 53 47 2081
0.7259025 -1.9667 -0.41463977 347 19647490 158 54 48 2137
0.80742097 -1.9608015 -0.44145817 380 19647490 178 55 48 2166
0.5541293 -1.9313414 -0.43588662 383 19647490 162 56 63 2056
0.63219595 -1.9305612 -0.46059921 357 19647490 155 57 27 2083
0.71628684 -1.9417957 -0.49039957 367 19647490 166 58 47 2127
0.80078095 -1.9451585 -0.52057415 417 19647490 196 59 38 2167
0.54911155 -1.9223295 -0.51305169 394 19647490 168 60 9 2064
0.62355059 -1.9095681 -0.5357011 376 19647490 162 61 27 2079
0.7086581 -1.9222512 -0.5680058 378 19647490 171 62 22 2126
0.79269338 -1.9232243 -0.60005951 371 19647490 174 63 26 2165
0.59930974 -2.1071906 0.68381375 379 19745420 200 0 69 2295
0.68465251 -2.0998619 0.66292322 466 19745420 248 1 46 2306
0.78910726 -2.143533 0.66140795 319 19745420 180 2 29 2378
0.85877669 -2.086817 0.63035488 404 19745420 222 3 26 2343
0.60082954 -2.1084776 0.59225631 389 19745420 200 4 53 2271
0.68109691 -2.0920534 0.57091874 391 19745420 202 5 21 2273
0.77088016 -2.0965035 0.55643642 397 19745420 210 6 37 2302
0.84957778 -2.0704167 0.53497076 440 19745420 233 7 57 2301
0.59886295 -2.1000466 0.5032388 332 19745420 167 8 41 2241
0.67895377 -2.0827534 0.48188075 335 19745420 168 9 42 2243
0.77061301 -2.099283 0.46945941 338 19745420 176 10 36 2285
0.852099 -2.0817318 0.4502857 355 19745420 187 11 26 2294
0.58717543 -2.0578358 0.41058245 345 19745420 164 12 83 2179
0.67405969 -2.0704379 0.3953473 310 19745420 152 13 39 2213
0.76953548 -2.0975924 0.38368139 305 19745420 157 14 67 2267
0.85240465 -2.0839307 0.36551425 337 19745420 175 15 36 2281
0.58680719 -2.0566814 0.3295683 327 19745420 153 16 23 2164
0.67421877 -2.0725238 0.31444931 303 19745420 147 17 60 2202
0.75733846 -2.0678051 0.29648745 300 19745420 148 18 39 2222
0.85336125 -2.0899117 0.2822572 272 19745420 141 19 58 2275
0.57851207 -2.0277421 0.24640393 320 19745420 144 20 33 2123
0.68376225 -2.102983 0.23687166 291 19745420 144 21 65 2224
0.75787699 -2.072299 0.21514747 281 19745420 138 22 45 2217
0.84727347 -2.0782146 0.19788958 311 19745420 158 23 75 2253
0.57937956 -2.0322616 0.16921031 275 19745420 123 24 35 2120
0.66476965 -2.046391 0.15170401 286 19745420 133 25 49 2157
0.75621802 -2.0679865 0.13417348 280 19745420 136 26 71 2206
0.854976 -2.1006727 0.11675707 212 19745420 109 27 34 2271
0.5725807 -2.0121427 0.090937361 330 19745420 145 28 39 2094
0.67519212 -2.0809469 0.074142225 258 19745420 124 29 21 2189
0.75783503 -2.0784795 0.054570373 244 19745420 119 30 20 2213
0.84582686 -2.0803766 0.033554032 219 19745420 110 31 44 2246
0.57464385 -2.0197945 0.014660648 275 19745420 121 32 31 2100
0.66155857 -2.0414767 -0.0054309354 270 19745420 124 33 34 2146
0.75433338 -2.0696616 -0.026298905 284 19745420 138 34 56 2203
0.83611238 -2.0602956 -0.047701363 292 19745420 144 35 47 2224
0.57696766 -2.0317342 -0.06272164 268 19745420 120 36 73 2113
0.65833032 -2.0366042 -0.083720967 286 19745420 131 37 36 2142
0.73998821 -2.0329492 -0.10531774 275 19745420 129 38 79 2166
0.85032153 -2.0952039 -0.13152702 73 19745420 37 39 40 2265
0.55642152 -1.9652555 -0.13555574 342 19745420 143 40 42 2047
0.64622772 -2.0022678 -0.15941694 286 19745420 127 41 44 2110
0.72330981 -1.9888568 -0.18068683 324 19745420 146 42 97 2124
0.81616122 -2.0141592 -0.20623501 325 19745420 155 43 40 2183
0.55834413 -1.9746754 -0.21184613 349 19745420 148 44 41 2063
0.64869177 -2.0126662 -0.23823932 309 19745420 140 45 47 2128
0.73444939 -2.0227838 -0.26297334 353 19745420 166 46 65 2168
0.81823647 -2.020699 -0.28786421 345 19745420 167 47 72 2199
0.55018693 -1.9520708 -0.28463715 354 19745420 148 48 35 2048
0.64045417 -1.9900814 -0.31367326 301 19745420 134 49 32 2114
0.71309543 -1.9671819 -0.33444312 325 19745420 146 50 35 2119
0.79983056 -1.9768308 -0.36191189 326 19745420 152 51 37 2163
0.54390025 -1.9363651 -0.35848483 394 19745420 164 52 44 2043
0.62195355 -1.935954 -0.3821215 361 19745420 154 53 47 2069
0.71782976 -1.9821856 -0.41696814 339 19745420 156 54 51 2149
0.79978108 -1.9766093 -0.44390392 403 19745420 191 55 42 2178
0.5454334 -1.9459972 -0.43843073 400 19745420 171 56 54 2068
0.62033838 -1.9344039 -0.46059921 335 19745420 145 57 30 2083
0.71230638 -1.9681137 -0.49593297 376 19745420 174 58 42 2151
0.78446245 -1.939237 -0.51769149 377 19745420 175 59 42 2155
0.54667759 -1.9592499 -0.52200031 438 19745420 193 60 10 2100
0.61182195 -1.9133581 -0.5357011 386 19745420 167 61 19 2079
0.69291669 -1.9156889 -0.56479973 386 19745420 172 62 32 2114
0.7852059 -1.9387385 -0.60338545 368 19745420 174 63 40 2177
0.58636898 -2.1108282 0.68381375 405 19843010 213 0 29 2295
0.65777242 -2.0602276 0.64912432 402 19843010 205 1 48 2258
0.77202439 -2.1374936 0.65807033 344 19843010 192 2 34 2366
0.85028869 -2.1027617 0.63358331 444 19843010 246 3 22 2355
0.58477443 -2.1009641 0.58912677 348 19843010 178 4 66 2259
0.66471964 -2.0851269 0.56790465 368 19843010 188 5 23 2261
0.75405043 -2.090241 0.55353582 352 19843010 185 6 65 2290
0.83685797 -2.0755906 0.53497076 445 19843010 235 7 49 2301
0.58596605 -2.1036816 0.5032388 350 19843010 176 8 37 2241
0.66259754 -2.0757155 0.47930273 322 19843010 160 9 55 2231
0.75771755 -2.1039717 0.46945941 359 19843010 187 10 32 2285
0.8305288 -2.0650873 0.44557479 362 19843010 186 11 24 2270
0.5808658 -2.0841048 0.41510469 341 19843010 166 12 68 2203
0.65775692 -2.0632858 0.39320356 299 19843010 145 13 46 2201
0.74062955 -2.0577624 0.37555754 319 19843010 157 14 56 2219
0.83518481 -2.0781312 0.36359134 312 19843010 160 15 47 2269
0.56462467 -2.0259693 0.32408565 331 19843010 150 16 29 2128
0.64706987 -2.0313547 0.30759484 285 19843010 132 17 58 2154
0.74865788 -2.0836053 0.29808867 308 19843010 154 18 37 2234
0.84495527 -2.1061597 0.28374603 309 19843010 162 19 66 2287
0.5756579 -2.0656979 0.25058225 303 19843010 141 20 34 2159
0.656367 -2.061661 0.23175931 287 19843010 136 21 64 2176
0.73708081 -2.0544269 0.21281841 278 19843010 134 22 51 2193
0.8256163 -2.0611813 0.19578157 301 19843010 150 23 73 2229
0.57331663 -2.058825 0.1711259 282 19843010 130 24 32 2144
0.65582913 -2.0618386 0.15254799 286 19843010 134 25 52 2169
0.73138136 -2.0387647 0.13198389 276 19843010 130 26 49 2170
0.83317143 -2.0836241 0.11552317 299 19843010 151 27 70 2247
0.56022364 -2.0156181 0.090937361 325 19843010 142 28 25 2094
0.65877962 -2.0736203 0.073735781 280 19843010 133 29 18 2177
0.7491076 -2.0943861 0.054866284 230 19843010 114 30 35 2225
0.81969351 -2.0520995 0.033016212 309 19843010 151 31 46 2210
0.57187819 -2.0579674 0.014911973 273 19843010 124 32 53 2136
0.65264899 -2.0569355 -0.005461304 251 19843010 117 33 39 2158
0.72546124 -2.0290565 -0.025725894 267 19843010 124 34 43 2155
0.80123931 -2.009666 -0.04641445 281 19843010 131 35 42 2164
0.56769603 -2.0467944 -0.063077837 294 19843010 133 36 91 2125
0.63496739 -2.0063095 -0.082313895 281 19843010 125 37 40 2106
0.73556125 -2.0600269 -0.1064847 271 19843010 130 38 84 2190
0.81082869 -2.0336149 -0.12734604 236 19843010 113 39 40 2193
0.55392587 -2.0032544 -0.13793972 306 19843010 133 40 44 2083
0.63392985 -2.0061953 -0.15941694 292 19843010 130 41 67 2110
0.71912771 -2.0157802 -0.18272848 336 19843010 155 42 85 2148
0.79495037 -1.9969308 -0.20396765 352 19843010 164 43 36 2159
0.54939437 -1.9895699 -0.21307838 348 19843010 150 44 36 2075
0.63274181 -2.0052369 -0.23689587 313 19843010 140 45 25 2116
0.70603824 -1.9823682 -0.25715104 342 19843010 154 46 54 2120
0.80142486 -2.0146275 -0.28629333 314 19843010 150 47 77 2187
0.53819889 -1.95541 -0.28463715 350 19843010 147 48 34 2048
0.621099 -1.9713364 -0.31011218 314 19843010 137 49 22 2090
0.70895129 -1.9938499 -0.33823103 347 19843010 159 50 30 2143
0.7920559 -1.9926956 -0.36391973 335 19843010 158 51 44 2175
0.52575898 -1.91688 -0.35427359 368 19843010 150 52 40 2019
0.61006308 -1.9397339 -0.3821215 339 19843010 145 53 51 2069
0.70171338 -1.9754598 -0.41463977 348 19843010 159 54 53 2137
0.78329813 -1.9705622 -0.44145817 386 19843010 181 55 34 2166
0.52729142 -1.9266849 -0.43334258 389 19843010 163 56 61 2044
0.6049521 -1.927008 -0.45794573 353 19843010 151 57 29 2071
0.68459141 -1.9284317 -0.48486617 350 19843010 155 58 43 2103
0.77685058 -1.9548389 -0.52057415 421 19843010 197 59 49 2167
0.52242512 -1.9177085 -0.51006883 417 19843010 176 60 12 2052
0.59660673 -1.906011 -0.53260905 378 19843010 161 61 28 2067
0.68888217 -1.9417009 -0.57121181 382 19843010 174 62 35 2138
0.76903278 -1.932807 -0.60005951 389 19843010 182 63 32 2165
0.56740975 -2.0922751 0.67666274 367 19942120 189 0 57 2271
0.64511871 -2.0642247 0.64912432 424 19942120 216 1 46 2258
0.76274341 -2.153055 0.66140795 385 19942120 218 2 31 2378
0.82883668 -2.0864573 0.6271264 395 19942120 215 3 30 2331
0.56883436 -2.0933332 0.58599734 366 19942120 185 4 57 2247
0.65191299 -2.0891662 0.56790465 358 19942120 183 5 21 2261
0.73344254 -2.0728736 0.5477345 357 19942120 183 6 49 2266
0.81980878 -2.0698354 0.53218079 414 19942120 217 7 65 2289
0.56384146 -2.0733862 0.49515462 341 19942120 166 8 69 2205
0.65334404 -2.0909283 0.48188075 336 19942120 169 9 40 2243
0.74479359 -2.1085815 0.46945941 344 19942120 180 10 20 2285
0.81784201 -2.0701447 0.44557479 362 19942120 186 11 29 2270
0.55878407 -2.053515 0.40832132 341 19942120 160 12 66 2167
0.6450845 -2.0672829 0.39320356 328 19942120 159 13 31 2201
0.72798944 -2.062268 0.37555754 323 19942120 159 14 55 2219
0.81371891 -2.0611818 0.3597455 335 19942120 169 15 35 2245
0.54906911 -2.0179517 0.32225811 316 19942120 141 16 33 2116
0.64166427 -2.0579643 0.3110221 295 19942120 140 17 45 2178
0.72795361 -2.0657265 0.29488626 311 19942120 152 18 30 2210
0.82328486 -2.0891483 0.28076833 288 19942120 147 19 49 2263
0.55984312 -2.0576904 0.24918947 296 19942120 136 20 53 2147
0.64370453 -2.0656497 0.23175931 290 19942120 137 21 36 2176
0.71653283 -2.0363784 0.21048935 270 19942120 127 22 44 2169
0.81733024 -2.0773323 0.19683559 316 19942120 159 23 88 2241
0.55125886 -2.0276759 0.16825251 257 19942120 114 24 31 2108
0.63604897 -2.0429657 0.15086004 298 19942120 137 25 49 2145
0.72680843 -2.0658119 0.13344362 247 19942120 119 26 83 2194
0.80722737 -2.0552335 0.11367233 271 19942120 133 27 62 2211
0.55098504 -2.0305879 0.091458499 323 19942120 143 28 30 2106
0.63892156 -2.0547192 0.072922893 249 19942120 115 29 22 2153
0.73624259 -2.098943 0.054866284 230 19942120 114 30 21 2225
0.81146902 -2.0682602 0.033195488 255 19942120 126 31 57 2222
0.54981458 -2.0266943 0.014660648 269 19942120 118 32 53 2100
0.63645673 -2.0494413 -0.0054309354 282 19942120 130 33 38 2146
0.72490841 -2.0674393 -0.026155654 232 19942120 111 34 56 2191
0.79764247 -2.0368872 -0.046929218 304 19942120 145 35 39 2188
0.55826133 -2.0618172 -0.063434049 276 19942120 126 36 60 2137
0.6297406 -2.0330756 -0.083251946 277 19942120 126 37 38 2130
0.71498507 -2.0418768 -0.10531774 274 19942120 129 38 73 2166
0.79833537 -2.0385516 -0.12734604 308 19942120 148 39 42 2193
0.52914268 -1.9603757 -0.13476108 311 19942120 129 40 47 2035
0.62867856 -2.0329103 -0.16123022 300 19942120 137 41 58 2134
0.69095242 -1.9750117 -0.17864518 322 19942120 142 42 85 2100
0.77398187 -1.9795187 -0.20170029 334 19942120 152 43 32 2135
0.53717625 -1.9929035 -0.21307838 371 19942120 160 44 47 2075
0.61338896 -1.986294 -0.23420896 329 19942120 144 45 30 2092
0.69778889 -1.9979085 -0.25860664 322 19942120 146 46 55 2132
0.78904825 -2.0195069 -0.28629333 344 19942120 165 47 72 2187
0.52310741 -1.9471987 -0.28296936 352 19942120 146 48 42 2036
0.61948121 -2.0091312 -0.31545383 314 19942120 142 49 28 2126
0.69280261 -1.9869734 -0.33633706 328 19942120 149 50 31 2131
0.77551156 -1.9864972 -0.36191189 356 19942120 166 51 44 2163
0.51704228 -1.931482 -0.35637924 392 19942120 162 52 42 2031
0.59468043 -1.932169 -0.37990525 332 19942120 141 53 58 2057
0.68957901 -1.9797282 -0.41463977 350 19942120 160 54 51 2137
0.75410205 -1.9315566 -0.43167514 369 19942120 165 55 33 2118
0.5154596 -1.929884 -0.43334258 394 19942120 164 56 54 2044
0.59311682 -1.9306837 -0.45794573 346 19942120 148 57 30 2071
0.66890705 -1.9215683 -0.48209944 365 19942120 159 58 40 2091
0.7521351 -1.9270147 -0.511926 367 19942120 166 59 43 2131
0.51363468 -1.9321113 -0.51305169 430 19942120 183 60 9 2064
0.58490044 -1.9096358 -0.53260905 395 19942120 169 61 17 2067
0.66935605 -1.9240478 -0.56479973 393 19942120 175 62 37 2114
0.75715882 -1.9374894 -0.60005951 365 19942120 171 63 34 2165
0.56042171 -2.1178648 0.68381375 389 20039340 205 0 49 2295
0.64252394 -2.1011174 0.65947354 409 20039340 215 1 50 2294
0.74573594 -2.1468065 0.65807033 354 20039340 198 2 34 2366
0.8202197 -2.1022706 0.63035488 402 20039340 221 3 28 2343
0.55004078 -2.0743885 0.57973832 371 20039340 184 4 60 2223
0.63908184 -2.093127 0.56790465 368 20039340 188 5 31 2261
0.73597646 -2.1213386 0.55933702 353 20039340 189 6 64 2314
0.81555545 -2.0965812 0.53776067 397 20039340 212 7 50 2313
0.55710727 -2.0994115 0.50054401 342 20039340 170 8 60 2229
0.62679541 -2.0500674 0.47156858 343 20039340 165 9 42 2195
0.72799814 -2.1020143 0.46699396 336 20039340 174 10 31 2273
0.80512446 -2.0751238 0.44557479 341 20039340 176 11 23 2270
0.54919791 -2.0682952 0.41058245 337 20039340 160 12 71 2179
0.62549204 -2.0486174 0.38891599 312 20039340 148 13 49 2177
0.70758522 -2.0443435 0.37149563 327 20039340 157 14 52 2195
0.79677463 -2.0550919 0.3578226 318 20039340 158 15 35 2233
0.54885095 -2.0671341 0.3295683 342 20039340 160 16 37 2164
0.62555903 -2.0505025 0.30930847 319 20039340 150 17 64 2166
0.71914864 -2.0813949 0.29648745 292 20039340 144 18 46 2222
0.81045061 -2.0941606 0.28076833 313 20039340 160 19 57 2263
0.55026525 -2.0726066 0.25058225 331 20039340 154 20 47 2159
0.63797754 -2.0923865 0.23431547 272 20039340 132 21 59 2200
0.71570939 -2.0746076 0.21398295 277 20039340 135 22 51 2205
0.79595196 -2.0600073 0.19472755 303 20039340 149 23 81 2217
0.56641179 -2.135076 0.17687267 202 20039340 99 24 38 2216
0.63047779 -2.0697315 0.15254799 304 20039340 143 25 54 2169
0.71021336 -2.0589097 0.13271376 291 20039340 139 26 88 2182
0.80322671 -2.0825102 0.11490622 271 20039340 135 27 56 2235
0.53237826 -2.0107517 0.09041623 322 20039340 139 28 38 2082
0.63328356 -2.0815485 0.073735781 268 20039340 127 29 18 2177
0.71554744 -2.0807326 0.05427447 237 20039340 115 30 28 2201
0.79444933 -2.0620039 0.033016212 291 20039340 142 31 33 2210
0.54965132 -2.0764303 0.014995747 251 20039340 116 32 39 2148
0.61689252 -2.0303447 -0.0053701983 263 20039340 118 33 43 2122
0.70050699 -2.0378063 -0.025725894 269 20039340 125 34 51 2155
0.78512937 -2.041743 -0.046929218 290 20039340 139 35 45 2188
0.53334481 -2.0188162 -0.062009227 273 20039340 119 36 68 2089
0.61725402 -2.0369012 -0.083251946 302 20039340 137 37 20 2130
0.70633459 -2.0575619 -0.10590123 274 20039340 130 38 96 2178
0.7729122 -2.0098674 -0.12525554 298 20039340 139 39 41 2157
0.51710409 -1.9635855 -0.13476108 315 20039340 130 40 23 2035
0.609263 -2.0138235 -0.15941694 301 20039340 134 41 55 2110
0.68269992 -1.9905238 -0.179666 313 20039340 140 42 80 2112
0.77038509 -2.0065358 -0.20396765 319 20039340 149 43 42 2159
0.51583058 -1.9615299 -0.2093816 347 20039340 144 44 47 2039
0.60118973 -1.9900204 -0.23420896 328 20039340 143 45 33 2092
0.68551683 -2.0021524 -0.25860664 342 20039340 156 46 60 2132
0.76811916 -2.0020957 -0.28315157 318 20039340 149 47 83 2163
0.51717514 -1.9733627 -0.28630495 362 20039340 153 48 38 2060
0.6002878 -1.9901712 -0.31189269 298 20039340 132 49 28 2102
0.68059772 -1.9911869 -0.33633706 312 20039340 142 50 36 2131
0.75483865 -1.9691243 -0.35789624 346 20039340 158 51 40 2139
0.50816596 -1.9460485 -0.35848483 395 20039340 165 52 35 2043
0.58281368 -1.9357815 -0.37990525 336 20039340 142 53 46 2057
0.6660068 -1.950501 -0.40765473 340 20039340 150 54 56 2101
0.75905734 -1.980026 -0.44145817 390 20039340 183 55 33 2166
0.50656492 -1.9443587 -0.43588662 382 20039340 161 56 41 2056
0.58125919 -1.9342867 -0.45794573 361 20039340 155 57 31 2071
0.6684171 -1.9587895 -0.49039957 371 20039340 168 58 36 2127
0.74446577 -1.9424707 -0.51480871 389 20039340 178 59 53 2143
0.493018 -1.9014726 -0.50410312 412 20039340 169 60 5 2028
0.57317209 -1.9131887 -0.53260905 374 20039340 160 61 19 2067
0.65007281 -1.906229 -0.55838764 378 20039340 165 62 21 2090
0.74112558 -1.9313341 -0.59673357 371 20039340 172 63 28 2153
0.5416916 -2.0990806 0.67666274 375 20138820 193 0 42 2271
0.62632602 -2.0940087 0.65602374 380 20138820 198 1 50 2282
0.72883391 -2.1404305 0.6547327 358 20138820 198 2 24 2354
0.80730498 -2.1072638 0.63035488 471 20138820 258 3 36 2343
0.54020268 -2.0889404 0.5828678 376 20138820 188 4 59 2235
0.62290299 -2.0858791 0.56489056 359 20138820 181 5 29 2249
0.70795 -2.081718 0.5477345 342 20138820 175 6 49 2266
0.80267572 -2.1015458 0.53776067 404 20138820 216 7 60 2313
0.53835541 -2.0801494 0.49515462 343 20138820 167 8 58 2205
0.61756241 -2.0651031 0.4741466 307 20138820 149 9 45 2207
0.71508676 -2.1064417 0.46699396 334 20138820 173 10 26 2273
0.7881878 -2.0690291 0.4432193 366 20138820 186 11 31 2258
0.53058767 -2.0488088 0.40606022 331 20138820 154 12 83 2155
0.61966717 -2.0750434 0.39320356 335 20138820 162 13 39 2201
0.70262742 -2.0710464 0.37555754 308 20138820 152 14 61 2219
0.78414977 -2.059942 0.3578226 320 20138820 159 15 42 2233
0.53021067 -2.0475004 0.32591322 324 20138820 148 16 22 2140
0.61636156 -2.0656836 0.3110221 300 20138820 142 17 56 2178
0.70636392 -2.0857685 0.29648745 303 20138820 149 18 40 2222
0.79758584 -2.0990939 0.28076833 289 20138820 148 19 52 2263
0.53753763 -2.0759439 0.25058225 311 20138820 145 20 49 2159
0.61148781 -2.0505252 0.22920315 290 20138820 134 21 48 2152
0.695315 -2.0563319 0.21165387 296 20138820 141 22 49 2181
0.783297 -2.0648525 0.19472755 289 20138820 142 23 73 2217
0.53232712 -2.0574489 0.17016812 265 20138820 120 24 32 2132
0.60751289 -2.0391452 0.15001607 304 20138820 138 25 47 2133
0.70523936 -2.0859222 0.13417348 295 20138820 144 26 76 2206
0.78194571 -2.0649846 0.11367233 260 20138820 127 27 55 2211
0.5200305 -2.0139804 0.09041623 323 20138820 140 28 31 2082
0.62049949 -2.0853951 0.073735781 253 20138820 120 29 21 2177
0.6951037 -2.0623477 0.053682651 236 20138820 112 30 30 2177
0.77753729 -2.0556173 0.03283694 275 20138820 133 31 56 2198
0.53090137 -2.0565262 0.014828198 278 20138820 125 32 43 2124
0.59416884 -1.999583 -0.0052790921 266 20138820 116 33 35 2086
0.68415898 -2.0306947 -0.02558264 267 20138820 122 34 52 2143
0.78953552 -2.0914183 -0.047958739 277 20138820 138 35 42 2236
0.52992511 -2.0568972 -0.063077837 257 20138820 116 36 79 2125
0.6047442 -2.0406504 -0.083251946 301 20138820 136 37 29 2130
0.68987429 -2.0504971 -0.10531774 305 20138820 143 38 55 2166
0.7732591 -2.0481949 -0.12734604 285 20138820 137 39 48 2193
0.5110023 -1.9899162 -0.13635039 356 20138820 151 40 22 2059
0.59010565 -1.994576 -0.15760368 285 20138820 124 41 53 2086
0.67809254 -2.0173421 -0.18170767 311 20138820 142 42 97 2136
0.75384527 -2.0000463 -0.20283397 325 20138820 150 43 31 2147
0.51267982 -1.9993454 -0.21307838 375 20138820 161 44 49 2075
0.58558953 -1.9822359 -0.23286551 332 20138820 144 45 27 2080
0.67700809 -2.0176134 -0.26006219 346 20138820 159 46 67 2144
0.75582004 -2.0067713 -0.28315157 342 20138820 160 47 72 2163
0.49623084 -1.9419581 -0.28130159 354 20138820 145 48 23 2024
0.59142226 -2.0051994 -0.31367326 330 20138820 147 49 35 2114
0.66083992 -1.9728535 -0.33254912 353 20138820 157 50 39 2107
0.7510758 -1.9958643 -0.36191189 337 20138820 158 51 38 2163
0.49913034 -1.9605787 -0.36059049 380 20138820 160 52 37 2055
0.57425553 -1.9506345 -0.3821215 366 20138820 157 53 37 2069
0.65029067 -1.9433872 -0.40532637 363 20138820 158 54 53 2089
0.73034215 -1.9406651 -0.43167514 379 20138820 170 55 38 2118
0.494625 -1.9474304 -0.43588662 369 20138820 156 56 51 2056
0.56278139 -1.9153602 -0.4526388 368 20138820 154 57 34 2047
0.63786978 -1.9074844 -0.47656602 360 20138820 154 58 36 2067
0.73253298 -1.9470021 -0.51480871 435 20138820 200 59 55 2143
0.4784933 -1.8931928 -0.50112027 408 20138820 166 60 11 2016
0.55816287 -1.9055423 -0.52951694 369 20138820 156 61 1 2055
0.64202935 -1.9211494 -0.56159365 387 20138820 171 62 29 2102
0.73332584 -1.946635 -0.60005951 361 20138820 169 63 25 2165
0.52880168 -2.1023648 0.67666274 375 20235110 193 0 40 2271
0.61669159 -2.108844 0.65947354 377 20235110 198 1 50 2294
0.70839006 -2.1229944 0.64805746 349 20235110 189 2 32 2330
0.78622293 -2.0905421 0.62389797 421 20235110 226 3 28 2319
0.52454346 -2.0809822 0.57973832 395 20235110 195 4 55 2223
0.60683727 -2.078512 0.56187648 348 20235110 174 5 30 2237
0.69148219 -2.074976 0.54483396 316 20235110 160 6 53 2254
0.78157097 -2.0845747 0.53218079 392 20235110 205 7 41 2289
0.51414043 -2.0380602 0.48437572 331 20235110 154 8 53 2157
0.60487956 -2.0688536 0.4741466 319 20235110 156 9 61 2207
0.68732083 -2.0662153 0.45713225 347 20235110 172 10 39 2225
0.77959889 -2.0848477 0.44557479 347 20235110 179 11 26 2270
0.52089089 -2.0634522 0.40832132 355 20235110 167 12 51 2167
0.60030526 -2.056139 0.38891599 327 20235110 155 13 44 2177
0.69363743 -2.0865417 0.37758851 316 20235110 157 14 61 2231
0.77978748 -2.0869062 0.36166844 322 20235110 164 15 43 2257
