# .PCD v0.7 - Point Cloud Data file format
VERSION 0.7
FIELDS x y z intensity t reflectivity ring noise range
SIZE 4 4 4 4 4 2 1 2 4
TYPE F F F F U U U U U
COUNT 1 1 1 1 1 1 1 1 1
WIDTH 819
HEIGHT 1
VIEWPOINT 0 0 0 1 0 0 0
POINTS 819
DATA ascii
1.948366 -0.60227239 0.19884402 229 5059030 96 22 98 2049
1.9476613 -0.5249815 0.17786348 234 5059030 96 23 152 2025
1.957029 -0.76510978 0.16825251 204 5059030 91 24 83 2108
1.9068223 -0.66661102 0.14242032 231 5059030 95 25 77 2025
1.8404801 -0.56899345 0.11738659 212 5059030 79 26 123 1930
1.8424112 -0.49778482 0.098248675 235 5059030 86 27 110 1911
1.8475692 -0.72335708 0.086247183 267 5059030 106 28 58 1986
1.8045739 -0.63157272 0.064794004 219 5059030 80 29 23 1913
1.8036478 -0.55946946 0.046580859 199 5059030 71 30 55 1889
1.774004 -0.48000023 0.027458733 229 5059030 77 31 76 1838
1.7877762 -0.70005494 0.01340402 174 5059030 64 32 65 1920
1.7647916 -0.61837572 -0.0047324556 190 5059030 66 33 54 1870
1.7486094 -0.54263139 -0.021858055 170 5059030 57 34 102 1831
1.7290982 -0.46904841 -0.038435627 197 5059030 63 35 92 1792
1.7429532 -0.68348581 -0.055597555 75 5059030 26 36 144 1873
1.6913441 -0.59403241 -0.070119239 210 5059030 67 37 55 1794
1.7225929 -0.53534913 -0.087813407 212 5059030 69 38 109 1806
1.7776511 -0.48218593 -0.10713791 199 5059030 68 39 72 1845
1.5554852 -0.61138165 -0.11092128 26 5059030 7 40 102 1675
1.6800053 -0.5909065 -0.13493776 60 5059030 19 41 88 1786
1.6440226 -0.51143438 -0.14699946 94 5059030 28 42 158 1728
1.6129606 -0.43845087 -0.15862052 74 5059030 21 43 65 1679
1.8207412 -0.71637404 -0.20198804 264 5059030 102 44 99 1967
1.8033378 -0.63509971 -0.21540061 229 5059030 85 45 72 1924
1.8612008 -0.58006477 -0.23822862 262 5059030 101 46 119 1964
1.8854897 -0.51302719 -0.25801745 243 5059030 94 47 143 1971
1.85351 -0.73106074 -0.27963376 284 5059030 115 48 93 2012
1.9491992 -0.68742532 -0.31011218 266 5059030 116 49 49 2090
1.8955436 -0.59185719 -0.31739742 272 5059030 110 50 76 2011
1.931977 -0.52625555 -0.33982572 263 5059030 109 51 78 2031
4.5729275 -1.8083578 -0.87647182 344 5059030 858 52 111 4995
5.1532745 -1.8203418 -1.0270555 106 5059030 328 53 104 5561
5.6750317 -1.7739067 -1.1760092 99 5059030 365 54 87 6061
6.3306966 -1.724314 -1.3659523 205 5059030 922 55 96 6702
1.1375537 -0.45057884 -0.26543292 33 5059030 5 56 107 1252
0 -0 -0 5 5059030 0 57 63 0
5.6529212 -1.7681868 -1.4034142 209 5059030 776 58 74 6087
6.3677664 -1.7350076 -1.6333106 237 5059030 1096 59 95 6799
1.2097681 -0.48081997 -0.33408019 51 5059030 9 60 41 1344
5.0730829 -1.7997867 -1.4354934 223 5059030 691 61 52 5571
5.6742535 -1.7760556 -1.6484457 177 5059030 675 62 72 6170
6.3796086 -1.735364 -1.9071637 198 5059030 940 63 65 6881
2.4286132 -0.96846706 0.81610709 202 5155590 152 0 82 2739
2.3844619 -0.84713775 0.7595157 108 5155590 76 1 98 2642
5.4901552 -1.7212273 1.666036 146 5155590 525 2 62 5990
6.1802464 -1.684791 1.7893685 201 5155590 887 3 53 6651
2.3597612 -0.93962669 0.68614101 87 5155590 60 4 106 2631
2.433991 -0.86593044 0.67038369 122 5155590 87 5 50 2669
5.5084958 -1.7293006 1.4382262 194 5155590 687 6 120 5950
2.3949585 -0.6554926 0.59355944 338 5155590 221 7 79 2553
2.1919677 -0.87232596 0.54365951 131 5155590 77 8 108 2421
2.2629645 -0.80410635 0.52828568 52 5155590 32 9 70 2459
2.3348775 -0.734384 0.51383722 258 5155590 162 10 75 2501
2.2825241 -0.62686127 0.47384027 284 5155590 165 11 47 2414
2.2950408 -0.91292781 0.47389394 277 5155590 175 12 101 2515
2.2294254 -0.79315299 0.42964768 262 5155590 152 13 77 2405
2.1989157 -0.69208419 0.39586711 215 5155590 118 14 107 2339
2.1138823 -0.58110178 0.35589969 256 5155590 126 15 54 2221
2.1415689 -0.85192263 0.35515401 72 5155590 39 16 58 2332
2.1203258 -0.75488108 0.32473105 273 5155590 141 17 101 2274
2.0548198 -0.64795363 0.29008269 276 5155590 131 18 73 2174
2.0155978 -0.55540812 0.26141357 254 5155590 113 19 83 2107
2.0700488 -0.82351351 0.2603316 252 5155590 127 20 86 2243
1.9819835 -0.70597917 0.2253689 241 5155590 108 21 96 2116
1.9674116 -0.62141037 0.2011731 231 5155590 99 22 81 2073
1.9444034 -0.53692222 0.17786348 250 5155590 102 23 143 2025
1.9189565 -0.76383227 0.16537914 224 5155590 96 24 51 2072
1.9139715 -0.68231809 0.14326429 244 5155590 101 25 61 2037
1.9054831 -0.60192329 0.12176578 220 5155590 88 26 117 2002
1.8739718 -0.5186705 0.10009952 215 5155590 82 27 97 1947
1.8542327 -0.73911911 0.086768314 240 5155590 96 28 38 1998
1.8345507 -0.65472698 0.066013336 213 5155590 81 29 42 1949
1.8344883 -0.58139884 0.04746858 201 5155590 74 30 37 1925
1.7941508 -0.49728596 0.027817281 243 5155590 84 31 85 1862
1.783447 -0.71101135 0.01340402 188 5155590 69 32 69 1920
1.715763 -0.61304224 -0.0046109809 191 5155590 64 33 65 1822
1.7566849 -0.55697697 -0.022001307 193 5155590 66 34 91 1843
1.7146283 -0.47643721 -0.038178246 209 5155590 66 35 91 1780
1.8278444 -0.72974676 -0.05844719 20 5155590 8 36 127 1969
1.7328224 -0.62057036 -0.07199534 212 5155590 72 37 51 1842
1.7306994 -0.54953593 -0.088396885 214 5155590 71 38 141 1818
1.7400316 -0.4834632 -0.10504742 234 5155590 77 39 90 1809
0 -0 -0 8 5155590 0 40 107 0
1.6538213 -0.59312481 -0.13312449 70 5155590 22 41 109 1762
1.5952742 -0.50702584 -0.14291614 98 5155590 28 42 155 1680
1.6562742 -0.46115687 -0.16315523 71 5155590 21 43 71 1727
1.8163114 -0.72753239 -0.20198804 217 5155590 84 44 119 1967
1.8555216 -0.6663031 -0.22211787 247 5155590 97 45 65 1984
1.8462566 -0.58786011 -0.23677304 286 5155590 109 46 101 1952
1.8593863 -0.51819903 -0.25487569 234 5155590 89 47 141 1947
1.8931006 -0.76013178 -0.28630495 260 5155590 110 48 94 2060
1.92261 -0.69134134 -0.30655104 251 5155590 107 49 71 2066
1.9031653 -0.6070779 -0.31929135 261 5155590 107 50 67 2023
1.9742939 -0.55081725 -0.34785703 254 5155590 110 51 88 2079
4.517909 -1.8187357 -0.8680492 237 5155590 580 52 107 4947
5.0643368 -1.8239537 -1.0115416 77 5155590 231 53 98 5477
0 -0 -0 8 5155590 0 54 85 0
6.2521014 -1.7441846 -1.3512777 231 5155590 1017 55 75 6630
1.1456438 -0.4619357 -0.267977 62 5155590 10 56 121 1264
0 -0 -0 8 5155590 0 57 80 0
5.6308427 -1.7992851 -1.4006475 141 5155590 522 58 77 6075
6.267242 -1.7489979 -1.6102487 212 5155590 954 59 87 6703
1.0882705 -0.44028234 -0.30126873 32 5155590 5 60 50 1212
4.98562 -1.8032746 -1.413849 228 5155590 685 61 57 5487
5.6081772 -1.7932292 -1.6324154 185 5155590 692 62 67 6110
6.2466655 -1.7404356 -1.8705782 253 5155590 1154 63 67 6749
2.3801696 -0.96611768 0.8018052 185 5252200 134 0 104 2691
2.3900254 -0.86566663 0.76296538 146 5252200 103 1 108 2654
2.4607394 -0.78808546 0.74818647 61 5252200 44 2 78 2690
6.0696063 -1.6947073 1.7603123 182 5252200 780 3 84 6543
2.2036421 -0.89316583 0.64232814 113 5252200 69 4 97 2463
2.2757618 -0.82540387 0.62818646 102 5252200 63 5 52 2501
5.4312539 -1.741733 1.4208224 194 5252200 670 6 119 5878
2.4133675 -0.67647558 0.59913933 332 5252200 221 7 83 2577
2.1757362 -0.88136888 0.54096484 152 5252200 88 8 101 2409
2.246969 -0.81398469 0.5257076 65 5252200 39 9 34 2447
2.3303275 -0.74869668 0.51383722 255 5252200 160 10 77 2501
2.267308 -0.63766915 0.47148484 260 5252200 150 11 66 2402
2.3003197 -0.9314158 0.47615507 275 5252200 176 12 115 2527
2.235616 -0.81084317 0.43179142 253 5252200 148 13 72 2417
2.2171464 -0.71280307 0.39992902 136 5252200 76 14 119 2363
2.1672857 -0.61010987 0.36551425 248 5252200 129 15 82 2281
2.1802733 -0.88285244 0.36246422 244 5252200 138 16 57 2380
2.115654 -0.76787698 0.32473105 266 5252200 138 17 94 2274
2.0734456 -0.66784179 0.2932851 258 5252200 125 18 78 2198
2.0809107 -0.58716673 0.27034655 248 5252200 118 19 86 2179
2.0318143 -0.82277864 0.25615329 231 5252200 113 20 113 2207
2.0224752 -0.73441726 0.23048122 240 5252200 113 21 83 2164
1.974928 -0.63713741 0.20233761 245 5252200 107 22 78 2085
1.9410722 -0.54884273 0.17786348 234 5252200 96 23 156 2025
1.9142336 -0.77559239 0.16537914 229 5252200 98 24 56 2072
1.8647474 -0.6776945 0.13988841 215 5252200 85 25 69 1989
1.8903548 -0.60992587 0.12103593 219 5252200 87 26 140 1990
1.8707541 -0.53015918 0.10009952 236 5252200 89 27 104 1947
1.8496627 -0.75048256 0.086768314 256 5252200 102 28 51 1998
1.8192284 -0.66187084 0.065606892 177 5252200 66 29 31 1937
1.8080598 -0.58525527 0.046876766 217 5252200 79 30 66 1901
1.7448944 -0.49518237 0.027100187 234 5252200 77 31 70 1814
1.7679318 -0.71742892 0.013320246 195 5252200 71 32 87 1908
1.7570703 -0.63998586 -0.0047324556 196 5252200 69 33 69 1870
1.7418188 -0.56404865 -0.021858055 193 5252200 65 34 77 1831
1.7116727 -0.486949 -0.038178246 193 5252200 61 35 95 1780
1.7233222 -0.70030731 -0.05524135 24 5252200 8 36 150 1861
1.7064545 -0.62296706 -0.07105729 247 5252200 82 37 34 1818
1.7386962 -0.5638423 -0.088980362 218 5252200 73 38 121 1830
1.7370323 -0.49413073 -0.10504742 233 5252200 76 39 86 1809
0 -0 -0 6 5252200 0 40 109 0
1.7063422 -0.62380368 -0.13765767 68 5252200 23 41 94 1822
1.6262504 -0.52787912 -0.14597863 89 5252200 26 42 159 1716
1.6993681 -0.48441043 -0.16768993 74 5252200 23 43 64 1775
1.8560261 -0.75668871 -0.20691708 234 5252200 95 44 117 2015
1.8066064 -0.66128045 -0.21674405 259 5252200 97 45 43 1936
1.8539424 -0.60286087 -0.23822862 258 5252200 100 46 111 1964
1.8676119 -0.53286237 -0.25644657 238 5252200 91 47 130 1959
1.8994012 -0.77622879 -0.28797275 288 5252200 124 48 74 2072
1.9294742 -0.70720923 -0.30833161 238 5252200 103 49 59 2078
1.8994046 -0.61874408 -0.31929135 247 5252200 101 50 76 2023
1.9253736 -0.54992425 -0.33982572 256 5252200 106 51 78 2031
1.1287159 -0.46244553 -0.21740712 20 5252200 3 52 126 1239
4.9644809 -1.8224795 -0.99381143 45 5252200 131 53 105 5381
0 -0 -0 5 5252200 0 54 87 0
6.1057248 -1.7437987 -1.3219287 226 5252200 953 55 60 6486
1.229582 -0.50457346 -0.28832966 109 5252200 20 56 104 1360
1.390386 -0.51124221 -0.33588582 12 5252200 3 57 60 1519
0 -0 -0 5 5252200 0 58 72 0
6.1443872 -1.7554208 -1.5814213 216 5252200 937 59 81 6583
1.2145246 -0.50005472 -0.33706304 79 5252200 14 60 36 1356
4.9200654 -1.8137789 -1.3983885 249 5252200 735 61 58 5427
5.47615 -1.7881231 -1.5971489 208 5252200 745 62 69 5978
6.1582551 -1.756593 -1.8472964 150 5252200 668 63 70 6665
2.2259748 -0.91947818 0.75174814 89 5348290 57 0 89 2523
2.3738866 -0.87633497 0.7595157 189 5348290 132 1 110 2642
2.4120357 -0.78883785 0.73483592 141 5348290 99 2 95 2642
5.9257431 -1.6938013 1.721571 202 5348290 825 3 52 6399
2.4551477 -1.0126878 0.71743596 204 5348290 154 4 106 2751
2.2488649 -0.83129758 0.62215829 111 5348290 68 5 46 2477
5.3651347 -1.7569071 1.4063193 118 5348290 399 6 122 5818
2.4091713 -0.69127101 0.59913933 278 5348290 185 7 120 2577
2.1270435 -0.8768751 0.53018594 136 5348290 76 8 87 2361
2.230938 -0.82369733 0.52312958 106 5348290 63 9 41 2435
2.3480074 -0.77030289 0.51876807 273 5348290 174 10 54 2525
2.2633526 -0.65156907 0.47148484 306 5348290 176 11 52 2402
2.1420143 -0.88265324 0.44449934 143 5348290 80 12 106 2359
2.2527478 -0.83273292 0.436079 201 5348290 120 13 64 2441
2.1790204 -0.71532726 0.39383614 226 5348290 122 14 86 2327
2.1521194 -0.62011695 0.36359134 266 5348290 137 15 76 2269
2.1748152 -0.89621377 0.36246422 267 5348290 151 16 56 2380
2.1109025 -0.78084391 0.32473105 261 5348290 135 17 94 2274
2.0128214 -0.66197419 0.2852791 251 5348290 115 18 80 2138
2.0200701 -0.58340466 0.26290241 234 5348290 105 19 92 2119
2.015708 -0.83068883 0.25476053 135 5348290 65 20 101 2195
1.9731709 -0.73024803 0.2253689 246 5348290 110 21 86 2116
1.9709814 -0.64924335 0.20233761 215 5348290 94 22 77 2085
1.9491507 -0.56406558 0.17891748 244 5348290 101 23 136 2037
1.9315559 -0.79644293 0.16729474 189 5348290 83 24 62 2096
1.8830041 -0.69743884 0.14157633 255 5348290 103 25 57 2013
1.863824 -0.61401772 0.11957619 250 5348290 97 26 138 1966
1.8444462 -0.53495145 0.098865621 215 5348290 79 27 110 1923
1.856104 -0.76639318 0.087289445 253 5348290 102 28 46 2010
1.837623 -0.68135989 0.06641978 190 5348290 73 29 29 1961
1.8272156 -0.60386705 0.04746858 188 5348290 70 30 51 1925
1.7648681 -0.51257253 0.027458733 235 5348290 79 31 84 1838
1.7634964 -0.7282632 0.013320246 184 5348290 67 32 61 1908
1.7643603 -0.65493095 -0.0047628242 203 5348290 72 33 51 1882
1.7611103 -0.58225894 -0.022144562 184 5348290 63 34 97 1855
1.7201716 -0.50079602 -0.038435627 186 5348290 60 35 82 1792
1.6968242 -0.70170069 -0.05452894 17 5348290 6 36 136 1837
1.6688851 -0.62088287 -0.069650218 221 5348290 70 37 53 1782
1.7124472 -0.5669657 -0.087813407 224 5348290 73 38 109 1806
1.7569722 -0.51147652 -0.10644108 228 5348290 77 39 73 1833
0 -0 -0 4 5348290 0 40 106 0
1.6239926 -0.60502034 -0.13131121 74 5348290 22 41 87 1738
1.6116313 -0.53408653 -0.14495781 110 5348290 32 42 153 1704
1.6160852 -0.47141123 -0.15975419 70 5348290 20 43 68 1691
1.8292974 -0.75891471 -0.20445256 254 5348290 101 44 95 1991
1.8360326 -0.68485558 -0.22077441 262 5348290 102 45 49 1972
1.8502084 -0.61422515 -0.23822862 245 5348290 94 46 134 1964
1.8757271 -0.54764599 -0.25801745 222 5348290 86 47 133 1971
1.8946025 -0.78786868 -0.28797275 285 5348290 123 48 68 2072
1.9139816 -0.71488267 -0.30655104 231 5348290 99 49 59 2066
1.9517931 -0.64908361 -0.32876122 240 5348290 104 50 66 2083
1.9333186 -0.56504667 -0.34183353 271 5348290 113 51 76 2043
1.180378 -0.49209189 -0.2279353 44 5348290 7 52 108 1299
4.9200668 -1.8405104 -0.98716265 29 5348290 83 53 106 5345
0 -0 -0 9 5348290 0 54 76 0
5.993422 -1.7515702 -1.299917 345 5348290 1405 55 81 6378
1.215641 -0.50758994 -0.28578559 121 5348290 22 56 106 1348
1.2995512 -0.48691502 -0.31465805 18 5348290 4 57 83 1423
0 -0 -0 7 5348290 0 58 84 0
6.0440559 -1.7669405 -1.5583594 244 5348290 1028 59 86 6487
1.1685508 -0.48953298 -0.3251316 120 5348290 20 60 29 1308
4.8545723 -1.8235475 -1.3829283 256 5348290 736 61 56 5367
5.3663421 -1.7887795 -1.5682944 205 5348290 708 62 61 5870
5.9924088 -1.7491174 -1.8007329 173 5348290 732 63 64 6497
2.1041284 -0.8842997 0.71241772 114 5444950 65 0 75 2391
2.443768 -0.91920918 0.78366381 172 5444950 128 1 108 2726
5.2388768 -1.7489902 1.5992835 168 5444950 557 2 76 5750
5.8597746 -1.7139066 1.7054287 188 5444950 757 3 73 6339
2.5022986 -1.0501484 0.73308343 110 5444950 87 4 97 2811
2.2111123 -0.83279854 0.61311603 169 5444950 101 5 58 2441
2.3614671 -0.78937972 0.62025017 28 5444950 18 6 115 2566
2.4272814 -0.71261579 0.60471916 163 5444950 110 7 153 2601
2.2725899 -0.95323259 0.56791198 160 5444950 102 8 107 2529
2.2148726 -0.83324385 0.52055156 102 5444950 60 9 53 2423
2.3209643 -0.777237 0.51383722 266 5444950 167 10 85 2501
2.2931736 -0.67541784 0.47855124 291 5444950 173 11 45 2438
2.1256897 -0.89122295 0.44223818 125 5444950 69 12 131 2347
2.2917926 -0.86318624 0.44465405 51 5444950 32 13 62 2489
2.1970181 -0.73619944 0.39789805 231 5444950 128 14 105 2351
2.1141894 -0.62326235 0.3578226 263 5444950 131 15 76 2233
2.1583376 -0.90495533 0.36063665 259 5444950 146 16 61 2368
2.0949576 -0.78959262 0.32301742 247 5444950 127 17 89 2262
2.0538194 -0.68945116 0.29168388 258 5444950 123 18 86 2186
2.0392909 -0.6025365 0.26588008 233 5444950 107 19 97 2143
1.9775978 -0.82921469 0.25058225 51 5444950 24 20 84 2159
1.9909817 -0.75076115 0.22792506 269 5444950 123 21 114 2140
1.9443194 -0.65371251 0.20000856 241 5444950 103 22 82 2061
1.934191 -0.57262135 0.17786348 249 5444950 102 23 138 2025
1.9486932 -0.8175348 0.16921031 228 5444950 103 24 66 2120
1.8898886 -0.71320605 0.14242032 233 5444950 96 25 84 2025
1.8486683 -0.62162483 0.11884633 226 5444950 86 26 145 1954
1.8870856 -0.55989385 0.1013334 223 5444950 87 27 106 1971
1.8403138 -0.77312428 0.086768314 233 5444950 93 28 46 1998
1.8221885 -0.68838412 0.066013336 201 5444950 76 29 19 1949
1.8234758 -0.61506724 0.04746858 197 5444950 73 30 44 1925
1.8191988 -0.54047757 0.028355101 236 5444950 85 31 82 1898
1.7811203 -0.74836659 0.013487795 188 5444950 70 32 83 1932
1.7939807 -0.67847925 -0.0048539303 179 5444950 66 33 63 1918
1.7461351 -0.58921748 -0.022001307 193 5444950 66 34 91 1843
1.69407 -0.50449306 -0.037920866 220 5444950 69 35 57 1768
1.7145985 -0.72140241 -0.05524135 18 5444950 6 36 136 1861
1.7098937 -0.64811087 -0.071526311 188 5444950 63 37 60 1830
1.7316461 -0.58513629 -0.088980362 240 5444950 80 38 130 1830
1.7308378 -0.51540959 -0.10504742 214 5444950 70 39 72 1809
0 -0 -0 4 5444950 0 40 109 0
1.6426237 -0.62346578 -0.13312449 88 5444950 27 41 99 1762
1.6989336 -0.57461113 -0.15312444 101 5444950 33 42 171 1800
1.6246098 -0.48473406 -0.16088787 81 5444950 24 43 70 1703
1.8356035 -0.77476639 -0.20568481 251 5444950 101 44 82 2003
1.8540895 -0.70458025 -0.22346132 236 5444950 94 45 64 1996
1.8689677 -0.6332106 -0.24113975 265 5444950 105 46 110 1988
1.8723315 -0.55914491 -0.25801745 240 5444950 93 47 152 1971
1.8568994 -0.78558832 -0.28296936 241 5444950 100 48 75 2036
1.9206505 -0.73083359 -0.30833161 237 5444950 102 49 56 2078
1.9589945 -0.66485554 -0.33065516 256 5444950 113 50 70 2095
1.9751561 -0.59045279 -0.3498649 262 5444950 115 51 91 2091
1.1773363 -0.49932528 -0.2279353 75 5444950 13 52 117 1299
4.8866401 -1.862265 -0.98273009 18 5444950 52 53 77 5321
0 -0 -0 7 5444950 0 54 89 0
5.8700018 -1.7546657 -1.2754595 318 5444950 1247 55 71 6258
1.1153594 -0.47377515 -0.26288882 87 5444950 13 56 123 1240
1.3074726 -0.499053 -0.3173115 45 5444950 9 57 58 1435
1.1304094 -0.38428342 -0.28289625 11 5444950 2 58 61 1227
5.8880157 -1.7606102 -1.5208838 214 5444950 859 59 82 6331
1.1548321 -0.49213701 -0.32214874 97 5444950 16 60 28 1296
4.745831 -1.8160064 -1.3550997 276 5444950 762 61 49 5259
5.267683 -1.7918807 -1.5426459 184 5444950 615 62 67 5774
5.9042273 -1.7627639 -1.777451 193 5444950 792 63 56 6413
2.3830488 -1.0187708 0.80895615 133 5542430 98 0 96 2715
2.405884 -0.92184955 0.7733146 220 5542430 159 1 103 2690
5.1407609 -1.7513657 1.5725822 202 5542430 644 2 55 5654
5.7605667 -1.7233293 1.6796012 192 5542430 750 3 74 6243
2.5810437 -1.1018703 0.75811934 71 5542430 60 4 97 2907
2.3035614 -0.88379598 0.64024276 162 5542430 106 5 60 2549
5.1558199 -1.7587059 1.3570087 131 5542430 412 6 148 5614
5.7763071 -1.7344106 1.4417008 182 5542430 699 7 136 6201
2.3850074 -1.0176394 0.59755391 169 5542430 120 8 97 2661
2.2316055 -0.85520619 0.5257076 97 5542430 58 9 63 2447
2.3494909 -0.80285609 0.5212335 289 5542430 186 10 58 2537
2.2777193 -0.68608207 0.47619575 298 5542430 175 11 41 2426
2.0659797 -0.88113248 0.43093258 129 5542430 68 12 102 2287
2.2533827 -0.86454415 0.43822274 181 5542430 109 13 78 2453
2.1924596 -0.74966621 0.39789805 254 5542430 140 14 116 2351
2.1556883 -0.64989913 0.36551425 253 5542430 132 15 65 2281
2.1527443 -0.9181816 0.36063665 270 5542430 152 16 64 2368
2.1344252 -0.81945997 0.32987189 230 5542430 123 17 106 2310
2.1170561 -0.72516316 0.30129105 291 5542430 148 18 81 2258
2.058352 -0.62192595 0.26885772 255 5542430 120 19 104 2167
2.0821052 -0.8880958 0.26450992 181 5542430 94 20 87 2279
1.9863377 -0.76296341 0.22792506 230 5542430 105 21 95 2140
1.98546 -0.68113267 0.20466669 246 5542430 110 22 78 2109
1.9306411 -0.58447856 0.17786348 260 5542430 106 23 160 2025
1.9216368 -0.82008612 0.16729474 231 5542430 102 24 72 2096
1.9413428 -0.74626392 0.14664018 225 5542430 98 25 90 2085
1.8901373 -0.64850491 0.12176578 208 5542430 83 26 135 2002
1.8606787 -0.56450385 0.10009952 210 5542430 80 27 101 1947
1.8355353 -0.78440166 0.086768314 270 5542430 108 28 52 1998
1.8291234 -0.70385903 0.06641978 206 5542430 79 29 56 1961
1.8310109 -0.63014817 0.047764488 195 5542430 73 30 43 1937
1.7928871 -0.54465449 0.027996555 225 5542430 79 31 85 1874
1.7985632 -0.7687133 0.013655346 194 5542430 74 32 63 1956
1.778586 -0.68516046 -0.0048235618 180 5542430 66 33 70 1906
1.7651781 -0.60773277 -0.022287816 186 5542430 65 34 102 1867
1.6909426 -0.51487815 -0.037920866 220 5542430 69 35 78 1768
1.7211671 -0.73662889 -0.055597555 19 5542430 7 36 116 1873
1.6611403 -0.64131588 -0.069650218 114 5542430 36 37 67 1782
1.762017 -0.60747015 -0.090730794 216 5542430 75 38 123 1866
1.739103 -0.52950943 -0.10574425 194 5542430 64 39 87 1821
0 -0 -0 5 5542430 0 40 107 0
1.649928 -0.6378476 -0.13403112 67 5542430 21 41 108 1774
1.6501658 -0.56942415 -0.14904112 90 5542430 27 42 163 1752
1.621605 -0.49469337 -0.16088787 76 5542430 22 43 86 1703
1.8417835 -0.79072392 -0.20691708 252 5542430 102 44 99 2015
1.8719726 -0.72455198 -0.22614822 236 5542430 96 45 65 2020
1.8425316 -0.6368838 -0.23822862 274 5542430 106 46 137 1964
1.8688654 -0.5706228 -0.25801745 240 5542430 93 47 140 1971
1.7865496 -0.76878381 -0.2729626 34 5542430 13 48 97 1964
1.9161299 -0.74260473 -0.30833161 244 5542430 106 49 59 2078
1.9436809 -0.67298627 -0.32876122 262 5542430 114 50 67 2083
1.9262391 -0.5887289 -0.34183353 252 5542430 105 51 76 2043
1.1417077 -0.49250183 -0.22161838 130 5542430 21 52 101 1263
0 -0 -0 8 5542430 0 53 116 0
0 -0 -0 0 5542430 0 54 85 0
5.802949 -1.7734821 -1.2632307 212 5542430 816 55 73 6198
1.1339624 -0.48991209 -0.267977 73 5542430 12 56 123 1264
1.2171239 -0.47314394 -0.29608369 60 5542430 11 57 69 1339
0 -0 -0 6 5542430 0 58 46 0
5.7991242 -1.7728665 -1.5007046 236 5542430 921 59 106 6247
1.1517907 -0.49921367 -0.32214874 90 5542430 15 60 40 1296
4.6913853 -1.8282516 -1.3427314 267 5542430 724 61 40 5211
5.2238154 -1.8127955 -1.5330279 196 5542430 647 62 61 5738
5.7940526 -1.7686625 -1.7475175 162 5542430 646 63 62 6305
2.4397829 -1.0607781 0.83040911 61 5639800 48 0 73 2787
2.4644253 -0.96166313 0.79401296 204 5639800 156 1 101 2762
5.0645919 -1.7601721 1.5525565 135 5639800 422 2 70 5582
5.6283102 -1.7214588 1.6440881 195 5639800 730 3 67 6111
2.6379924 -1.1453692 0.7768963 50 5639800 45 4 91 2979
2.2656386 -0.88523233 0.63120049 104 5639800 66 5 61 2513
5.0679502 -1.7635206 1.3367043 242 5639800 740 6 100 5530
5.6093535 -1.7218722 1.4026417 260 5639800 947 7 105 6033
2.4108996 -1.0462195 0.60563803 153 5639800 111 8 104 2697
2.2372339 -0.87314397 0.52828568 93 5639800 56 9 47 2459
2.3888786 -0.83271962 0.53109521 238 5639800 159 10 73 2585
2.2847123 -0.70350772 0.47855124 290 5639800 172 11 54 2438
2.0389109 -0.88441288 0.42641032 184 5639800 94 12 132 2263
2.2700303 -0.88694823 0.44251031 254 5639800 156 13 83 2477
2.1766515 -0.75920981 0.39586711 269 5639800 147 14 95 2339
2.1290209 -0.65613687 0.36166844 247 5639800 126 15 77 2257
2.1579504 -0.93609315 0.36246422 257 5639800 145 16 54 2380
2.1293569 -0.83254111 0.32987189 224 5639800 120 17 85 2310
2.0901127 -0.73029399 0.29808867 246 5639800 123 18 98 2234
2.0089893 -0.6204887 0.26290241 228 5639800 103 19 76 2119
2.0547481 -0.89136779 0.26172438 224 5639800 114 20 111 2255
2.0260665 -0.79252332 0.23303741 223 5639800 107 21 102 2188
1.9586971 -0.6854127 0.20233761 242 5639800 105 22 83 2085
1.915599 -0.59277999 0.17680946 248 5639800 100 23 146 2013
1.9385141 -0.84138674 0.16921031 119 5639800 54 24 77 2120
1.8921409 -0.7407077 0.14326429 227 5639800 94 25 82 2037
1.8861225 -0.66009039 0.12176578 228 5639800 91 26 137 2002
1.8457334 -0.57236058 0.099482566 233 5639800 87 27 132 1935
1.8636731 -0.80998558 0.088331714 237 5639800 98 28 29 2034
1.8247701 -0.71506906 0.06641978 204 5639800 78 29 35 1961
1.8157908 -0.63739777 0.04746858 192 5639800 71 30 49 1925
1.7665935 -0.54852915 0.027638009 234 5639800 80 31 94 1850
1.7828077 -0.77495098 0.013571571 217 5639800 82 32 74 1944
1.7855196 -0.70044309 -0.0048539303 179 5639800 66 33 75 1918
1.7161304 -0.60264951 -0.021714803 188 5639800 62 34 92 1819
1.7221175 -0.53593892 -0.038693011 205 5639800 67 35 91 1804
0 -0 -0 11 5639800 0 36 148 0
1.523261 -0.59885025 -0.064021915 10 5639800 3 37 91 1638
1.7356423 -0.61031824 -0.089563839 235 5639800 80 38 144 1842
1.7129438 -0.53305119 -0.10435058 225 5639800 73 39 87 1797
0 -0 -0 0 5639800 0 40 112 0
1.6905195 -0.66549158 -0.13765767 50 5639800 17 41 87 1822
1.6691976 -0.58747756 -0.15108278 116 5639800 37 42 140 1776
1.6755635 -0.52241331 -0.16655627 75 5639800 23 43 71 1763
1.8259577 -0.7972337 -0.20568481 242 5639800 97 44 99 2003
1.8453037 -0.72727972 -0.22346132 223 5639800 89 45 67 1996
1.8498228 -0.6521377 -0.23968418 241 5639800 94 46 114 1976
1.8766856 -0.58562309 -0.25958833 273 5639800 107 47 132 1983
1.2265743 -0.53676009 -0.187905 41 5639800 8 48 101 1352
1.9336147 -0.76306027 -0.31189269 251 5639800 111 49 52 2102
1.9395149 -0.68489975 -0.32876122 280 5639800 122 50 75 2083
1.9564687 -0.61111915 -0.34785703 261 5639800 113 51 90 2079
1.149483 -0.50424379 -0.22372404 110 5639800 18 52 99 1275
1.1891203 -0.46995696 -0.24028039 41 5639800 7 53 111 1301
0 -0 -0 6 5639800 0 54 59 0
5.735889 -1.7915423 -1.251002 51 5639800 193 55 78 6138
1.1631452 -0.51101184 -0.27560925 82 5639800 14 56 96 1300
1.1380271 -0.45045331 -0.27750936 50 5639800 8 57 58 1255
0 -0 -0 6 5639800 0 58 69 0
5.6880703 -1.7771515 -1.4747601 224 5639800 845 59 99 6139
1.148706 -0.50627154 -0.32214874 96 5639800 16 60 44 1296
4.5938597 -1.8227922 -1.3179948 222 5639800 582 61 63 5115
5.0926805 -1.8023751 -1.4977612 207 5639800 652 62 71 5606
5.717051 -1.7835779 -1.7275616 183 5639800 712 63 69 6233
2.5799026 -1.1405731 0.8804661 44 5737230 39 0 84 2955
2.3943903 -0.95130402 0.7733146 189 5737230 137 1 88 2690
2.3267646 -0.8246904 0.71481013 53 5737230 35 2 56 2570
5.5293922 -1.728376 1.6182606 189 5737230 685 3 67 6015
2.609719 -1.1521763 0.77063733 36 5737230 32 4 97 2955
2.1522379 -0.85618305 0.60105962 105 5737230 60 5 57 2393
4.969245 -1.7634301 1.3134993 242 5737230 714 6 128 5434
5.4984574 -1.7248182 1.3775321 255 5737230 896 7 91 5925
2.3937366 -1.056272 0.60294336 84 5737230 61 8 106 2685
2.1991599 -0.87387127 0.52055156 103 5737230 60 9 52 2423
2.3283961 -0.82769388 0.51876807 82 5737230 52 10 83 2525
2.2466805 -0.70691824 0.47148484 297 5737230 171 11 47 2402
2.0226631 -0.89215082 0.42414922 212 5737230 107 12 134 2251
2.2535746 -0.89649588 0.44036651 257 5737230 156 13 68 2465
2.1942379 -0.78047812 0.39992902 269 5737230 150 14 106 2363
2.1588488 -0.67986178 0.36743718 270 5737230 142 15 78 2293
2.0545046 -0.9062382 0.34601626 125 5737230 65 16 67 2272
2.0911038 -0.8324129 0.32473105 64 5737230 33 17 109 2274
2.0631864 -0.73512161 0.29488626 236 5737230 115 18 101 2210
2.0392098 -0.64355475 0.26736891 240 5737230 112 19 77 2155
2.0492399 -0.90395874 0.26172438 201 5737230 102 20 98 2255
2.0322504 -0.80935472 0.23431547 228 5737230 110 21 118 2200
2.0106981 -0.71748775 0.2081603 259 5737230 119 22 78 2145
2.0031056 -0.63335252 0.18524152 240 5737230 107 23 146 2109
1.9114285 -0.84360582 0.16729474 50 5737230 22 24 89 2096
1.8986799 -0.7567355 0.14410825 224 5737230 94 25 75 2049
1.8707559 -0.66762513 0.12103593 234 5737230 93 26 143 1990
1.8650357 -0.59091443 0.10071646 225 5737230 86 27 114 1959
1.8148056 -0.80202138 0.086247183 252 5737230 99 28 45 1986
1.8314874 -0.73069638 0.066826224 212 5737230 82 29 35 1973
1.8570241 -0.66469836 0.048652213 185 5737230 72 30 47 1973
1.7860683 -0.56661499 0.027996555 245 5737230 86 31 92 1874
1.7889946 -0.7907266 0.013655346 203 5737230 78 32 69 1956
1.7700442 -0.70693487 -0.0048235618 161 5737230 59 33 95 1906
1.7011034 -0.60912299 -0.021571549 174 5737230 57 34 97 1807
1.7416631 -0.55376595 -0.039207771 201 5737230 67 35 75 1828
1.6790925 -0.74313152 -0.05452894 18 5737230 6 36 146 1837
0 -0 -0 9 5737230 0 37 73 0
1.7092998 -0.61286581 -0.088396885 207 5737230 68 38 101 1818
1.7210575 -0.54718131 -0.10504742 231 5737230 76 39 79 1809
0 -0 -0 5 5737230 0 40 87 0
1.6086555 -0.6446929 -0.13131121 11 5737230 3 41 108 1738
1.6655614 -0.59770852 -0.15108278 107 5737230 34 42 139 1776
1.7064749 -0.54356182 -0.1699573 74 5737230 24 43 55 1799
1.8319414 -0.81326586 -0.20691708 248 5737230 101 44 86 2015
1.8518734 -0.74302906 -0.22480479 205 5737230 83 45 69 2008
1.9018326 -0.6836217 -0.24696203 256 5737230 106 46 122 2036
1.8730569 -0.59712714 -0.25958833 252 5737230 99 47 150 1983
1.1146846 -0.4959676 -0.17122705 43 5737230 7 48 103 1232
1.9399081 -0.77933419 -0.31367326 232 5737230 104 49 64 2114
1.9687228 -0.70882994 -0.33444312 261 5737230 117 50 51 2119
1.9864948 -0.63390213 -0.35388055 239 5737230 107 51 77 2115
1.1787354 -0.52572376 -0.23004095 73 5737230 13 52 93 1311
1.1752729 -0.47284245 -0.23806411 73 5737230 12 53 82 1289
0 -0 -0 7 5737230 0 54 86 0
0 -0 -0 8 5737230 0 55 74 0
1.1171575 -0.49900785 -0.26543292 77 5737230 12 56 121 1252
1.1678064 -0.47054902 -0.28546977 85 5737230 14 57 65 1291
0 -0 -0 0 5737230 0 58 65 0
5.6104765 -1.7907674 -1.4574636 202 5737230 744 59 94 6067
1.1880068 -0.53232187 -0.33408019 85 5737230 15 60 42 1344
4.5395851 -1.8335757 -1.3056265 270 5737230 692 61 57 5067
4.9945068 -1.8021898 -1.4721128 211 5737230 639 62 53 5510
5.5961456 -1.7836108 -1.694302 183 5737230 686 63 61 6113
2.5833039 -1.1610777 0.88404161 25 5833690 22 0 79 2967
2.3778534 -0.96166867 0.76986492 146 5833690 105 1 115 2678
2.4300647 -0.87812442 0.74818647 97 5833690 70 2 50 2690
2.5680454 -0.82004935 0.75303596 37 5833690 29 3 86 2799
2.5708935 -1.153936 0.76124883 26 5833690 22 4 76 2919
2.340734 -0.94784522 0.65531325 107 5833690 73 5 74 2609
4.9254823 -1.7820032 1.3047974 93 5833690 270 6 139 5398
5.4433131 -1.7442775 1.3663725 239 5833690 826 7 87 5877
2.3231957 -1.0422219 0.58677506 41 5833690 28 8 99 2613
2.1502979 -0.86977005 0.5102393 127 5833690 72 9 65 2375
2.4116039 -0.87397641 0.53849149 75 5833690 52 10 59 2621
2.2759073 -0.73149168 0.47855124 281 5833690 167 11 50 2438
2.0171509 -0.90454483 0.42414922 161 5833690 82 12 126 2251
2.2699187 -0.91916966 0.44465405 248 5833690 154 13 71 2489
2.2227631 -0.80602241 0.40602189 267 5833690 154 14 113 2399
2.1433606 -0.6894682 0.36551425 276 5833690 144 15 74 2281
2.0056188 -0.89941555 0.33870608 119 5833690 59 16 61 2224
2.1409953 -0.86752951 0.33329913 124 5833690 68 17 87 2334
2.1033497 -0.7640084 0.30129105 220 5833690 112 18 89 2258
2.0578887 -0.66336137 0.27034655 234 5833690 111 19 85 2179
2.0762808 -0.93114734 0.2659027 153 5833690 80 20 91 2291
1.9719574 -0.79939616 0.22792506 238 5833690 109 21 95 2140
1.9725863 -0.71756309 0.20466669 232 5833690 103 22 90 2109
1.953681 -0.63093704 0.18102549 255 5833690 108 23 135 2061
2.0153506 -0.9042868 0.17687267 102 5833690 50 24 56 2216
1.9161855 -0.77737135 0.14579621 238 5833690 102 25 81 2073
1.8891363 -0.68728131 0.12249566 215 5833690 87 26 139 2014
1.8613747 -0.6023469 0.10071646 222 5833690 85 27 101 1959
1.8317215 -0.82296818 0.087289445 239 5833690 96 28 52 2010
1.860305 -0.7554577 0.068045557 204 5833690 82 29 34 2009
1.8303714 -0.66785634 0.048060399 192 5833690 73 30 41 1949
1.7711436 -0.57386506 0.027817281 245 5833690 85 31 89 1862
1.7950544 -0.80660707 0.01373912 214 5833690 83 32 72 1968
1.7767897 -0.72230142 -0.0048539303 191 5833690 70 33 56 1918
1.7086058 -0.62366366 -0.021714803 182 5833690 60 34 103 1819
1.7382325 -0.56444216 -0.039207771 205 5833690 69 35 92 1828
1.696378 -0.76326346 -0.05524135 12 5833690 4 36 143 1861
0 -0 -0 0 5833690 0 37 63 0
1.7392796 -0.63568574 -0.090147316 212 5833690 73 38 129 1854
1.75185 -0.56883031 -0.10713791 231 5833690 79 39 63 1845
0 -0 -0 3 5833690 0 40 85 0
0 -0 -0 8 5833690 0 41 105 0
1.6618626 -0.60791695 -0.15108278 95 5833690 30 42 164 1776
1.5781435 -0.51337141 -0.15748683 87 5833690 24 43 76 1667
1.8486766 -0.83431137 -0.2093816 255 5833690 106 44 104 2039
1.8914374 -0.77241087 -0.23017858 209 5833690 89 45 73 2056
1.8640492 -0.68298453 -0.24259531 262 5833690 105 46 118 2000
1.8919826 -0.61597472 -0.26273012 235 5833690 95 47 152 2007
1.0899655 -0.49300304 -0.16789144 31 5833690 5 48 95 1208
1.9021364 -0.77774858 -0.30833161 215 5833690 93 49 55 2078
1.9532123 -0.71681398 -0.33254912 274 5833690 122 50 69 2107
1.9713194 -0.64241344 -0.35187274 259 5833690 115 51 82 2103
1.1109297 -0.50367707 -0.21740712 84 5833690 13 52 80 1239
1.1832637 -0.48451394 -0.24028039 89 5833690 15 53 80 1301
0 -0 -0 6 5833690 0 54 60 0
0 -0 -0 0 5833690 0 55 78 0
1.0820404 -0.49130791 -0.25780067 85 5833690 13 56 122 1216
1.2082087 -0.49546704 -0.29608369 102 5833690 18 57 58 1339
1.4603914 -0.53679132 -0.36866429 10 5833690 2 58 46 1599
5.5440073 -1.807109 -1.4430499 53 5833690 192 59 96 6007
1.1318289 -0.51551193 -0.31916589 82 5833690 13 60 42 1284
4.4853525 -1.8437624 -1.2932582 190 5833690 480 61 69 5019
4.9290895 -1.8128438 -1.4560826 211 5833690 628 62 67 5450
5.5083504 -1.7929342 -1.6710203 181 5833690 659 63 74 6029
2.3885865 -1.0912269 0.81968266 27 5931780 21 0 97 2751
2.0530553 -0.84500605 0.66637295 108 5931780 58 1 99 2318
2.4246309 -0.89301848 0.74818647 123 5931780 89 2 47 2690
2.5080252 -0.81787497 0.73689371 99 5931780 74 3 109 2739
2.5110667 -1.1456461 0.74560142 15 5931780 12 4 86 2859
2.4530048 -1.0108709 0.68846822 156 5931780 118 5 63 2741
2.3033664 -0.84935999 0.6115483 99 5931780 63 6 119 2530
5.3437681 -1.7486066 1.3440529 250 5931780 836 7 93 5781
2.0933268 -0.95457149 0.53018594 13 5931780 7 8 100 2361
2.1124084 -0.86956412 0.50250518 152 5931780 83 9 63 2339
2.3951795 -0.8846882 0.53602612 255 5931780 173 10 54 2609
2.2713761 -0.74544263 0.47855124 280 5931780 166 11 57 2438
2.1724164 -0.99022466 0.45806608 174 5931780 103 12 115 2431
2.2751527 -0.93757892 0.44679785 266 5931780 167 13 63 2501
2.1955884 -0.81144595 0.40195996 244 5931780 138 14 118 2375
2.1390898 -0.70260662 0.36551425 285 5931780 148 15 65 2281
1.9568955 -0.8920278 0.33139586 175 5931780 83 16 57 2176
2.1356318 -0.88065004 0.33329913 247 5931780 135 17 85 2334
2.0986221 -0.77689993 0.30129105 254 5931780 130 18 79 2258
2.0877109 -0.68714386 0.27481306 262 5931780 129 19 77 2215
2.0813737 -0.94881356 0.26729548 92 5931780 49 20 88 2303
2.0221653 -0.83423257 0.23431547 238 5931780 115 21 100 2200
1.9905434 -0.7379564 0.20699576 213 5931780 97 22 64 2133
1.9157157 -0.63168281 0.17786348 244 5931780 100 23 129 2025
1.9879977 -0.9067083 0.17495708 234 5931780 113 24 80 2192
1.9556372 -0.80738598 0.1491721 214 5931780 96 25 94 2121
1.8961142 -0.70302391 0.12322551 225 5931780 92 26 151 2026
1.8690228 -0.6175164 0.1013334 206 5931780 80 27 106 1971
1.8266375 -0.83419192 0.087289445 213 5931780 86 28 72 2010
1.8112988 -0.74853599 0.06641978 173 5931780 66 29 45 1961
1.8149948 -0.67489362 0.047764488 203 5931780 76 30 38 1937
1.7675891 -0.5847218 0.027817281 241 5931780 84 31 67 1862
1.8337317 -0.83754772 0.014074221 201 5931780 82 32 75 2016
1.7834128 -0.73777717 -0.0048842989 178 5931780 66 33 77 1930
1.715993 -0.63831913 -0.021858055 167 5931780 56 34 99 1831
1.7461241 -0.57887238 -0.039465152 208 5931780 70 35 93 1840
1.724387 -0.78862387 -0.056309961 13 5931780 5 36 133 1897
1.4455193 -0.59923595 -0.061207768 9 5931780 2 37 64 1566
1.7465783 -0.65052927 -0.090730794 195 5931780 68 38 105 1866
1.7483268 -0.57956874 -0.10713791 219 5931780 75 39 66 1845
0 -0 -0 0 5931780 0 40 111 0
0 -0 -0 9 5931780 0 41 117 0
1.7029148 -0.63480794 -0.1551661 103 5931780 34 42 155 1824
1.6543261 -0.54940122 -0.16542257 111 5931780 34 43 75 1751
1.8326731 -0.84066218 -0.20814934 250 5931780 103 44 115 2027
1.8536273 -0.77027428 -0.22614822 225 5931780 92 45 73 2020
1.8821415 -0.70274222 -0.24550648 229 5931780 94 46 142 2024
1.8768778 -0.62381983 -0.26115921 234 5931780 93 47 147 1995
1.0221366 -0.46989933 -0.15788467 23 5931780 3 48 94 1136
1.6781952 -0.69823235 -0.27272063 241 5931780 82 49 71 1838
1.9487772 -0.72878516 -0.33254912 272 5931780 121 50 68 2107
1.9785663 -0.65823174 -0.35388055 228 5931780 102 51 77 2115
1.1185477 -0.51542825 -0.21951276 65 5931780 10 52 83 1251
1.1476092 -0.47815752 -0.23363158 65 5931780 10 53 91 1265
0 -0 -0 0 5931780 0 54 70 0
0 -0 -0 7 5931780 0 55 67 0
1.153542 -0.53233492 -0.27560925 66 5931780 11 56 129 1300
1.1511437 -0.48033771 -0.28281632 90 5931780 15 57 61 1279
1.3695912 -0.512977 -0.34653059 18 5931780 4 58 60 1503
1.277512 -0.42510322 -0.33319631 12 5931780 2 59 76 1387
1.0548079 -0.48826823 -0.29828587 77 5931780 11 60 39 1200
1.1900239 -0.49773216 -0.34399277 38 5931780 7 61 69 1335
4.8420749 -1.8146472 -1.4336401 212 5931780 612 62 67 5366
5.3768878 -1.7867049 -1.6344346 178 5931780 621 63 61 5897
2.6727586 -1.2409296 0.91979653 14 6030170 14 0 87 3087
2.2704608 -0.95081955 0.73881733 127 6030170 84 1 99 2570
2.4083145 -0.90382898 0.74484885 131 6030170 94 2 52 2678
5.2334609 -1.7422469 1.5407778 216 6030170 710 3 80 5727
2.7457182 -1.273115 0.81757969 18 6030170 18 4 88 3135
2.4788916 -1.0393775 0.69751054 167 6030170 129 5 73 2777
2.2327108 -0.83890396 0.59414452 150 6030170 91 6 116 2458
5.2775888 -1.762874 1.3301032 103 6030170 338 7 84 5721
2.4905937 -1.1542398 0.63258529 21 6030170 17 8 85 2817
2.0962229 -0.8779816 0.49992713 124 6030170 67 9 61 2327
2.3457406 -0.88282162 0.52616435 170 6030170 112 10 77 2561
2.2890735 -0.76684076 0.48326215 264 6030170 160 11 48 2462
2.2090728 -1.0233504 0.46711054 217 6030170 133 12 116 2479
2.138694 -0.89673561 0.42107257 157 6030170 87 13 74 2357
2.2237725 -0.83740634 0.40805283 117 6030170 68 14 106 2411
2.190891 -0.73454505 0.37512884 271 6030170 149 15 69 2341
1.9083399 -0.88407665 0.32408565 142 6030170 64 16 51 2128
2.1411405 -0.89833254 0.33501276 265 6030170 146 17 94 2346
2.0938156 -0.7897622 0.30129105 239 6030170 122 18 90 2258
2.038306 -0.68477285 0.26885772 231 6030170 109 19 109 2167
1.9241072 -0.89142197 0.24779668 85 6030170 39 20 89 2135
2.0170085 -0.84662467 0.23431547 78 6030170 38 21 129 2200
2.0083234 -0.75859684 0.20932481 237 6030170 110 22 94 2157
1.923133 -0.64723849 0.17891748 254 6030170 105 23 135 2037
1.9389865 -0.89876765 0.1711259 230 6030170 106 24 83 2144
1.9506463 -0.81937033 0.1491721 225 6030170 101 25 88 2121
1.9029698 -0.71887785 0.12395538 203 6030170 84 26 140 2038
1.8879104 -0.63663161 0.1025673 217 6030170 86 27 121 1995
1.8214846 -0.84538424 0.087289445 70 6030170 28 28 60 2010
1.8508943 -0.77822965 0.068045557 198 6030170 80 29 45 2009
1.8556929 -0.70301747 0.048948124 167 6030170 66 30 52 1985
1.7753361 -0.59939468 0.027996555 227 6030170 80 31 85 1874
1.7741368 -0.82352215 0.013655346 180 6030170 69 32 70 1956
1.7788523 -0.7487061 -0.0048842989 171 6030170 64 33 62 1930
1.7232645 -0.65308857 -0.022001307 189 6030170 64 34 112 1843
1.7198106 -0.5818854 -0.038950391 203 6030170 67 35 76 1816
0 -0 -0 10 6030170 0 36 128 0
0 -0 -0 4 6030170 0 37 64 0
1.7089355 -0.6484769 -0.088980362 154 6030170 52 38 106 1830
1.7447377 -0.59028536 -0.10713791 232 6030170 79 39 96 1845
0 -0 -0 4 6030170 0 40 85 0
0 -0 -0 5 6030170 0 41 120 0
1.5872121 -0.60279459 -0.14495781 103 6030170 30 42 155 1704
1.6622381 -0.56337631 -0.16655627 79 6030170 25 43 63 1763
1.8274804 -0.85189146 -0.20814934 269 6030170 111 44 95 2027
1.8488661 -0.78163344 -0.22614822 174 6030170 71 45 69 2020
1.8777941 -0.71427763 -0.24550648 245 6030170 100 46 129 2024
1.839216 -0.62385988 -0.25644657 221 6030170 85 47 126 1959
1.1591994 -0.54155064 -0.17956603 47 6030170 8 48 77 1292
1.3788103 -0.58362019 -0.22464584 95 6030170 22 49 61 1514
1.9442688 -0.74072891 -0.33254912 267 6030170 119 50 64 2107
1.9632876 -0.66655618 -0.35187274 228 6030170 101 51 70 2103
1.0939662 -0.51226205 -0.2153015 73 6030170 11 52 106 1227
1.0795034 -0.45757455 -0.22033398 101 6030170 14 53 94 1193
0 -0 -0 6 6030170 0 54 72 0
1.4962486 -0.50796258 -0.32895359 9 6030170 2 55 45 1614
1.1077831 -0.51948655 -0.26543292 67 6030170 11 56 103 1252
1.2559003 -0.53312063 -0.30935106 74 6030170 15 57 64 1399
1.1918656 -0.45476875 -0.30226323 59 6030170 10 58 69 1311
0 -0 -0 7 6030170 0 59 96 0
1.0412742 -0.48978391 -0.29530302 70 6030170 10 60 37 1188
1.0909247 -0.46416876 -0.31616417 87 6030170 13 61 54 1227
4.7336202 -1.8072033 -1.4047858 204 6030170 565 62 72 5258
5.3003087 -1.7974459 -1.6144788 184 6030170 626 63 64 5825
2.6650939 -1.257306 0.91979653 19 6126160 19 0 58 3087
2.4126189 -1.0277972 0.78711355 127 6126160 95 1 102 2738
2.4780886 -0.94740218 0.76821226 110 6126160 84 2 58 2762
5.146069 -1.7483013 1.5181786 278 6126160 887 3 65 5643
2.6959355 -1.2701881 0.8050617 17 6126160 17 4 73 3087
2.4938354 -1.0636821 0.70353866 67 6126160 52 5 53 2801
2.2057714 -0.84426308 0.58834326 154 6126160 91 6 112 2434
2.4054914 -0.81994736 0.60750914 37 6126160 25 7 78 2613
2.2930388 -1.0798259 0.58408034 10 6126160 7 8 100 2601
2.155488 -0.91839045 0.51539546 131 6126160 76 9 61 2399
2.3731768 -0.90981013 0.53356063 165 6126160 112 10 79 2597
2.2954593 -0.78467786 0.48561761 280 6126160 171 11 47 2474
2.2667289 -1.0670011 0.48067731 92 6126160 60 12 117 2551
2.0462689 -0.8727839 0.40392241 137 6126160 70 13 53 2261
2.1744232 -0.83409238 0.39992902 79 6126160 44 14 100 2363
2.1527209 -0.73647189 0.36936009 292 6126160 155 15 80 2305
1.9028794 -0.89576936 0.32408565 137 6126160 62 16 45 2128
2.1355879 -0.91145343 0.33501276 256 6126160 141 17 91 2346
2.0778289 -0.79832935 0.29968983 238 6126160 120 18 85 2246
2.0453298 -0.70112801 0.27034655 234 6126160 111 19 86 2179
1.8754666 -0.88290495 0.24222563 74 6126160 32 20 76 2087
2.0995622 -0.8964678 0.24454014 62 6126160 33 21 109 2296
1.9813375 -0.76232785 0.20699576 218 6126160 99 22 65 2133
1.9530423 -0.67067343 0.18207951 221 6126160 95 23 155 2073
1.9334353 -0.91064811 0.1711259 271 6126160 125 24 84 2144
1.9345746 -0.82662052 0.14832813 213 6126160 95 25 73 2109
1.8985231 -0.73054075 0.12395538 210 6126160 87 26 162 2038
1.8839686 -0.64820361 0.1025673 222 6126160 88 27 106 1995
1.9138534 -0.90256804 0.091979623 119 6126160 54 28 61 2118
1.8571113 -0.7942881 0.068452008 184 6126160 75 29 52 2021
1.8065763 -0.6971156 0.047764488 186 6126160 70 30 38 1937
1.7602805 -0.60636878 0.027817281 198 6126160 69 31 74 1862
1.7799033 -0.83951151 0.01373912 186 6126160 72 32 79 1968
1.7631935 -0.75488394 -0.0048539303 195 6126160 72 33 54 1918
1.741613 -0.67229229 -0.022287816 185 6126160 65 34 101 1867
1.738889 -0.60025644 -0.039465152 213 6126160 72 35 78 1840
0 -0 -0 10 6126160 0 36 138 0
0 -0 -0 6 6126160 0 37 63 0
1.9061612 -0.73672825 -0.099482961 16 6126160 7 38 85 2046
1.7184348 -0.59316218 -0.10574425 225 6126160 75 39 78 1821
0 -0 -0 0 6126160 0 40 99 0
0 -0 -0 0 6126160 0 41 95 0
1.6169374 -0.62546277 -0.1480203 83 6126160 25 42 169 1740
1.715202 -0.59308511 -0.17222466 60 6126160 20 43 59 1823
1.8222189 -0.86308861 -0.20814934 263 6126160 108 44 112 2027
1.822126 -0.7835418 -0.22346132 91 6126160 36 45 83 1996
1.840055 -0.7128768 -0.24113975 238 6126160 94 46 123 1988
1.8915664 -0.65458614 -0.26430097 231 6126160 94 47 154 2019
0.98408675 -0.46711957 -0.15288128 62 6126160 8 48 82 1100
1.2335047 -0.53106356 -0.20149872 41 6126160 7 49 56 1358
1.9396873 -0.75264478 -0.33254912 254 6126160 113 50 69 2107
1.9479814 -0.67471802 -0.3498649 261 6126160 114 51 77 2091
1.1014705 -0.52404034 -0.21740712 57 6126160 9 52 93 1239
1.0875053 -0.46885875 -0.22255023 100 6126160 15 53 75 1205
1.2738262 -0.49473539 -0.27028227 16 6126160 3 54 69 1393
0 -0 -0 7 6126160 0 55 68 0
1.0198789 -0.48592067 -0.24508022 66 6126160 9 56 126 1156
1.1451625 -0.49442783 -0.28281632 83 6126160 14 57 63 1279
1.2978905 -0.50436836 -0.32993034 44 6126160 9 58 56 1431
1.1731381 -0.40642896 -0.30725166 12 6126160 2 59 78 1279
1.0277619 -0.49115205 -0.29232013 80 6126160 11 60 34 1176
1.0561328 -0.45703903 -0.30688795 78 6126160 11 61 33 1191
4.7116647 -1.8320235 -1.4015796 231 6126160 637 62 68 5246
5.1911149 -1.7960058 -1.5845451 197 6126160 642 63 57 5717
0 -0 0 4 6223790 0 0 92 0
2.4800897 -1.0745671 0.81126159 47 6223790 38 1 90 2822
2.4722288 -0.96258962 0.76821226 117 6223790 90 2 58 2762
5.0697231 -1.7571348 1.4988079 261 6223790 811 3 73 5571
2.5104523 -1.201676 0.75186038 17 6223790 14 4 80 2883
2.5511973 -1.1066988 0.72162324 45 6223790 37 5 53 2873
2.1788516 -0.84932357 0.582542 105 6223790 61 6 118 2410
5.0350842 -1.7508403 1.2743045 200 6223790 602 7 70 5481
2.3180153 -1.1090155 0.59216446 10 6223790 7 8 80 2637
2.3648832 -1.0247977 0.56695646 114 6223790 80 9 58 2639
2.3675497 -0.92435455 0.53356063 246 6223790 166 10 62 2597
2.3128221 -0.80649632 0.49032852 277 6223790 173 11 46 2498
2.3558252 -1.1266502 0.50102741 48 6223790 34 12 130 2659
2.0733702 -0.89941943 0.41035372 166 6223790 88 13 76 2297
2.1141837 -0.82590151 0.38977426 64 6223790 34 14 125 2303
2.1593451 -0.75356972 0.37128302 275 6223790 148 15 66 2317
1.9615432 -0.9381308 0.33505094 109 6223790 53 16 43 2200
2.1626399 -0.93872732 0.34015363 250 6223790 142 17 106 2382
2.0839665 -0.81539708 0.30129105 213 6223790 109 18 85 2258
2.108429 -0.7372461 0.27927953 232 6223790 118 19 103 2251
1.8915186 -0.90468132 0.24501115 124 6223790 55 20 73 2111
2.1049666 -0.91408628 0.24581824 186 6223790 99 21 109 2308
1.9766227 -0.77447081 0.20699576 225 6223790 102 22 98 2133
1.9488903 -0.68264443 0.18207951 212 6223790 91 23 138 2073
1.9493915 -0.9328208 0.17304151 273 6223790 129 24 73 2168
1.9294662 -0.83847529 0.14832813 193 6223790 86 25 116 2109
1.916309 -0.75091612 0.1254151 199 6223790 85 26 132 2062
1.8573397 -0.65181434 0.1013334 238 6223790 92 27 116 1971
1.8542205 -0.88839358 0.089373969 277 6223790 117 28 44 2058
1.8522027 -0.80566818 0.068452008 209 6223790 85 29 43 2021
1.8469261 -0.72573674 0.048948124 172 6223790 68 30 66 1985
1.7904875 -0.62909043 0.028355101 250 6223790 90 31 94 1898
1.8071831 -0.86597347 0.013990447 162 6223790 65 32 80 2004
1.7695305 -0.77047902 -0.0048842989 187 6223790 70 33 62 1930
1.7374551 -0.68296593 -0.022287816 179 6223790 62 34 96 1867
1.7238568 -0.60693055 -0.039207771 205 6223790 69 35 90 1828
0 -0 -0 9 6223790 0 36 147 0
0 -0 -0 6 6223790 0 37 65 0
0 -0 -0 5 6223790 0 38 89 0
1.7373626 -0.61165154 -0.10713791 224 6223790 76 39 84 1845
0 -0 -0 0 6223790 0 40 88 0
1.2262719 -0.53566855 -0.10139219 12 6223790 2 41 116 1342
1.6130693 -0.63537234 -0.1480203 52 6223790 16 42 155 1740
1.6777319 -0.59167856 -0.16882361 52 6223790 17 43 84 1787
1.8599131 -0.89495581 -0.21307838 255 6223790 110 44 94 2075
1.8391351 -0.804263 -0.22614822 58 6223790 24 45 47 2020
1.8467265 -0.72852492 -0.24259531 243 6223790 97 46 121 2000
1.8762959 -0.66222078 -0.26273012 239 6223790 96 47 138 2007
1.0026101 -0.48347229 -0.15621687 55 6223790 7 48 90 1124
1.1323849 -0.49578628 -0.18547377 29 6223790 5 49 72 1250
1.9460533 -0.76888657 -0.33444312 254 6223790 114 50 48 2119
1.9438047 -0.68665791 -0.3498649 239 6223790 105 51 69 2091
1.0875976 -0.52564812 -0.2153015 56 6223790 8 52 90 1227
1.2034198 -0.52761316 -0.24692917 66 6223790 12 53 72 1337
1.2160317 -0.48089641 -0.25864053 82 6223790 15 54 84 1333
0 -0 -0 4 6223790 0 55 56 0
0.99576646 -0.48195136 -0.23999207 64 6223790 8 56 118 1132
1.1528227 -0.50614983 -0.28546977 68 6223790 11 57 60 1291
1.2404832 -0.49084154 -0.31609675 54 6223790 10 58 60 1371
1.2694707 -0.44854602 -0.33319631 11 6223790 2 59 75 1387
1.1188368 -0.54313314 -0.31916589 61 6223790 10 60 25 1284
1.2124987 -0.53356272 -0.35326898 72 6223790 13 61 35 1371
4.625072 -1.8311021 -1.3791373 251 6223790 670 62 67 5162
5.0930142 -1.7971312 -1.5579374 192 6223790 605 63 57 5621
0 -0 0 7 6320910 0 0 95 0
2.5470746 -1.1222025 0.83540976 48 6320910 41 1 100 2906
2.4234154 -0.96074897 0.75486177 141 6320910 104 2 53 2714
2.4436109 -0.86377138 0.72397995 55 6320910 40 3 75 2691
2.534287 -1.2322546 0.76124883 14 6320910 12 4 99 2919
2.6506319 -1.1692095 0.75176406 42 6320910 37 5 54 2993
2.2277138 -0.88415414 0.59704512 117 6320910 71 6 99 2470
4.9912462 -1.7699995 1.2659346 288 6320910 854 7 104 5445
0 -0 0 5 6320910 0 8 95 0
