# .PCD v0.7 - Point Cloud Data file format
VERSION 0.7
FIELDS x y z intensity t reflectivity ring noise range
SIZE 4 4 4 4 4 2 1 2 4
TYPE F F F F U U U U U
COUNT 1 1 1 1 1 1 1 1 1
WIDTH 789
HEIGHT 1
VIEWPOINT 0 0 0 1 0 0 0
POINTS 789
DATA ascii
1.5086761 -1.4463166 -0.55734563 391 11833710 183 61 39 2163
1.634831 -1.4534141 -0.60647845 226 11833710 116 62 45 2270
1.5433953 -1.271149 -0.57677776 182 11833710 79 63 50 2081
1.1637805 -1.2050722 0.52291644 172 11932120 53 0 17 1755
1.3448815 -1.2904444 0.55943131 42 11932120 16 1 81 1946
1.4738919 -1.3115582 0.57129186 39 11932120 16 2 44 2054
1.5003264 -1.2370651 0.54318672 53 11932120 21 3 50 2019
1.2339469 -1.2764345 0.47959459 57 11932120 19 4 71 1839
1.3187772 -1.2665023 0.47446787 159 11932120 57 5 6 1889
1.4855292 -1.3229363 0.49552333 67 11932120 28 6 89 2050
1.6982563 -1.4031545 0.5266009 55 11932120 28 7 55 2265
1.2498455 -1.2923839 0.41431302 304 11932120 103 8 19 1845
1.2930794 -1.240869 0.394227 256 11932120 86 9 23 1835
1.4588283 -1.3005738 0.41028902 61 11932120 24 10 54 1997
1.5605825 -1.2916973 0.40553188 55 11932120 23 11 28 2066
1.1683323 -1.2077168 0.3223986 392 11932120 115 12 37 1711
1.3916323 -1.3364695 0.35032809 124 11932120 48 13 44 1961
1.3673677 -1.2195063 0.31462887 280 11932120 97 14 109 1859
1.5607768 -1.2925009 0.32897887 83 11932120 35 15 59 2053
1.2314043 -1.2729594 0.27291423 294 11932120 94 16 1 1792
1.2889597 -1.2384292 0.25789985 425 11932120 139 17 6 1806
1.4475008 -1.2923808 0.26126122 132 11932120 51 18 79 1958
1.5544492 -1.2888625 0.2524806 115 11932120 48 19 65 2035
1.3086239 -1.3528321 0.21994133 276 11932120 99 20 36 1895
1.3276806 -1.2760332 0.19725104 281 11932120 96 21 50 1852
1.4849668 -1.3270898 0.1941859 121 11932120 49 22 69 2001
1.4601551 -1.2120128 0.16732341 589 11932120 214 23 108 1905
1.3691896 -1.4159877 0.15771678 315 11932120 123 24 19 1976
1.3956273 -1.3420396 0.13651252 281 11932120 106 25 58 1941
1.400637 -1.2518138 0.11446714 362 11932120 128 26 133 1882
1.5599365 -1.2964014 0.10441814 39 11932120 16 27 90 2031
1.4451591 -1.4960161 0.09041623 359 11932120 156 28 38 2082
1.4813576 -1.4254737 0.06967134 303 11932120 128 29 14 2057
1.4693985 -1.3157623 0.048652213 335 11932120 130 30 47 1973
1.6620597 -1.382302 0.03229912 174 11932120 82 31 70 2162
1.4505785 -1.5017836 0.014576872 378 11932120 165 32 76 2088
1.5112131 -1.4552702 -0.0053094607 119 11932120 52 33 50 2098
1.5425748 -1.381627 -0.02472312 293 11932120 126 34 96 2071
1.6256301 -1.3537812 -0.045384929 536 11932120 240 35 98 2116
1.441606 -1.4939547 -0.061653029 84 11932120 36 36 113 2077
1.5837994 -1.5274086 -0.086066097 251 11932120 122 37 75 2202
1.6198618 -1.4520735 -0.10590123 73 11932120 35 38 104 2178
1.6639428 -1.3856378 -0.12595238 43 11932120 20 39 68 2169
1.5085185 -1.5657561 -0.144297 39 11932120 19 40 97 2179
1.6515316 -1.5941763 -0.17392313 37 11932120 20 41 81 2302
1.530939 -1.3731326 -0.17558269 13 11932120 6 42 119 2064
1.5499707 -1.2921491 -0.19149719 12 11932120 5 43 50 2027
1.472944 -1.5299003 -0.21923967 173 11932120 79 44 113 2135
1.538012 -1.4857922 -0.24092625 210 11932120 97 45 73 2152
1.6189862 -1.4536346 -0.26588449 383 11932120 184 46 97 2192
1.637627 -1.365903 -0.28158069 62 11932120 29 47 117 2151
1.4465958 -1.5050547 -0.29297614 235 11932120 105 48 94 2108
1.5285423 -1.4779339 -0.31901491 370 11932120 171 49 75 2150
1.5914688 -1.4304333 -0.34201896 397 11932120 187 50 69 2167
1.6917589 -1.4118543 -0.37395889 117 11932120 59 51 64 2235
1.4170104 -1.4769028 -0.36480176 431 11932120 186 52 89 2079
1.4950138 -1.4469805 -0.39098659 411 11932120 184 53 95 2117
1.5587124 -1.4018769 -0.41463977 17 11932120 8 54 52 2137
1.6100514 -1.3436178 -0.43656668 24 11932120 11 55 58 2142
1.3983661 -1.4591008 -0.43843073 439 11932120 188 56 110 2068
1.4673661 -1.4217098 -0.46325266 52 11932120 23 57 51 2095
1.5733213 -1.4155625 -0.50146645 261 11932120 124 58 72 2175
1.6954124 -1.415104 -0.5465188 287 11932120 149 59 83 2275
1.4217758 -1.4870043 -0.52796596 451 11932120 203 60 24 2124
1.4914527 -1.4474713 -0.55425352 331 11932120 153 61 62 2151
1.6000973 -1.4402095 -0.59686029 240 11932120 120 62 61 2234
1.5798404 -1.3175176 -0.59340757 184 11932120 84 63 50 2141
1.1326441 -1.1873248 0.51218992 144 12029230 42 0 24 1719
1.4193804 -1.3787546 0.59392858 55 12029230 24 1 86 2066
1.5171986 -1.3668681 0.59131765 41 12029230 18 2 37 2126
1.5281956 -1.2758762 0.55610055 40 12029230 17 3 45 2067
1.2980971 -1.359387 0.50776005 86 12029230 33 4 71 1947
1.2943251 -1.2583768 0.46843973 159 12029230 55 5 20 1865
1.4600875 -1.3164319 0.48972204 84 12029230 35 6 95 2026
1.5463891 -1.2937245 0.48196191 46 12029230 20 7 52 2073
1.1772733 -1.2323848 0.39275527 501 12029230 153 8 1 1749
1.2854412 -1.2487799 0.394227 241 12029230 81 9 16 1835
1.4246666 -1.2858942 0.40289274 62 12029230 24 10 59 1961
1.579682 -1.3239228 0.41259828 65 12029230 29 11 37 2102
1.1690419 -1.2233832 0.32465973 333 12029230 99 12 37 1723
1.3664747 -1.3285224 0.34604055 132 12029230 49 13 28 1937
1.3598592 -1.2278732 0.31462887 287 12029230 99 14 70 1859
1.6526569 -1.3857702 0.35013095 57 12029230 27 15 59 2185
1.231764 -1.289066 0.2747418 259 12029230 84 16 12 1804
1.2557951 -1.2214712 0.25275898 421 12029230 132 17 10 1770
1.4483663 -1.3092132 0.26286244 159 12029230 62 18 66 1970
1.4644363 -1.2294697 0.23908114 140 12029230 52 19 74 1927
1.3167666 -1.3780711 0.22272688 243 12029230 89 20 45 1919
1.319826 -1.2841556 0.19725104 279 12029230 96 21 44 1852
1.4148014 -1.280085 0.18603414 276 12029230 102 22 78 1917
1.5258975 -1.2824775 0.17575547 157 12029230 63 23 112 2001
1.3935236 -1.4589623 0.16154797 338 12029230 138 24 41 2024
1.4130981 -1.3756272 0.13904443 244 12029230 96 25 59 1977
1.4106928 -1.2764573 0.11592687 346 12029230 126 26 101 1906
1.6436484 -1.3831093 0.1105876 62 12029230 29 27 91 2151
1.4111234 -1.4788347 0.088852838 368 12029230 154 28 34 2046
1.4897643 -1.4512737 0.070484228 301 12029230 130 29 32 2081
1.4612975 -1.3247535 0.048652213 275 12029230 107 30 38 1973
1.708614 -1.4388472 0.033374764 317 12029230 158 31 75 2234
1.4413364 -1.5106559 0.014576872 416 12029230 182 32 69 2088
1.4163302 -1.380749 -0.0050057736 506 12029230 198 33 38 1978
1.5607349 -1.4152468 -0.025152879 51 12029230 23 34 74 2107
1.6172929 -1.3637304 -0.045384929 511 12029230 229 35 74 2116
1.4572396 -1.5288192 -0.06272164 311 12029230 139 36 136 2113
1.5229186 -1.4868385 -0.083251946 206 12029230 94 37 70 2130
1.557668 -1.4136553 -0.10240036 216 12029230 96 38 111 2106
1.6554093 -1.3958215 -0.12595238 31 12029230 15 39 72 2169
1.424592 -1.4969202 -0.13714506 30 12029230 13 40 99 2071
1.5475804 -1.5122882 -0.16395013 39 12029230 18 41 91 2170
1.540188 -1.398576 -0.17762434 18 12029230 8 42 130 2088
1.770234 -1.4942797 -0.21983916 18 12029230 10 43 36 2327
1.4223994 -1.4956614 -0.21307838 243 12029230 105 44 93 2075
1.5032905 -1.4701886 -0.23689587 228 12029230 102 45 66 2116
1.5747801 -1.4314927 -0.26006219 417 12029230 192 46 109 2144
1.6201262 -1.3682497 -0.28000981 144 12029230 66 47 99 2139
1.4046052 -1.4794306 -0.28630495 326 12029230 139 48 61 2060
1.5194451 -1.487285 -0.31901491 368 12029230 170 49 51 2150
1.5563693 -1.4162461 -0.33633706 406 12029230 184 50 95 2131
1.5836616 -1.3382119 -0.35187274 65 12029230 29 51 72 2103
1.3997952 -1.4769951 -0.36269614 590 12029230 252 52 86 2067
1.4861072 -1.4561265 -0.39098659 403 12029230 181 53 101 2117
1.576194 -1.4351914 -0.42162481 30 12029230 14 54 65 2173
1.6017768 -1.3534716 -0.43656668 25 12029230 11 55 50 2142
1.3893869 -1.4676536 -0.43843073 466 12029230 199 56 113 2068
1.5254539 -1.4962456 -0.4844805 123 12029230 59 57 62 2191
1.5818706 -1.4409157 -0.50699985 206 12029230 99 58 45 2199
1.6778005 -1.4179612 -0.54363608 332 12029230 170 59 75 2263
1.3966632 -1.4787997 -0.52200031 461 12029230 203 60 36 2100
1.490814 -1.4647216 -0.55734563 263 12029230 123 61 57 2163
1.5826828 -1.4422116 -0.59365422 233 12029230 115 62 55 2222
1.5629174 -1.319748 -0.59008163 197 12029230 89 63 56 2129
1.1960393 -1.2692838 0.5443694 83 12127020 28 0 50 1827
1.2551901 -1.2343227 0.52838373 73 12127020 25 1 75 1838
1.5087831 -1.3761518 0.59131765 42 12127020 19 2 39 2126
1.6615597 -1.4046116 0.60775572 39 12127020 20 3 47 2259
1.2738335 -1.3504719 0.50150102 73 12127020 27 4 59 1923
1.2534664 -1.2337039 0.45638335 241 12127020 79 5 11 1817
1.5981841 -1.4588184 0.53903264 60 12127020 30 6 54 2230
1.5918548 -1.3484514 0.49870154 50 12127020 23 7 47 2145
1.1295629 -1.1970608 0.3792817 465 12127020 133 8 1 1689
1.3195341 -1.2977328 0.40711728 228 12127020 82 9 21 1895
1.373402 -1.2550008 0.39056557 120 12127020 43 10 39 1901
1.5894722 -1.3488172 0.41730922 78 12127020 35 11 36 2126
1.1615133 -1.2305332 0.32465973 278 12127020 82 12 43 1723
1.3330529 -1.3120356 0.33960924 265 12127020 96 13 2 1901
1.3959457 -1.2760928 0.32478365 127 12127020 47 14 89 1919
1.5357687 -1.3038905 0.32705593 91 12127020 38 15 62 2041
1.231972 -1.3052244 0.27656934 298 12127020 98 16 1 1816
1.2652024 -1.24582 0.25618622 373 12127020 120 17 27 1794
1.4403058 -1.3180755 0.26286244 123 12127020 48 18 77 1970
1.4387202 -1.223008 0.23610349 337 12127020 122 19 59 1903
1.3164672 -1.3947924 0.22411963 253 12127020 94 20 40 1931
1.345924 -1.3257216 0.20236337 271 12127020 98 21 52 1900
1.3628852 -1.2484058 0.18021148 386 12127020 133 22 91 1857
1.4724823 -1.253081 0.17048544 139 12127020 52 23 141 1941
1.4173803 -1.5022873 0.16537914 353 12127020 151 24 47 2072
1.3961049 -1.3758696 0.13820046 267 12127020 103 25 67 1965
1.4204983 -1.3012706 0.11738659 260 12127020 97 26 128 1930
1.6077646 -1.3698519 0.10873675 117 12127020 52 27 85 2115
1.4266919 -1.5136378 0.09041623 395 12127020 171 28 58 2082
1.4808315 -1.4603875 0.070484228 379 12127020 164 29 26 2081
1.5061704 -1.382365 0.05042766 250 12127020 104 30 50 2045
1.6632321 -1.4181639 0.032657668 404 12127020 193 31 75 2186
1.42381 -1.5107388 0.014493098 420 12127020 181 32 59 2076
1.3565859 -1.3388383 -0.0048235618 596 12127020 217 33 1 1906
1.525504 -1.4004527 -0.02472312 58 12127020 25 34 82 2071
1.5997705 -1.3658383 -0.045127545 558 12127020 247 35 74 2104
1.4313866 -1.5202658 -0.062009227 433 12127020 189 36 111 2089
1.5052385 -1.4877259 -0.082782917 68 12127020 31 37 80 2118
1.6019207 -1.4718424 -0.10590123 164 12127020 78 38 92 2178
1.6377026 -1.398174 -0.12525554 31 12127020 15 39 70 2157
1.4727883 -1.5667019 -0.14270768 60 12127020 28 40 103 2155
1.4872326 -1.4712641 -0.15851031 42 12127020 19 41 86 2098
1.7076209 -1.5698391 -0.19804093 19 12127020 10 42 124 2328
1.5794042 -1.3498806 -0.19716558 19 12127020 8 43 56 2087
1.4458863 -1.5391606 -0.21800743 254 12127020 115 44 91 2123
1.4603454 -1.4458261 -0.23152205 226 12127020 97 45 62 2068
1.5834966 -1.4572606 -0.26297334 399 12127020 188 46 112 2168
1.6388258 -1.4013598 -0.28472248 114 12127020 54 47 121 2175
1.3873719 -1.4793531 -0.28463715 301 12127020 126 48 85 2048
1.485002 -1.4715211 -0.31367326 382 12127020 171 49 67 2114
1.5650804 -1.4418267 -0.34012502 410 12127020 191 50 73 2155
1.5844101 -1.3555951 -0.35388055 73 12127020 33 51 68 2115
1.4068537 -1.5028051 -0.36690742 504 12127020 221 52 81 2091
1.4603986 -1.4486068 -0.38655406 394 12127020 173 53 84 2093
1.4981146 -1.381005 -0.40299803 55 12127020 24 54 75 2077
1.6737834 -1.4320109 -0.45857841 22 12127020 11 55 57 2250
1.3803554 -1.4761511 -0.43843073 457 12127020 195 56 115 2068
1.4913312 -1.4808396 -0.47652009 400 12127020 186 57 60 2155
1.5901673 -1.4664266 -0.51253325 141 12127020 69 58 56 2223
1.6779191 -1.4358028 -0.5465188 300 12127020 155 59 89 2275
1.3875631 -1.4873415 -0.52200031 446 12127020 197 60 51 2100
1.4242529 -1.4166048 -0.5357011 113 12127020 49 61 49 2079
1.5908024 -1.4675776 -0.6000663 292 12127020 147 62 75 2246
1.589844 -1.3592833 -0.60338545 235 12127020 111 63 51 2177
1.1648153 -1.251444 0.53364289 53 12226640 17 0 62 1791
1.1905756 -1.1852394 0.50423563 131 12226640 40 1 64 1754
1.3902222 -1.283728 0.54792839 52 12226640 20 2 38 1970
1.5914472 -1.3621722 0.58515662 38 12226640 18 3 36 2175
1.2260373 -1.315883 0.48585355 100 12226640 35 4 72 1863
1.2870135 -1.2823638 0.47145382 127 12226640 45 5 26 1877
1.4352713 -1.3263476 0.48682144 81 12226640 33 6 109 2014
1.645564 -1.4113814 0.51823109 49 12226640 25 7 66 2229
1.1062505 -1.1868613 0.37389225 395 12226640 109 8 5 1665
1.2866306 -1.2809981 0.39938313 237 12226640 82 9 28 1859
1.3311924 -1.2315034 0.38070384 271 12226640 93 10 47 1853
1.4383702 -1.2358539 0.37962186 88 12226640 33 11 27 1934
1.2101982 -1.2979745 0.3404876 291 12226640 95 12 50 1807
1.2413385 -1.2368537 0.3181715 405 12226640 129 13 1 1781
1.4401698 -1.3328329 0.33696938 104 12226640 41 14 73 1991
1.4648633 -1.2592391 0.31359553 126 12226640 48 15 62 1957
1.2562909 -1.3474575 0.28387955 280 12226640 97 16 1 1864
1.2827692 -1.2787149 0.26132709 270 12226640 90 17 43 1830
1.4409151 -1.3349708 0.2644636 125 12226640 49 18 77 1982
1.3950896 -1.2007424 0.23014818 503 12226640 173 19 75 1855
1.3160118 -1.4115616 0.2255124 259 12226640 98 20 47 1943
1.3293152 -1.3255302 0.20108528 296 12226640 106 21 60 1888
1.3376848 -1.2405025 0.17788242 382 12226640 128 22 91 1833
1.5462674 -1.3323169 0.17997149 112 12226640 47 23 120 2049
1.3918253 -1.4934545 0.16346355 429 12226640 180 24 46 2048
1.4045846 -1.4013188 0.13988841 300 12226640 119 25 65 1989
1.4037049 -1.3018173 0.11665674 273 12226640 100 26 119 1918
1.5630324 -1.3483791 0.10626898 111 12226640 47 27 113 2067
1.4092083 -1.513589 0.089895107 585 12226640 251 28 30 2070
1.4973048 -1.4948666 0.071703561 362 12226640 162 29 32 2117
1.4888717 -1.3834149 0.050131753 261 12226640 108 30 56 2033
1.6272521 -1.4048201 0.032119848 457 12226640 211 31 90 2150
1.4226898 -1.5282295 0.014576872 415 12226640 181 32 68 2088
1.4841703 -1.4828401 -0.0053094607 189 12226640 83 33 74 2098
1.5080929 -1.4016179 -0.024579866 86 12226640 37 34 102 2059
1.5732075 -1.359937 -0.044612784 539 12226640 233 35 83 2080
1.4138629 -1.5202368 -0.061653029 417 12226640 180 36 121 2077
1.4536998 -1.4545277 -0.080437794 53 12226640 22 37 41 2058
1.6279638 -1.514297 -0.10823513 228 12226640 113 38 110 2226
1.6381558 -1.4160308 -0.12595238 42 12226640 20 39 65 2169
1.4061153 -1.5142894 -0.13714506 56 12226640 24 40 101 2071
1.5711796 -1.5735019 -0.1684833 30 12226640 15 41 97 2230
1.4791477 -1.3766421 -0.17252021 22 12226640 9 42 125 2028
1.6614276 -1.4377184 -0.20850235 17 12226640 8 43 55 2207
1.3958192 -1.504254 -0.21184613 265 12226640 113 44 79 2063
1.4261795 -1.4294348 -0.22749169 126 12226640 52 45 63 2032
1.5832402 -1.4750688 -0.26442891 399 12226640 190 46 117 2180
1.6571789 -1.43475 -0.28943512 143 12226640 70 47 116 2211
1.3863444 -1.4965558 -0.28630495 254 12226640 108 48 96 2060
1.475945 -1.4806052 -0.31367326 502 12226640 225 49 65 2114
1.5562041 -1.4514028 -0.34012502 409 12226640 190 50 71 2155
1.5581782 -1.3497988 -0.3498649 28 12226640 12 51 69 2091
1.3575027 -1.4680401 -0.35637924 447 12226640 185 52 82 2031
1.4681264 -1.4742537 -0.39098659 414 12226640 186 53 72 2117
1.575676 -1.4704893 -0.42628148 117 12226640 57 54 64 2197
1.5761671 -1.3653339 -0.43412092 19 12226640 9 55 60 2130
1.3633147 -1.4759783 -0.43588662 450 12226640 190 56 101 2056
1.4492022 -1.4567752 -0.46590617 426 12226640 189 57 75 2107
1.5640693 -1.4602193 -0.50699985 247 12226640 119 58 54 2199
1.6690776 -1.4460714 -0.5465188 165 12226640 86 59 69 2275
1.3547809 -1.4701847 -0.51305169 469 12226640 200 60 33 2064
1.3665112 -1.3759557 -0.51714873 49 12226640 20 61 48 2007
1.5648655 -1.461525 -0.59365422 269 12226640 133 62 69 2222
1.6512125 -1.4293827 -0.62999314 218 12226640 113 63 61 2273
1.1571146 -1.2585676 0.53364289 50 12325650 16 0 54 1791
1.1913761 -1.200681 0.50768536 129 12325650 40 1 67 1766
1.3233776 -1.2371336 0.52456492 70 12325650 25 2 44 1886
1.574325 -1.3643423 0.58192813 52 12325650 24 3 53 2163
1.1944051 -1.2978085 0.47646511 283 12325650 94 4 12 1827
1.2709433 -1.2819879 0.46843973 83 12325650 29 5 38 1865
1.3930935 -1.3033088 0.47521892 88 12325650 34 6 79 1966
1.5751873 -1.3678843 0.49870154 87 12325650 40 7 72 2145
1.1068676 -1.2022294 0.37658697 364 12325650 102 8 13 1677
1.2952552 -1.3055081 0.40453923 232 12325650 82 9 21 1883
1.2807527 -1.1995085 0.36837667 395 12325650 127 10 46 1793
1.5550452 -1.3527752 0.41259828 47 12325650 21 11 38 2102
1.1702764 -1.2707006 0.3314431 282 12325650 87 12 81 1759
1.2171007 -1.2276775 0.31388396 427 12325650 132 13 1 1757
1.4837484 -1.3901622 0.34915513 116 12325650 49 14 85 2063
1.4392396 -1.2526507 0.30974969 125 12325650 47 15 54 1933
1.2479994 -1.3551407 0.28387955 289 12325650 100 16 15 1864
1.266539 -1.2781253 0.25961345 276 12325650 91 17 66 1818
1.3633027 -1.2786994 0.25165406 284 12325650 101 18 62 1886
1.4864428 -1.295331 0.24652529 122 12325650 48 19 87 1987
1.3073258 -1.41961 0.2255124 271 12325650 102 20 56 1943
1.3295541 -1.3421384 0.20236337 274 12325650 99 21 64 1900
1.3387554 -1.2568617 0.17904694 361 12325650 123 22 73 1845
1.5470711 -1.3496377 0.18102549 100 12325650 42 23 129 2061
1.3907369 -1.5107671 0.16442135 345 12325650 146 24 20 2060
1.412804 -1.4269233 0.14157633 289 12325650 117 25 57 2013
1.4306192 -1.3432001 0.11957619 274 12325650 106 26 108 1966
1.4283653 -1.2475743 0.09763173 309 12325650 111 27 95 1899
1.3998946 -1.5222073 0.089895107 476 12325650 204 28 42 2070
1.5049746 -1.5210766 0.072516441 355 12325650 163 29 30 2141
1.532783 -1.4418415 0.0519072 249 12325650 110 30 53 2105
1.5643973 -1.3673996 0.031044204 542 12325650 234 31 64 2078
1.413286 -1.5369302 0.014576872 434 12325650 189 32 62 2088
1.5425386 -1.5601858 -0.0055524101 161 12325650 78 33 85 2194
1.5256813 -1.4355125 -0.025009625 42 12325650 19 34 93 2095
1.5738612 -1.3774656 -0.044870161 432 12325650 189 35 80 2092
1.4288522 -1.5553832 -0.06272164 415 12325650 185 36 127 2113
1.3857783 -1.4036887 -0.077154614 96 12325650 37 37 50 1974
1.5226574 -1.4338703 -0.10181687 523 12325650 229 38 196 2094
1.656481 -1.4497246 -0.12804288 50 12325650 25 39 69 2205
1.3644234 -1.4875923 -0.13396642 88 12325650 36 40 83 2023
1.5698979 -1.5916319 -0.16938995 41 12325650 21 41 70 2242
1.5315882 -1.4430876 -0.179666 16 12325650 7 42 141 2112
1.5717057 -1.3770331 -0.19829926 16 12325650 7 43 55 2099
1.410759 -1.5391889 -0.21554291 293 12325650 129 44 86 2099
1.4592336 -1.480624 -0.23420896 199 12325650 87 45 60 2092
1.5481642 -1.4602368 -0.26006219 397 12325650 183 46 123 2144
1.6215055 -1.4213651 -0.28472248 313 12325650 148 47 132 2175
1.3931799 -1.5225683 -0.28964055 257 12325650 112 48 81 2084
1.4751588 -1.4980894 -0.31545383 405 12325650 183 49 65 2126
1.5300372 -1.4446539 -0.33633706 411 12325650 186 50 56 2131
1.5409721 -1.3515331 -0.34785703 39 12325650 17 51 47 2079
1.3564366 -1.4850647 -0.35848483 453 12325650 189 52 92 2043
1.4342414 -1.4580114 -0.38433778 402 12325650 174 53 115 2081
1.5409529 -1.4558764 -0.41929644 385 12325650 180 54 81 2161
1.6737494 -1.4679357 -0.46346995 33 12325650 17 55 63 2274
1.3463286 -1.4756525 -0.43334258 449 12325650 188 56 115 2044
1.4238312 -1.4489454 -0.46059921 435 12325650 189 57 59 2083
1.5126495 -1.4296854 -0.4931663 104 12325650 47 58 54 2139
1.6426594 -1.4409224 -0.54075336 132 12325650 67 59 64 2251
1.3457345 -1.4784698 -0.51305169 452 12325650 192 60 44 2064
1.3905221 -1.4174221 -0.52951694 53 12325650 22 61 33 2055
1.5306606 -1.4472651 -0.58403605 237 12325650 113 62 60 2186
1.6770945 -1.4698858 -0.64329708 217 12325650 117 63 48 2321
1.2186792 -1.341964 0.56582236 55 12422310 20 0 51 1899
1.1839864 -1.2079685 0.50768536 264 12422310 82 1 28 1766
1.4245946 -1.3482294 0.56795418 51 12422310 21 2 46 2042
1.6267365 -1.4273349 0.60452729 43 12422310 22 3 37 2247
1.0695307 -1.1765302 0.42952272 628 12422310 170 4 1 1647
1.2630532 -1.2897621 0.46843973 87 12422310 30 5 24 1865
1.2836206 -1.2157469 0.44041145 109 12422310 36 6 77 1822
1.4440528 -1.2696338 0.45964238 78 12422310 31 7 72 1977
1.1388071 -1.2522541 0.39006057 261 12422310 79 8 18 1737
1.2626107 -1.2883203 0.39680508 251 12422310 86 9 16 1847
1.2818907 -1.2154249 0.3708421 250 12422310 81 10 49 1805
1.440756 -1.268966 0.38433278 102 12422310 39 11 25 1958
1.1624575 -1.2778573 0.3314431 301 12422310 93 12 36 1759
1.2095449 -1.2351223 0.31388396 403 12422310 124 13 1 1757
1.3893821 -1.3178495 0.32884556 112 12422310 42 14 91 1943
1.4048657 -1.2379649 0.30398095 251 12422310 90 15 53 1897
1.2476416 -1.3715459 0.28570709 289 12422310 102 16 1 1876
1.2919049 -1.3198229 0.26646793 257 12422310 89 17 41 1866
1.3209345 -1.2542843 0.2452493 417 12422310 141 18 90 1838
1.4516803 -1.280794 0.2420588 151 12422310 58 19 78 1951
1.3547316 -1.4893234 0.2352618 262 12422310 108 20 62 2027
1.3296388 -1.3587991 0.20364144 281 12422310 103 21 34 1912
1.3483323 -1.2815084 0.18137603 272 12422310 95 22 91 1869
1.5387608 -1.359105 0.18102549 98 12422310 42 23 130 2061
1.389488 -1.5281221 0.16537914 366 12422310 157 24 51 2072
1.4207616 -1.4526808 0.14326429 314 12422310 130 25 65 2037
1.4483956 -1.376709 0.12176578 273 12422310 109 26 130 2002
1.4386384 -1.2721928 0.098865621 353 12422310 131 27 83 1923
1.374406 -1.51302 0.088852838 470 12422310 197 28 57 2046
1.5123786 -1.5474365 0.073329337 346 12422310 162 29 43 2165
1.5239072 -1.4512193 0.0519072 306 12422310 135 30 50 2105
1.5380068 -1.3610694 0.030685658 484 12422310 204 31 83 2054
1.4118969 -1.5544558 0.014660648 392 12422310 173 32 76 2100
1.4742461 -1.5095265 -0.0053398297 348 12422310 155 33 72 2110
1.4647142 -1.3951911 -0.024150105 31 12422310 13 34 92 2023
1.5653796 -1.3870968 -0.044870161 134 12422310 59 35 80 2092
1.3951008 -1.5374726 -0.061653029 424 12422310 183 36 123 2077
1.3687677 -1.4035807 -0.076685593 191 12422310 74 37 64 1962
1.5572069 -1.4845382 -0.10473426 322 12422310 149 38 141 2154
1.6654869 -1.4757509 -0.12943654 31 12422310 16 39 66 2229
1.4115442 -1.5580513 -0.13952903 217 12422310 96 40 74 2107
1.4766001 -1.5155308 -0.16032359 47 12422310 21 41 77 2122
1.5573118 -1.4854685 -0.18374932 28 12422310 13 42 127 2160
1.6168486 -1.4342159 -0.20510131 21 12422310 10 43 50 2171
1.3772545 -1.5212696 -0.21184613 246 12422310 105 44 76 2063
1.4418032 -1.4810057 -0.23286551 239 12422310 104 45 71 2080
1.5219457 -1.4532567 -0.25715104 436 12422310 196 46 95 2120
1.6394475 -1.4549781 -0.28943512 223 12422310 109 47 137 2211
1.3519385 -1.495823 -0.28296936 330 12422310 137 48 77 2036
1.4411159 -1.4815924 -0.31011218 336 12422310 147 49 68 2090
1.5040126 -1.4376392 -0.33254912 373 12422310 166 50 68 2107
1.6918867 -1.5023617 -0.38399804 105 12422310 55 51 52 2295
1.3393854 -1.4845883 -0.35637924 449 12422310 185 52 95 2031
1.4252683 -1.4667844 -0.38433778 432 12422310 187 53 76 2081
1.5064694 -1.4408935 -0.4123114 402 12422310 182 54 83 2125
1.550509 -1.3767726 -0.43167514 30 12422310 14 55 59 2118
1.329398 -1.4751738 -0.43079847 442 12422310 183 56 91 2032
1.4230649 -1.4660519 -0.46325266 424 12422310 186 57 76 2095
1.427918 -1.3662865 -0.46826589 113 12422310 46 58 50 2031
1.6250775 -1.4432393 -0.53787059 105 12422310 53 59 63 2239
1.3288662 -1.4780556 -0.51006883 477 12422310 201 60 21 2052
1.3414543 -1.3842946 -0.51405662 63 12422310 25 61 38 1995
1.5384588 -1.472622 -0.59044814 258 12422310 126 62 66 2210
1.6162993 -1.4342327 -0.62334126 199 12422310 101 63 64 2249
1.1798269 -1.315308 0.55152035 61 12521320 21 0 48 1851
1.1605628 -1.1986959 0.50078589 159 12521320 48 1 61 1742
1.2997735 -1.2453061 0.5212273 79 12521320 28 2 42 1874
1.6179479 -1.4372896 0.60452729 56 12521320 28 3 32 2247
1.0622915 -1.1830707 0.42952272 467 12521320 127 4 1 1647
1.2470397 -1.2891393 0.46542561 73 12521320 25 5 42 1853
1.3013512 -1.2477766 0.44911331 162 12521320 56 6 65 1858
1.5408473 -1.3715911 0.49312162 102 12521320 46 7 70 2121
1.131102 -1.2592182 0.39006057 270 12521320 81 8 31 1737
1.2220752 -1.2623616 0.38649288 466 12521320 151 9 3 1799
1.3082989 -1.2557976 0.38070384 215 12521320 74 10 46 1853
1.4065964 -1.254289 0.37726638 110 12521320 40 11 42 1922
1.1861017 -1.3200303 0.3404876 299 12521320 98 12 42 1807
1.1937345 -1.2340345 0.31174019 310 12521320 94 13 29 1745
1.3556775 -1.3017751 0.32275268 190 12521320 69 14 84 1907
1.3442113 -1.1992488 0.29244345 435 12521320 145 15 57 1825
1.2312758 -1.3703535 0.28387955 275 12521320 96 16 1 1864
1.2672708 -1.3106483 0.26304072 249 12521320 85 17 62 1842
1.2789185 -1.2293987 0.23884453 392 12521320 126 18 83 1790
1.4526745 -1.2976096 0.24354763 130 12521320 50 19 58 1963
1.329636 -1.4798757 0.23247623 277 12521320 111 20 59 2003
1.346154 -1.3926693 0.20747571 270 12521320 103 21 67 1948
1.3748692 -1.3228813 0.18603414 271 12521320 100 22 67 1917
1.4323761 -1.280872 0.16943143 273 12521320 102 23 124 1929
1.3880783 -1.5455184 0.16633694 331 12521320 144 24 52 2084
1.4284554 -1.4785891 0.14495224 345 12521320 147 25 70 2061
1.4571828 -1.4021804 0.12322551 280 12521320 115 26 117 2026
1.3861624 -1.2410275 0.095780887 353 12521320 122 27 123 1863
1.3891156 -1.5481946 0.09041623 485 12521320 210 28 45 2082
1.4695356 -1.5221739 0.071703561 285 12521320 128 29 48 2117
1.5408833 -1.485521 0.052794926 345 12521320 158 30 46 2141
1.4760076 -1.3224406 0.029610017 299 12521320 118 31 70 1982
1.3943191 -1.5541577 0.014576872 397 12521320 173 32 87 2088
1.4649562 -1.5185438 -0.0053398297 433 12521320 193 33 74 2110
1.4734008 -1.4208105 -0.024436614 54 12521320 23 34 89 2047
1.5836298 -1.4207102 -0.045642305 27 12521320 12 35 75 2128
1.3776351 -1.5370717 -0.061296821 403 12521320 172 36 100 2065
1.443318 -1.4983108 -0.081375837 86 12521320 37 37 69 2082
1.4963226 -1.4441242 -0.10123339 374 12521320 162 38 149 2082
1.6831527 -1.5099415 -0.13152702 71 12521320 37 39 74 2265
1.3859886 -1.5488377 -0.13793972 283 12521320 123 40 83 2083
1.5502479 -1.6107771 -0.16938995 33 12521320 17 41 106 2242
1.4793603 -1.4285518 -0.17558269 21 12521320 9 42 131 2064
1.6702353 -1.499985 -0.21303707 29 12521320 15 43 61 2255
1.288327 -1.4407128 -0.19952351 79 12521320 30 44 103 1943
1.4409542 -1.4984195 -0.23420896 248 12521320 109 45 66 2092
1.5386925 -1.4874039 -0.26151776 271 12521320 126 46 111 2156
1.5685437 -1.4093516 -0.27843893 235 12521320 106 47 134 2127
1.334821 -1.4952254 -0.28130159 293 12521320 120 48 56 2024
1.4484419 -1.5075217 -0.31367326 377 12521320 169 49 65 2114
1.5121939 -1.463321 -0.33633706 393 12521320 179 50 61 2131
1.6122518 -1.4494376 -0.36793539 384 12521320 186 51 68 2199
1.3066719 -1.4663187 -0.35006231 432 12521320 172 52 60 1995
1.4080746 -1.4669936 -0.3821215 438 12521320 188 53 85 2069
1.4975998 -1.45011 -0.4123114 409 12521320 185 54 79 2125
1.5507689 -1.3941146 -0.43412092 80 12521320 36 55 52 2130
1.3515103 -1.5183418 -0.44097483 493 12521320 213 56 108 2080
1.4059432 -1.466309 -0.46059921 413 12521320 179 57 78 2083
1.4195077 -1.3750223 -0.46826589 36 12521320 15 58 57 2031
1.5902052 -1.4298183 -0.52922237 140 12521320 68 59 69 2203
1.3352081 -1.5035639 -0.5160346 459 12521320 198 60 31 2076
1.4692353 -1.5348905 -0.56662184 54 12521320 26 61 34 2199
1.5127852 -1.4659396 -0.58403605 270 12521320 129 62 60 2186
1.6074686 -1.4441231 -0.62334126 181 12521320 91 63 51 2249
1.1565415 -1.3053747 0.5443694 80 12616760 27 0 45 1827
1.208793 -1.2639383 0.52493399 88 12616760 29 1 66 1826
1.3003818 -1.261283 0.52456492 100 12616760 35 2 50 1886
1.4973853 -1.3467175 0.5625574 53 12616760 23 3 51 2091
1.0550123 -1.1895665 0.42952272 439 12616760 119 4 1 1647
1.2631795 -1.3219602 0.47446787 73 12616760 26 5 29 1889
1.2853153 -1.2476277 0.44621268 319 12616760 109 6 90 1846
1.5063926 -1.3575795 0.48475182 59 12616760 25 7 53 2085
1.1311148 -1.2748818 0.39275527 271 12616760 83 8 30 1749
1.173807 -1.2274849 0.3736026 486 12616760 147 9 2 1739
1.2837241 -1.2474328 0.37577298 211 12616760 70 10 51 1829
1.3988738 -1.2628961 0.37726638 103 12616760 38 11 26 1922
1.1936253 -1.3449119 0.34500986 283 12616760 95 12 54 1831
1.2106107 -1.2669451 0.3181715 300 12616760 95 13 27 1781
1.3137432 -1.2770939 0.31462887 227 12616760 78 14 93 1859
1.4159385 -1.2789302 0.30974969 129 12616760 48 15 55 1933
1.2543339 -1.4133645 0.29118973 310 12616760 113 16 5 1912
1.2674081 -1.3269883 0.26475433 266 12616760 92 17 63 1854
1.2372589 -1.2040459 0.23243977 528 12616760 160 18 86 1742
1.4711796 -1.3304589 0.24801412 98 12616760 39 19 83 1999
1.3205305 -1.4880064 0.23247623 263 12616760 106 20 62 2003
1.3375833 -1.4009029 0.20747571 261 12616760 99 21 66 1948
1.3752818 -1.3396262 0.1871987 281 12616760 105 22 87 1929
1.3535976 -1.2254558 0.16099939 390 12616760 131 23 127 1833
1.3944451 -1.5719028 0.16825251 340 12616760 151 24 58 2108
1.4358841 -1.5046456 0.14664018 382 12616760 166 25 58 2085
1.4571316 -1.419453 0.12395538 311 12616760 129 26 120 2038
1.4317976 -1.2977996 0.099482566 274 12616760 103 27 92 1935
1.3636869 -1.5387444 0.089373969 491 12616760 208 28 35 2058
1.4518912 -1.5224829 0.071297109 455 12616760 201 29 39 2105
1.5317392 -1.4949477 0.052794926 404 12616760 185 30 50 2141
1.4767526 -1.3395337 0.029789289 271 12616760 108 31 83 1994
1.3608816 -1.535741 0.014325546 480 12616760 202 32 53 2052
1.4473325 -1.5188168 -0.0053094607 439 12616760 193 33 66 2098
1.5591029 -1.5220261 -0.0260124 86 12616760 41 34 77 2179
1.4949543 -1.3578049 -0.043325871 85 12616760 35 35 63 2020
1.3761287 -1.554477 -0.061653029 435 12616760 188 36 102 2077
1.5167544 -1.5940055 -0.086066097 138 12616760 67 37 69 2202
1.5474452 -1.511912 -0.10531774 240 12616760 113 38 123 2166
1.6383836 -1.4880235 -0.1287397 67 12616760 33 39 72 2217
1.376459 -1.5573127 -0.13793972 221 12616760 96 40 75 2083
1.4908686 -1.5682256 -0.16395013 42 12616760 20 41 82 2170
1.4192683 -1.3874532 -0.16945772 29 12616760 12 42 112 1992
1.5991268 -1.4539491 -0.20510131 25 12616760 12 43 55 2171
1.2873646 -1.4575372 -0.20075577 73 12616760 28 44 83 1955
1.4563708 -1.53317 -0.23823932 249 12616760 113 45 62 2128
1.5125107 -1.480155 -0.25860664 217 12616760 99 46 113 2132
1.6214693 -1.474987 -0.28943512 194 12616760 95 47 127 2211
1.3413402 -1.5212142 -0.28463715 265 12616760 111 48 66 2048
1.4228259 -1.4991655 -0.31011218 365 12616760 160 49 68 2090
1.4862573 -1.4559876 -0.33254912 383 12616760 170 50 56 2107
1.5770795 -1.4354125 -0.36191189 407 12616760 191 51 70 2163
1.3132609 -1.4920447 -0.35427359 419 12616760 171 52 73 2019
1.4071612 -1.4841641 -0.38433778 409 12616760 177 53 90 2081
1.4970807 -1.4675124 -0.41463977 411 12616760 188 54 88 2137
1.4726785 -1.3403428 -0.41455492 65 12616760 27 55 60 2034
1.3344251 -1.5177985 -0.43843073 509 12616760 218 56 112 2068
1.4049671 -1.4834048 -0.46325266 427 12616760 188 57 70 2095
1.4777403 -1.4491105 -0.49039957 57 12616760 26 58 41 2127
1.5900162 -1.4473901 -0.53210515 313 12616760 154 59 72 2215
1.3029639 -1.4855133 -0.50708604 455 12616760 189 60 30 2040
1.411993 -1.4933268 -0.54806936 349 12616760 158 61 28 2127
1.4707423 -1.4428021 -0.57121181 348 12616760 159 62 50 2138
1.6071069 -1.4617172 -0.62666726 243 12616760 124 63 44 2261
1.0579871 -1.2090025 0.50146341 333 12715150 94 0 7 1683
1.2168005 -1.2880412 0.53183347 77 12715150 26 1 75 1850
1.2432712 -1.2207839 0.50453913 90 12715150 29 2 40 1814
1.4890938 -1.3558799 0.5625574 65 12715150 28 3 36 2091
1.0476935 -1.1960175 0.42952272 372 12715150 101 4 1 1647
1.2470716 -1.3212392 0.47145382 108 12715150 38 5 23 1877
1.2776358 -1.2554909 0.44621268 196 12715150 67 6 59 1846
1.5756304 -1.4375951 0.50986129 79 12715150 38 7 68 2193
1.1232711 -1.2817982 0.39275527 274 12715150 84 8 24 1749
1.1340623 -1.2005849 0.3632904 357 12715150 102 9 27 1691
1.3346504 -1.3129374 0.393031 271 12715150 99 10 50 1913
1.3650424 -1.2476406 0.37019998 179 12715150 64 11 36 1886
1.162045 -1.3256242 0.33822647 271 12715150 87 12 65 1795
1.2109184 -1.2829357 0.32031527 287 12715150 92 13 13 1793
1.2468753 -1.2270614 0.30041218 362 12715150 114 14 124 1775
1.4168057 -1.2955875 0.3116726 132 12715150 50 15 48 1945
1.245638 -1.4210345 0.29118973 286 12715150 105 16 12 1912
1.2592421 -1.33474 0.26475433 268 12715150 92 17 60 1854
1.2976234 -1.2783859 0.2452493 324 12715150 110 18 70 1838
1.4629884 -1.3394608 0.24801412 98 12715150 39 19 76 1999
1.3349448 -1.5229701 0.23665455 258 12715150 107 20 44 2039
1.3289624 -1.4090837 0.20747571 295 12715150 112 21 45 1948
1.3840443 -1.3648113 0.18952775 297 12715150 113 22 82 1953
1.3460529 -1.2337382 0.16099939 357 12715150 120 23 107 1833
1.3611249 -1.553439 0.16537914 509 12715150 219 24 3 2072
1.4348357 -1.5221381 0.14748415 422 12715150 186 25 69 2097
1.4483945 -1.4283671 0.12395538 326 12715150 135 26 127 2038
1.4591268 -1.3389714 0.10195035 272 12715150 107 27 103 1983
1.3542197 -1.5470829 0.089373969 465 12715150 197 28 13 2058
1.442522 -1.5313628 0.071297109 442 12715150 196 29 36 2105
1.5225376 -1.5043181 0.052794926 363 12715150 166 30 47 2141
1.5126934 -1.3891485 0.030685658 282 12715150 119 31 72 2054
1.3751422 -1.5711511 0.014576872 392 12715150 171 32 51 2088
1.4215363 -1.5101932 -0.0052487236 400 12715150 172 33 53 2074
1.4814581 -1.4640878 -0.024866374 102 12715150 44 34 78 2083
1.5660763 -1.4400368 -0.045642305 90 12715150 41 35 72 2128
1.3665646 -1.5628914 -0.061653029 431 12715150 186 36 130 2077
1.4740962 -1.568333 -0.084189989 156 12715150 73 37 69 2154
1.5381392 -1.5213785 -0.10531774 229 12715150 107 38 100 2166
1.5939485 -1.4656146 -0.12595238 82 12715150 39 39 63 2169
1.4062499 -1.6108295 -0.14191301 192 12715150 88 40 77 2143
1.3911164 -1.4813949 -0.15397713 60 12715150 25 41 86 2038
1.4872135 -1.4718297 -0.17864518 23 12715150 10 42 159 2100
1.50228 -1.3828273 -0.19376454 14 12715150 6 43 66 2051
1.2705501 -1.4564141 -0.19952351 57 12715150 22 44 111 1943
1.4142985 -1.5072936 -0.23286551 260 12715150 113 45 60 2080
1.4864762 -1.4726413 -0.25569546 199 12715150 89 46 98 2108
1.6036372 -1.4768492 -0.28786421 144 12715150 70 47 120 2199
1.3007625 -1.4935701 -0.27796596 336 12715150 134 48 50 2000
1.3973676 -1.4905523 -0.30655104 216 12715150 92 49 63 2066
1.4941229 -1.4817678 -0.33633706 404 12715150 183 50 47 2131
1.5421412 -1.4210113 -0.3558884 425 12715150 192 51 57 2127
1.3040812 -1.5000746 -0.35427359 290 12715150 118 52 76 2019
1.3819048 -1.4755545 -0.37990525 511 12715150 216 53 99 2057
1.4629803 -1.4517946 -0.40765473 404 12715150 178 54 88 2101
1.4644266 -1.3493537 -0.41455492 51 12715150 21 55 49 2034
1.3020197 -1.4993938 -0.43079847 395 12715150 163 56 94 2032
1.3718529 -1.4663594 -0.45529222 408 12715150 173 57 74 2059
1.5599748 -1.5486422 -0.52083337 72 12715150 37 58 47 2259
1.5639738 -1.4413309 -0.52633971 379 12715150 182 59 83 2191
1.2862135 -1.484695 -0.50410312 443 12715150 182 60 26 2028
1.3869752 -1.4850152 -0.54188526 438 12715150 194 61 44 2103
1.4864769 -1.4762449 -0.58082998 284 12715150 134 62 55 2174
1.5726625 -1.4481205 -0.61668932 192 12715150 95 63 47 2225
1.0280772 -1.1894721 0.49073693 397 12812580 108 0 1 1647
1.2167156 -1.3038863 0.53528321 72 12812580 25 1 60 1862
1.2602817 -1.2527677 0.51455206 130 12812580 44 2 49 1850
1.3787723 -1.2709891 0.52381605 78 12812580 29 3 48 1947
1.0630747 -1.228706 0.4389112 305 12812580 86 4 30 1683
1.1914165 -1.2778921 0.45336926 227 12812580 74 5 2 1805
1.2616532 -1.2550945 0.44331208 199 12812580 67 6 58 1834
1.4381795 -1.3284477 0.46801218 109 12812580 44 7 86 2013
1.1153849 -1.2886664 0.39275527 276 12812580 85 8 60 1749
1.1186789 -1.1989518 0.36071238 344 12812580 97 9 20 1679
1.3182478 -1.3128148 0.39056557 184 12812580 66 10 42 1901
1.3141792 -1.2160356 0.3584227 407 12812580 136 11 6 1826
1.1847453 -1.3683678 0.34727097 296 12812580 100 12 55 1843
1.1949722 -1.2817059 0.3181715 262 12812580 83 13 1 1781
1.2309443 -1.2263418 0.29838124 380 12812580 118 14 106 1763
1.4088295 -1.3042564 0.3116726 147 12812580 55 15 54 1945
1.2524211 -1.4465836 0.29484484 283 12812580 106 16 1 1936
1.2834176 -1.3771971 0.2716088 274 12812580 99 17 46 1902
1.289755 -1.2863239 0.2452493 288 12812580 97 18 76 1838
1.3761467 -1.2755616 0.23461466 212 12812580 76 19 71 1891
1.325575 -1.5311325 0.23665455 271 12812580 113 20 52 2039
1.344691 -1.4434024 0.21130995 277 12812580 109 21 72 1984
1.3671914 -1.36484 0.18836322 302 12812580 114 22 95 1941
1.3559823 -1.2582358 0.1631074 373 12812580 129 23 113 1857
1.3359123 -1.5436717 0.16346355 450 12812580 189 24 31 2048
1.4173118 -1.5221528 0.14664018 434 12812580 189 25 58 2085
1.4565561 -1.4541526 0.1254151 318 12812580 135 26 113 2062
1.4421036 -1.3397424 0.1013334 285 12812580 111 27 104 1971
1.3290199 -1.5372249 0.088331714 492 12812580 204 28 18 2034
1.424929 -1.5314051 0.070890673 399 12812580 175 29 43 2093
1.504797 -1.5051483 0.052499022 376 12812580 170 30 56 2129
1.5129287 -1.4065738 0.03086493 356 12812580 152 31 76 2066
1.3654759 -1.5795592 0.014576872 410 12812580 179 32 77 2088
1.4285853 -1.5364635 -0.0053094607 412 12812580 182 33 77 2098
1.4130681 -1.4137434 -0.023863601 281 12812580 112 34 94 1999
1.4869608 -1.3842226 -0.043583255 81 12812580 34 35 77 2032
1.3569492 -1.5712471 -0.061653029 529 12812580 228 36 114 2077
1.4154944 -1.5246236 -0.081375837 394 12812580 171 37 65 2082
1.4525481 -1.4544604 -0.10006644 144 12812580 61 38 93 2058
1.6024628 -1.4916921 -0.12734604 212 12812580 102 39 68 2193
1.3650635 -1.5831548 -0.13873437 355 12812580 156 40 61 2095
1.4633743 -1.57763 -0.16304348 85 12812580 40 41 78 2158
1.5034944 -1.5063146 -0.18170767 45 12812580 20 42 144 2136
1.5636848 -1.4571745 -0.20283397 32 12812580 15 43 53 2147
1.3395059 -1.5546108 -0.21184613 34 12812580 15 44 90 2063
1.4293411 -1.5421807 -0.23689587 292 12812580 131 45 65 2116
1.469002 -1.4732996 -0.25423992 252 12812580 111 46 112 2096
1.5771424 -1.4704356 -0.28472248 165 12812580 78 47 142 2175
1.314822 -1.5285507 -0.28296936 326 12812580 135 48 67 2036
1.3881954 -1.4990983 -0.30655104 247 12812580 105 49 35 2066
1.4850028 -1.4909075 -0.33633706 408 12812580 185 50 58 2131
1.5593461 -1.4546577 -0.36191189 405 12812580 190 51 69 2163
1.2871565 -1.4990851 -0.35216796 324 12812580 131 52 64 2007
1.3808335 -1.492663 -0.3821215 523 12812580 224 53 103 2069
1.4706544 -1.4774302 -0.4123114 407 12812580 184 54 91 2125
1.4733009 -1.3743411 -0.41944641 54 12812580 23 55 45 2058
1.2927951 -1.5073546 -0.43079847 441 12812580 182 56 109 2032
1.378715 -1.4919393 -0.46059921 410 12812580 178 57 55 2083
1.4845545 -1.4919672 -0.49869969 332 12812580 155 58 57 2163
1.5380659 -1.435007 -0.52057415 349 12812580 164 59 76 2167
1.2846361 -1.5013908 -0.50708604 454 12812580 189 60 42 2040
1.3621128 -1.4764532 -0.5357011 421 12812580 182 61 31 2079
1.4529263 -1.4607418 -0.57121181 194 12812580 88 62 56 2138
1.5806147 -1.4734668 -0.62334126 152 12812580 77 63 55 2249
1.0058849 -1.1783333 0.48358592 383 12910620 101 0 1 1623
1.2086922 -1.3113273 0.53528321 67 12910620 23 1 75 1862
1.2119471 -1.2195966 0.49786386 214 12910620 68 2 32 1790
1.430095 -1.3346237 0.54641521 94 12910620 39 3 43 2031
1.0780933 -1.2616273 0.44829968 314 12910620 93 4 14 1719
1.1048682 -1.1997372 0.42322835 519 12910620 147 5 1 1685
1.294951 -1.3041255 0.45781517 132 12910620 47 6 74 1894
1.3362306 -1.2495589 0.43732285 132 12910620 47 7 45 1881
1.1150552 -1.3043743 0.39545 266 12910620 82 8 20 1761
1.1271864 -1.2230291 0.36586845 290 12910620 84 9 19 1703
1.2936269 -1.3042027 0.38563472 242 12910620 85 10 47 1877
1.3839782 -1.2964752 0.37962186 197 12910620 74 11 25 1934
1.1839862 -1.3845683 0.34953213 305 12910620 105 12 43 1855
1.1950836 -1.297699 0.32031527 251 12910620 81 13 11 1793
1.2150692 -1.2254732 0.29635027 361 12910620 111 14 101 1751
1.4008002 -1.3128763 0.3116726 248 12910620 94 15 52 1945
1.2512293 -1.463255 0.2966724 284 12910620 108 16 7 1948
1.2588556 -1.3675693 0.26818156 253 12910620 89 17 39 1878
1.3069447 -1.3195626 0.25005287 266 12910620 93 18 83 1874
1.3248792 -1.2432418 0.22717051 360 12910620 121 19 56 1831
1.3239011 -1.5482961 0.23804732 290 12910620 122 20 49 2051
1.3277297 -1.4428461 0.21003188 282 12910620 109 21 52 1972
1.3923934 -1.407162 0.19302136 290 12910620 115 22 84 1989
1.3743734 -1.2910854 0.16626942 310 12910620 111 23 137 1893
1.3341874 -1.5609325 0.16442135 411 12910620 174 24 37 2060
1.4079453 -1.5308206 0.14664018 378 12910620 164 25 78 2085
1.4560307 -1.4715769 0.12614498 354 12910620 152 26 139 2074
1.4687748 -1.3814076 0.10380119 297 12910620 121 27 89 2019
1.3351326 -1.5635848 0.089373969 460 12910620 195 28 20 2058
1.4236212 -1.5489495 0.071297109 384 12910620 170 29 48 2105
1.5208218 -1.53996 0.053386744 322 12910620 151 30 47 2165
1.4955325 -1.407607 0.030685658 363 12910620 153 31 66 2054
1.3479666 -1.5787821 0.014493098 411 12910620 177 32 80 2076
1.4028969 -1.527524 -0.0052487236 409 12910620 176 33 71 2074
1.5223927 -1.5419275 -0.025869144 190 12910620 89 34 97 2167
1.5046322 -1.4180052 -0.0443554 72 12910620 31 35 77 2068
1.3394986 -1.5704176 -0.061296821 491 12910620 209 36 113 2065
1.3899041 -1.5156057 -0.080437794 428 12910620 182 37 58 2058
1.3762567 -1.3950846 -0.09539862 162 12910620 62 38 97 1962
1.5932798 -1.5014966 -0.12734604 216 12910620 104 39 82 2193
1.3165079 -1.545921 -0.13476108 452 12910620 187 40 57 2035
1.4374999 -1.5689344 -0.16123022 68 12910620 31 41 82 2134
1.5110124 -1.5325397 -0.18374932 42 12910620 19 42 138 2160
1.6676792 -1.5733145 -0.21757179 37 12910620 19 43 54 2303
1.3376777 -1.571891 -0.21307838 70 12910620 30 44 106 2075
1.371539 -1.4981495 -0.22883515 404 12910620 169 45 79 2044
1.4933679 -1.5162309 -0.26006219 252 12910620 116 46 114 2144
1.5507871 -1.4637531 -0.28158069 343 12910620 159 47 120 2151
1.2746422 -1.5003636 -0.27629817 351 12910620 139 48 67 1988
1.378971 -1.5075879 -0.30655104 244 12910620 104 49 53 2066
1.4675162 -1.4915447 -0.33444312 539 12910620 242 50 71 2119
1.5245872 -1.4398288 -0.3558884 395 12910620 179 51 73 2127
1.2932156 -1.5249749 -0.35637924 353 12910620 146 52 75 2031
1.3636934 -1.4924014 -0.37990525 420 12910620 178 53 80 2057
1.4450543 -1.4696383 -0.40765473 405 12910620 179 54 94 2101
1.6015018 -1.5124146 -0.45857841 59 12910620 30 55 60 2250
1.2607822 -1.4884136 -0.42316622 401 12910620 160 56 93 1996
1.3616449 -1.4917272 -0.45794573 429 12910620 184 57 55 2071
1.4426314 -1.4677377 -0.48763284 411 12910620 184 58 67 2115
1.5292319 -1.4444174 -0.52057415 369 12910620 173 59 74 2167
1.2829019 -1.5181228 -0.51006883 429 12910620 181 60 30 2052
1.3608376 -1.4933535 -0.53879315 421 12910620 184 61 23 2091
1.3953094 -1.4201375 -0.55197549 63 12910620 27 62 52 2066
1.5547733 -1.4673104 -0.61668932 174 12910620 86 63 48 2225
0.99863589 -1.1844831 0.48358592 412 13007850 109 0 1 1623
1.2083609 -1.3272178 0.53873295 97 13007850 34 1 63 1874
1.2125155 -1.2352358 0.50120151 133 13007850 43 2 50 1802
1.4134778 -1.3354362 0.54318672 84 13007850 34 3 30 2019
1.0628601 -1.2593654 0.44517019 280 13007850 82 4 17 1707
1.0896699 -1.1979017 0.4202143 451 13007850 126 5 1 1673
1.2950784 -1.3203596 0.46071583 92 13007850 34 6 88 1906
1.2692097 -1.2015675 0.4177933 180 13007850 58 7 62 1797
1.1145744 -1.3201265 0.39814472 282 13007850 89 8 20 1773
1.1591088 -1.273255 0.37875873 295 13007850 92 9 6 1763
1.2034094 -1.2282298 0.36098039 419 13007850 129 10 34 1757
1.3333085 -1.2644584 0.36784452 191 13007850 67 11 23 1874
1.1906765 -1.4098142 0.35405436 279 13007850 99 12 71 1879
1.2109332 -1.3312095 0.32674661 264 13007850 88 13 25 1829
1.1992515 -1.2244563 0.29431933 318 13007850 96 14 67 1739
1.3841256 -1.3132939 0.30974969 131 13007850 49 15 60 1933
1.2498796 -1.4799658 0.29849994 321 13007850 123 16 7 1960
1.2824007 -1.4104184 0.27503607 271 13007850 101 17 73 1926
1.2988234 -1.327557 0.25005287 272 13007850 96 18 67 1874
1.3172258 -1.2513477 0.22717051 347 13007850 116 19 76 1831
1.3374465 -1.5837086 0.24222563 302 13007850 132 20 78 2087
1.3670044 -1.5039423 0.21770039 322 13007850 135 21 72 2044
1.4004296 -1.4327611 0.19535041 294 13007850 119 22 67 2013
1.4097354 -1.3406824 0.17153944 296 13007850 113 23 145 1953
1.3323005 -1.5782298 0.16537914 418 13007850 180 24 59 2072
1.4226731 -1.566011 0.1491721 358 13007850 161 25 60 2121
1.4469738 -1.4804833 0.12614498 386 13007850 166 26 118 2074
1.460271 -1.3903939 0.10380119 312 13007850 127 27 100 2019
1.3100557 -1.5534183 0.088331714 503 13007850 208 28 15 2034
1.4221516 -1.5665352 0.071703561 443 13007850 198 29 30 2117
1.519721 -1.5578496 0.053682651 332 13007850 157 30 40 2177
1.5042408 -1.433311 0.031044204 417 13007850 180 31 79 2078
1.338254 -1.5870234 0.014493098 430 13007850 186 32 61 2076
1.409623 -1.5538787 -0.0053094607 429 13007850 189 33 70 2098
1.5464145 -1.5856004 -0.026442159 151 13007850 74 34 88 2215
1.4785427 -1.4106475 -0.043840639 41 13007850 17 35 78 2044
1.3298374 -1.5786071 -0.061296821 392 13007850 167 36 107 2065
1.3886285 -1.5329924 -0.080906816 366 13007850 157 37 76 2070
1.3760357 -1.412087 -0.095982097 179 13007850 70 38 102 1974
1.5060267 -1.4368193 -0.12107455 280 13007850 122 39 73 2085
1.2761691 -1.517316 -0.13158244 415 13007850 164 40 71 1987
1.4840499 -1.6398288 -0.16757669 56 13007850 28 41 97 2218
1.4932383 -1.5332167 -0.18272848 45 13007850 21 42 132 2148
1.6061593 -1.5340112 -0.21076973 48 13007850 24 43 53 2231
1.3203276 -1.5709316 -0.21184613 251 13007850 107 44 74 2063
1.3623207 -1.506537 -0.22883515 312 13007850 131 45 72 2044
1.4508117 -1.4912156 -0.25423992 246 13007850 108 46 89 2096
1.5331752 -1.4650221 -0.28000981 382 13007850 175 47 134 2139
1.2577739 -1.4990528 -0.27463037 153 13007850 60 48 55 1976
1.3856061 -1.5336319 -0.31011218 207 13007850 90 49 56 2090
1.4335607 -1.4750286 -0.32876122 481 13007850 208 50 54 2083
1.5328264 -1.4655079 -0.35990405 392 13007850 182 51 77 2151
1.2610779 -1.5057106 -0.35006231 324 13007850 129 52 76 1995
1.3387067 -1.4832308 -0.37547269 424 13007850 175 53 80 2033
1.4524133 -1.4953661 -0.4123114 394 13007850 178 54 90 2125
1.5242581 -1.457265 -0.43901241 352 13007850 163 55 52 2154
1.281725 -1.5321004 -0.43334258 532 13007850 222 56 70 2044
1.3603028 -1.5087459 -0.46059921 417 13007850 181 57 77 2083
1.4417323 -1.4849396 -0.49039957 411 13007850 186 58 81 2127
1.5035022 -1.4376725 -0.51480871 180 13007850 83 59 72 2143
1.2586672 -1.5081184 -0.50410312 430 13007850 177 60 13 2028
1.336135 -1.4844395 -0.53260905 442 13007850 189 61 38 2067
1.3624086 -1.4037778 -0.54235739 42 13007850 17 62 55 2030
1.5123944 -1.4449631 -0.60338545 188 13007850 89 63 51 2177
0.96203023 -1.1553768 0.46928394 348 13105270 86 0 1 1575
1.1694531 -1.300423 0.52493399 105 13105270 35 1 78 1826
1.2530564 -1.2923033 0.5212273 80 13105270 28 2 28 1874
1.3300874 -1.2721866 0.51413065 133 13105270 48 3 45 1911
1.0773647 -1.2925599 0.45455864 292 13105270 89 4 23 1743
1.0590101 -1.1786451 0.411172 408 13105270 109 5 1 1637
1.2869524 -1.3282812 0.46071583 82 13105270 30 6 81 1906
1.2702394 -1.2174084 0.42058325 404 13105270 132 7 40 1809
1.1513853 -1.3808265 0.41431302 272 13105270 93 8 10 1845
1.1434381 -1.2716284 0.37618065 279 13105270 86 9 11 1751
1.1713481 -1.210274 0.35358408 457 13105270 135 10 36 1721
1.3509885 -1.2970629 0.37491092 211 13105270 77 11 27 1910
1.1744549 -1.4080435 0.35179323 300 13105270 104 12 55 1867
1.2027423 -1.3386146 0.32674661 256 13105270 86 13 23 1829
1.24928 -1.2912917 0.30853602 257 13105270 85 14 90 1823
1.3418716 -1.2889402 0.30205804 177 13105270 63 15 50 1885
1.2407752 -1.4876071 0.29849994 314 13105270 121 16 17 1960
1.3054663 -1.4536065 0.28189054 269 13105270 105 17 51 1974
