# .PCD v0.7 - Point Cloud Data file format
VERSION 0.7
FIELDS x y z intensity t reflectivity ring noise range
SIZE 4 4 4 4 4 2 1 2 4
TYPE F F F F U U U U U
COUNT 1 1 1 1 1 1 1 1 1
WIDTH 786
HEIGHT 1
VIEWPOINT 0 0 0 1 0 0 0
POINTS 786
DATA ascii
3.5116599 7.6268082 -1.3420337 890 82232290 6437 50 73 8503
3.1363347 7.5271301 -1.383899 903 82232290 6180 51 73 8271
4.4001632 7.9514976 -1.6197621 853 82232290 7269 52 106 9231
3.9582815 7.8231473 -1.6476105 819 82232290 6518 53 110 8921
3.5673947 7.7414536 -1.6859171 830 82232290 6268 54 95 8689
3.1786633 7.6290927 -1.7205863 831 82232290 5924 55 85 8442
4.4694152 8.0660057 -2.0004992 794 82232290 7068 56 139 9436
4.0333056 7.9610748 -2.0234964 680 82232290 5695 57 107 9151
3.6092641 7.8283582 -2.0425246 754 82232290 5921 58 62 8859
3.2199848 7.7263689 -2.0714865 791 82232290 5883 59 95 8623
4.3413262 7.8132758 -2.2938185 423 82232290 3599 60 45 9228
4.0901146 8.0564575 -2.4094956 701 82232290 6126 61 49 9351
3.6626348 7.9401073 -2.4243107 697 82232290 5742 62 70 9074
3.2718413 7.8600698 -2.4559479 665 82232290 5224 63 68 8861
3.8872199 6.9771838 2.4930151 109 82329370 765 0 89 8367
3.4950874 6.8768067 2.3153443 125 82329370 812 1 94 8054
3.161535 6.8454437 2.1833694 114 82329370 700 2 44 7850
2.8118711 6.7445912 2.0411875 181 82329370 1040 3 48 7587
3.899528 7.007616 2.1663904 113 82329370 782 4 70 8307
3.5154226 6.9093523 2.0116534 160 82329370 1024 5 47 8009
3.1801736 6.878861 1.887823 202 82329370 1233 6 101 7810
2.853159 6.8241668 1.7681236 238 82329370 1379 7 65 7605
3.9205763 7.048625 1.8586824 515 82329370 3528 8 111 8277
3.5735793 7.0303335 1.7348138 345 82329370 2252 9 72 8075
3.2140751 6.942327 1.6060237 277 82329370 1690 10 50 7817
2.9025676 6.9253545 1.5031769 169 82329370 989 11 32 7658
3.9377377 7.0820975 1.5547112 727 82329370 4949 12 131 8251
3.5680733 7.0128336 1.4286454 763 82329370 4882 13 86 7997
3.2207019 6.9531393 1.3158901 756 82329370 4570 14 108 7775
2.8865731 6.8824744 1.2115972 777 82329370 4444 15 70 7561
3.9787624 7.1555872 1.2616192 789 82329370 5412 16 55 8284
3.6074595 7.0862665 1.1472688 735 82329370 4745 17 101 8034
3.2436566 6.9927726 1.0378395 798 82329370 4829 18 74 7778
2.9082999 6.9224191 0.93883085 776 82329370 4444 19 101 7567
4.030982 7.2492037 0.96925074 764 82329370 5330 20 88 8351
3.6405425 7.1484747 0.85929883 800 82329370 5209 21 85 8068
3.2838421 7.0706754 0.76014894 804 82329370 4935 22 78 7833
2.94733 7.004704 0.67008418 748 82329370 4353 23 126 7629
4.0802956 7.3345714 0.67205226 736 82329370 5219 24 105 8420
3.6944892 7.2497096 0.57369018 707 82329370 4705 25 102 8157
3.3192031 7.1461606 0.48012945 793 82329370 4939 26 147 7894
2.979964 7.0705223 0.39499977 833 82329370 4917 27 103 7683
4.1271133 7.410203 0.36870021 836 82329370 6029 28 73 8490
3.7403984 7.3334684 0.27899018 729 82329370 4949 29 72 8237
3.3796201 7.2583232 0.19749397 814 82329370 5219 30 51 8009
2.9904468 7.0881348 0.11494423 806 82329370 4773 31 85 7694
4.1692538 7.4849439 0.059815444 753 82329370 5528 32 110 8568
3.7747772 7.3941746 -0.021010077 810 82329370 5582 33 142 8302
3.4226682 7.3484306 -0.096779495 784 82329370 5154 34 106 8107
3.0561657 7.230864 -0.16841325 879 82329370 5420 35 90 7852
4.2300801 7.5854216 -0.25792158 799 82329370 6029 36 158 8689
3.8191791 7.467628 -0.32808298 830 82329370 5850 37 88 8394
3.4215155 7.3379235 -0.39413923 777 82329370 5106 38 218 8106
3.090837 7.3132524 -0.46182537 888 82329370 5618 39 99 7953
4.2782412 7.657639 -0.58215457 844 82329370 6523 40 106 8791
3.8654537 7.5496564 -0.6426543 850 82329370 6150 41 118 8506
3.4885032 7.4761362 -0.70437247 898 82329370 6159 42 180 8280
3.1241884 7.3810258 -0.76060379 901 82329370 5842 43 82 8051
4.3511496 7.7817574 -0.92039591 841 82329370 6755 44 144 8963
3.9231675 7.6548014 -0.96907872 845 82329370 6333 45 85 8656
3.5279851 7.5504293 -1.0184152 830 82329370 5851 46 126 8396
3.1702406 7.4847307 -1.0733055 801 82329370 5382 47 149 8199
4.4007483 7.8550057 -1.2636333 850 82329370 7026 48 116 9092
3.9771297 7.7517562 -1.3072193 821 82329370 6375 49 79 8810
3.5784786 7.6480494 -1.3496097 851 82329370 6226 50 59 8551
3.214782 7.583992 -1.3979537 791 82329370 5524 51 80 8355
4.4835696 7.9861569 -1.6323959 721 82329370 6241 52 108 9303
4.0385423 7.8616543 -1.660908 836 82329370 6762 53 103 8993
3.6248128 7.7407408 -1.6905738 825 82329370 6265 54 85 8713
3.2483387 7.6635284 -1.7328151 837 82329370 6052 55 80 8502
4.5533032 8.0997658 -2.0157638 750 82329370 6777 56 148 9508
4.1088428 7.9882121 -2.0367639 769 82329370 6528 57 64 9211
3.6869538 7.8695078 -2.0591249 760 82329370 6065 58 73 8931
3.2946138 7.7708135 -2.088783 683 82329370 5165 59 101 8695
4.3777704 7.7662401 -2.2878528 415 82329370 3512 60 52 9204
4.0810375 7.91784 -2.3754828 443 82329370 3761 61 50 9219
3.652389 7.7918377 -2.385838 440 82329370 3510 62 95 8930
3.3290005 7.8610806 -2.4625998 680 82329370 5371 63 76 8885
3.918685 6.9332561 2.4858642 121 82427960 845 0 68 8343
3.5372169 6.8552322 2.3153443 161 82427960 1046 1 94 8054
3.2230663 6.8676538 2.1967199 110 82427960 683 2 54 7898
2.8622279 6.7484913 2.0476444 145 82427960 838 3 40 7611
3.9766235 7.0440869 2.1851676 73 82427960 515 4 76 8379
3.5737431 6.918611 2.0206957 123 82427960 794 5 38 8045
3.227273 6.8697572 1.8907236 167 82427960 1023 6 100 7822
2.8995457 6.8172722 1.7709136 207 82427960 1203 7 79 7617
4.0039783 7.0957241 1.8775454 540 82427960 3776 8 97 8361
3.6220241 7.0186887 1.7373918 444 82427960 2906 9 87 8087
3.2866075 6.9862361 1.6208163 410 82427960 2549 10 53 7889
2.9450061 6.907414 1.5031769 234 82427960 1370 11 45 7658
4.0042787 7.0988612 1.5637559 706 82427960 4862 12 119 8299
3.6272917 7.0222788 1.4350767 794 82427960 5126 13 88 8033
3.2784147 6.9653487 1.3219829 760 82427960 4637 14 103 7811
2.9426935 6.8973179 1.217366 823 82427960 4752 15 68 7597
4.0459018 7.172359 1.2689295 781 82427960 5425 16 74 8332
3.6672316 7.0956516 1.1524097 804 82427960 5236 17 113 8070
3.2966433 6.9942536 1.041042 804 82427960 4895 18 85 7802
2.974117 6.9591899 0.946275 764 82427960 4445 19 111 7627
4.0870986 7.2450948 0.97203618 744 82427960 5217 20 145 8375
3.7117355 7.1789966 0.86568916 770 82427960 5087 21 107 8128
3.3424566 7.0827961 0.76364255 797 82427960 4936 22 101 7869
3.0090687 7.0304451 0.67430019 799 82427960 4707 23 160 7677
4.1604981 7.3719006 0.67779905 735 82427960 5302 24 102 8492
3.7609043 7.2694302 0.577066 747 82427960 5030 25 91 8205
3.3987739 7.2014837 0.48523846 683 82427960 4347 26 113 7978
3.0374577 7.0851483 0.39685062 832 82427960 4956 27 135 7719
4.2019911 7.4369283 0.37130585 829 82427960 6063 28 75 8550
3.7963548 7.3316803 0.27980307 765 82427960 5224 29 58 8261
3.4343529 7.2591372 0.19808577 796 82427960 5134 30 57 8033
3.0906641 7.2019672 0.11709552 505 82427960 3103 31 107 7838
4.2505226 7.521903 0.06031809 771 82427960 5755 32 120 8640
3.8476844 7.4241447 -0.021161921 707 82427960 4942 33 145 8362
3.4728258 7.3381371 -0.096922748 770 82427960 5076 34 113 8119
3.1336446 7.2891288 -0.17021492 416 82427960 2622 35 80 7936
4.3060746 7.6115232 -0.25970262 834 82427960 6381 36 152 8749
3.892554 7.4972639 -0.33042812 854 82427960 6105 37 92 8454
3.5177934 7.4251089 -0.39997405 523 82427960 3540 38 203 8226
3.1498458 7.327167 -0.46391585 884 82427960 5644 39 86 7989
4.3605709 7.6937461 -0.58692259 803 82427960 6308 40 116 8863
3.933779 7.568265 -0.64628088 868 82427960 6351 41 114 8554
3.5496764 7.4870014 -0.70743489 883 82427960 6104 42 153 8316
3.1977625 7.4275522 -0.76740581 890 82427960 5874 43 85 8123
4.4341516 7.8172083 -0.92778951 832 82427960 6790 44 146 9035
3.9865742 7.6623206 -0.97310913 829 82427960 6265 45 81 8692
3.604898 7.5932012 -1.0271486 795 82427960 5699 46 147 8468
3.2302277 7.4979157 -1.0780182 893 82427960 6053 47 156 8235
4.4840937 7.8898449 -1.2736402 814 82427960 6835 48 129 9164
4.0520282 7.7798333 -1.3161221 815 82427960 6415 49 79 8870
3.6456888 7.6687551 -1.3571855 841 82427960 6220 50 95 8599
3.2706242 7.5858521 -1.4019694 917 82427960 6442 51 61 8379
4.5500269 7.9892931 -1.6387128 773 82427960 6741 52 124 9339
4.1030641 7.8680978 -1.6675569 804 82427960 6555 53 107 9029
3.7127018 7.8033943 -1.7092005 709 82427960 5504 54 88 8809
3.3046021 7.6650281 -1.7377064 822 82427960 5978 55 77 8526
4.5041585 7.8984919 -1.9725144 505 82427960 4370 56 139 9304
4.0765295 7.8072414 -1.9969617 520 82427960 4242 57 107 9031
3.7602642 7.8994517 -2.0729585 786 82427960 6350 58 55 8991
3.3514578 7.7718449 -2.0945485 791 82427960 6014 59 96 8719
4.4311104 7.7493224 -2.2908356 439 82427960 3732 60 71 9216
4.1134181 7.8618293 -2.3662064 467 82427960 3942 61 58 9183
3.8144903 8.0094061 -2.4595773 635 82427960 5385 62 70 9206
3.3999786 7.8934531 -2.4792297 686 82427960 5491 63 82 8945
3.972548 6.9289565 2.4930151 115 82525850 807 0 79 8367
3.6005442 6.8741241 2.329143 144 82525850 947 1 85 8102
3.245301 6.8061314 2.1833694 106 82525850 650 2 52 7850
2.9264717 6.7838631 2.0637867 130 82525850 763 3 49 7671
4.0773396 7.1200848 2.2164626 54 82525850 393 4 71 8499
3.6808538 7.0199962 2.0568647 85 82525850 567 5 43 8189
3.3195205 6.9549112 1.9197298 154 82525850 972 6 106 7942
2.9644902 6.8529115 1.7848632 218 82525850 1287 7 68 7677
4.0532508 7.0811715 1.8802401 558 82525850 3913 8 97 8373
3.6758981 7.0170951 1.7425478 499 82525850 3284 9 92 8111
3.324348 6.9553423 1.6183509 462 82525850 2870 10 62 7877
3.0013771 6.9215994 1.5102433 335 82525850 1981 11 44 7694
4.0653195 7.1048441 1.5705391 799 82525850 5551 12 123 8335
3.681277 7.0208035 1.4393643 784 82525850 5091 13 93 8057
3.3363981 6.9771113 1.3280758 765 82525850 4711 14 102 7847
2.9896741 6.8899975 1.2192888 794 82525850 4599 15 75 7609
4.1133952 7.1885738 1.2762395 768 82525850 5397 16 60 8380
3.7272537 7.1045685 1.1575505 782 82525850 5140 17 91 8106
3.3703153 7.0382524 1.0506492 733 82525850 4545 18 98 7874
3.0262549 6.9626513 0.94925267 778 82525850 4555 19 104 7651
4.1788344 7.30264 0.98317844 685 82525850 4916 20 119 8471
3.7668049 7.177217 0.86824536 758 82525850 5037 21 114 8152
3.4116695 7.1160016 0.76946521 791 82525850 4975 22 90 7929
3.0664625 7.0447302 0.67746222 823 82525850 4895 23 153 7713
4.2175388 7.3669953 0.67971468 731 82525850 5303 24 89 8516
3.8277004 7.2886081 0.58044189 779 82525850 5307 25 96 8253
3.448076 7.1912942 0.48596835 799 82525850 5099 26 132 7990
3.1000323 7.1103191 0.3993184 826 82525850 4982 27 120 7767
4.2713904 7.4526114 0.37339038 711 82525850 5259 28 78 8598
3.8691688 7.3613276 0.28183529 743 82525850 5147 29 71 8321
3.4996169 7.281177 0.19926941 798 82525850 5213 30 82 8081
3.1347966 7.1828675 0.11709552 844 82525850 5186 31 93 7838
4.3324013 7.558145 0.060820747 779 82525850 5913 32 103 8712
3.9099267 7.4322567 -0.021253029 786 82525850 5544 33 111 8398
3.559381 7.403203 -0.098068774 764 82525850 5157 34 110 8215
3.1783109 7.2697639 -0.17021492 389 82525850 2450 35 111 7936
4.3706074 7.616169 -0.26077124 816 82525850 6296 36 141 8785
3.9664352 7.5262771 -0.33277324 840 82525850 6092 37 82 8514
3.5840788 7.4465837 -0.40230793 823 82525850 5635 38 213 8274
3.2139401 7.3516092 -0.46670321 869 82525850 5615 39 89 8037
4.4375353 7.7187471 -0.59089583 847 82525850 6742 40 134 8923
4.0136437 7.6074834 -0.65172064 779 82525850 5796 41 125 8626
3.6214912 7.5189409 -0.71253908 813 82525850 5700 42 163 8376
3.2432768 7.4077916 -0.76740581 919 82525850 6065 43 90 8123
4.4998918 7.8208919 -0.93148625 799 82525850 6574 44 132 9071
4.072494 7.7115264 -0.98251325 837 82525850 6449 45 84 8776
3.6617701 7.5923967 -1.0300598 863 82525850 6224 46 113 8492
3.2952693 7.5215411 -1.0843016 879 82525850 6029 47 141 8283
4.5561609 7.9033637 -1.2803113 828 82525850 7026 48 121 9212
4.132966 7.8177714 -1.3268052 733 82525850 5864 49 70 8942
3.7081344 7.6782522 -1.3628675 863 82525850 6436 50 94 8635
3.3266096 7.5873117 -1.4059851 883 82525850 6237 51 87 8403
4.4453192 7.6952534 -1.5839661 286 82525850 2327 52 163 9027
4.1733336 7.8844681 -1.676422 813 82525850 6698 53 115 9077
3.7758808 7.8122635 -1.7161857 795 82525850 6222 54 83 8845
3.3751578 7.6984053 -1.7499353 816 82525850 6018 55 73 8586
4.5701528 7.9011598 -1.9801464 375 82525850 3275 56 186 9340
4.2504029 8.0199127 -2.0579917 697 82525850 6038 57 105 9307
3.8239136 7.9077673 -2.0812585 792 82525850 6457 58 58 9027
3.4224727 7.8044734 -2.1089621 846 82525850 6523 59 73 8779
4.4552498 7.6817689 -2.278904 422 82525850 3543 60 53 9168
4.1778946 7.8671632 -2.3754828 462 82525850 3930 61 66 9219
3.883708 8.0274887 -2.4724016 682 82525850 5844 62 61 9254
3.4622262 7.9041262 -2.4892077 665 82525850 5367 63 72 8981
4.0380216 6.9440598 2.5073171 106 82624350 753 0 79 8415
3.6696315 6.9026446 2.3463919 145 82624350 967 1 98 8162
3.3221745 6.858706 2.206733 125 82624350 785 2 38 7934
2.9633987 6.7551947 2.0605583 139 82624350 818 3 61 7659
4.1325879 7.1149678 2.2227216 44 82624350 321 4 92 8523
3.7129445 6.9767714 2.0508366 50 82624350 331 5 44 8165
3.3570526 6.9239345 1.9168291 150 82624350 945 6 76 7930
3.0158818 6.8559589 1.7904431 190 82624350 1128 7 84 7701
4.108366 7.0763936 1.8856295 551 82624350 3886 8 99 8397
3.7353911 7.0254521 1.750282 525 82624350 3485 9 104 8147
3.3772211 6.9559431 1.6232817 515 82624350 3218 10 68 7901
3.048538 6.9138198 1.5125988 392 82624350 2326 11 33 7706
4.1265841 7.1103449 1.5773225 800 82624350 5605 12 133 8371
3.7520213 7.0501981 1.4500833 793 82624350 5225 13 114 8117
3.3894811 6.9777842 1.3321376 724 82624350 4485 14 116 7871
3.0510204 6.9148717 1.2269806 836 82624350 4903 15 67 7657
4.1931462 7.2247453 1.2872049 765 82624350 5467 16 89 8452
3.8042698 7.1444659 1.1678323 793 82624350 5305 17 99 8178
3.429044 7.0495234 1.0554527 788 82624350 4931 18 97 7910
3.0785465 6.9657331 0.95223027 793 82624350 4672 19 109 7675
4.2415133 7.3077865 0.9873566 754 82624350 5458 20 99 8507
3.8500395 7.227685 0.8771919 712 82624350 4831 21 96 8236
3.4761856 7.1378851 0.77412331 771 82624350 4908 22 86 7977
3.1241446 7.0585752 0.68062425 805 82624350 4832 23 153 7749
4.2806816 7.3720107 0.68258798 718 82624350 5253 24 96 8552
3.8836114 7.2861118 0.58212984 769 82624350 5270 25 83 8277
3.5026255 7.1915383 0.48742804 770 82624350 4944 26 136 8014
3.1630297 7.1349874 0.40178618 843 82624350 5148 27 111 7815
4.3411388 7.4677215 0.37547493 755 82624350 5647 28 73 8646
3.9368439 7.379775 0.28346106 731 82624350 5122 29 74 8369
3.5600169 7.2919078 0.20015714 803 82624350 5294 30 67 8117
3.2080114 7.2293019 0.11817116 796 82624350 4982 31 89 7910
4.4028206 7.5729146 0.061155841 796 82624350 6107 32 127 8760
3.9893684 7.4716387 -0.021435238 767 82624350 5502 33 136 8470
3.6152704 7.4027882 -0.098355278 794 82624350 5391 34 104 8239
3.2277308 7.2610884 -0.17047231 688 82624350 4346 35 112 7948
4.4655275 7.6721401 -0.26362085 755 82624350 5953 36 143 8881
4.0238519 7.5229449 -0.3337113 808 82624350 5892 37 87 8538
3.6349669 7.4352198 -0.4028914 883 82624350 6064 38 209 8286
3.2784519 7.3755379 -0.4694905 893 82624350 5839 39 86 8085
4.5089388 7.7327485 -0.59407449 847 82624350 6817 40 102 8971
4.0884891 7.6354566 -0.65625387 844 82624350 6367 41 127 8686
3.688576 7.5395389 -0.71662241 840 82624350 5957 42 165 8424
3.3129609 7.4423213 -0.77307427 914 82624350 6121 43 102 8183
4.5838928 7.8549914 -0.93887985 744 82624350 6219 44 132 9143
4.1366343 7.7179232 -0.98654366 832 82624350 6463 45 82 8812
3.7240078 7.6018763 -1.0344266 869 82624350 6320 46 122 8528
3.355881 7.5337825 -1.0890143 882 82624350 6102 47 151 8319
4.6465559 7.9470696 -1.2919859 829 82624350 7166 48 84 9296
4.2089109 7.8445506 -1.335708 747 82624350 6057 49 65 9002
3.7812703 7.7085485 -1.3723373 855 82624350 6466 50 76 8695
3.3923697 7.6099796 -1.4140164 880 82624350 6286 51 99 8451
4.498425 7.6780257 -1.5860718 357 82624350 2913 52 400 9039
4.2607007 7.931438 -1.6919358 800 82624350 6714 53 109 9161
3.839308 7.8206501 -1.7231708 839 82624350 6620 54 83 8881
3.4462466 7.7312026 -1.7621641 864 82624350 6461 55 73 8646
4.630415 7.8931999 -1.9852346 501 82624350 4391 56 141 9364
4.3217068 8.0349083 -2.0686057 758 82624350 6636 57 89 9355
3.8929536 7.9260788 -2.0923254 753 82624350 6203 58 82 9075
3.4797826 7.804605 -2.1147275 811 82624350 6286 59 87 8803
4.4964075 7.6442685 -2.2759211 430 82624350 3601 60 52 9156
4.2315888 7.8515868 -2.3785748 446 82624350 3805 61 60 9231
3.9481905 8.0346432 -2.4820197 608 82624350 5248 62 106 9290
3.5341134 7.9353957 -2.5058374 669 82624350 5472 63 66 9041
4.1212864 6.9882212 2.5323455 122 82722290 883 0 82 8499
3.7392027 6.9305739 2.3636403 170 82722290 1150 1 99 8222
3.3794611 6.8692203 2.2167459 137 82722290 868 2 42 7970
3.0283313 6.7896605 2.0767004 129 82722290 767 3 35 7719
4.152647 7.0495501 2.2102034 31 82722290 225 4 75 8475
3.7777622 6.9947381 2.0628929 67 82722290 449 5 51 8213
3.4097624 6.924098 1.9226304 117 82722290 741 6 99 7954
3.0769522 6.8799419 1.801603 153 82722290 921 7 72 7749
4.1873078 7.1115112 1.901798 584 82722290 4189 8 115 8469
3.7951245 7.0333424 1.7580162 561 82722290 3758 9 98 8183
3.4354205 6.9666886 1.6306781 570 82722290 3594 10 67 7937
3.1197824 6.9594064 1.5267315 370 82722290 2236 11 49 7778
4.2060027 7.1458292 1.5908893 767 82722290 5465 12 153 8443
3.8176527 7.0685973 1.4586582 775 82722290 5168 13 103 8165
3.4583957 7.0098867 1.3422924 750 82722290 4717 14 121 7931
3.1030874 6.9176354 1.2308264 798 82722290 4708 15 102 7681
4.2554464 7.2295432 1.2926877 719 82722290 5177 16 56 8488
3.8649752 7.1523361 1.1729732 770 82722290 5196 17 106 8214
3.4880376 7.060338 1.0602562 788 82722290 4976 18 94 7946
3.1456299 7.001019 0.95967442 784 82722290 4691 19 114 7735
4.2983656 7.3021665 0.99014217 742 82722290 5403 20 81 8531
3.9170117 7.2459106 0.88230431 736 82722290 5052 21 89 8284
3.5410979 7.1592431 0.77878147 812 82722290 5231 22 92 8025
3.1919212 7.0937772 0.68589425 741 82722290 4518 23 142 7809
4.3501148 7.3868351 0.68641919 749 82722290 5542 24 80 8600
3.9567211 7.3147888 0.58634973 771 82722290 5359 25 102 8337
3.5732398 7.2235918 0.49107739 742 82722290 4835 26 134 8074
3.2264454 7.1591482 0.40425396 831 82722290 5137 27 118 7863
4.4234099 7.5029082 0.3786017 795 82722290 6045 28 78 8718
4.0106001 7.4082141 0.28549331 744 82722290 5288 29 77 8429
3.6206794 7.3021698 0.20104487 733 82722290 4870 30 47 8153
3.2572432 7.2204189 0.11835043 862 82722290 5411 31 96 7922
4.4613938 7.5664301 0.061323393 754 82722290 5819 32 101 8784
4.0465722 7.4681211 -0.021495977 778 82722290 5613 33 121 8494
3.67662 7.412715 -0.098785043 761 82722290 5213 34 97 8275
3.2969253 7.2958107 -0.1717592 520 82722290 3335 35 102 8008
4.5308108 7.6755843 -0.26468948 800 82722290 6358 36 151 8917
4.1042576 7.5613446 -0.33652547 728 82722290 5400 37 78 8610
3.7071714 7.4664536 -0.40580881 869 82722290 6056 38 183 8346
3.3384449 7.3880339 -0.47158101 855 82722290 5641 39 81 8121
4.5928693 7.7667751 -0.59884244 840 82722290 6871 40 88 9043
4.146688 7.6312532 -0.65806711 873 82722290 6623 41 108 8710
3.7400885 7.527472 -0.71764326 848 82722290 6033 42 130 8436
3.3684142 7.4436207 -0.77534163 918 82722290 6185 43 78 8207
4.6684804 7.8883514 -0.94627333 753 82722290 6395 44 106 9215
4.2067032 7.7342978 -0.99191749 848 82722290 6659 45 83 8860
3.7971101 7.632205 -1.0417043 859 82722290 6337 46 103 8588
3.4167664 7.5455618 -1.093727 860 82722290 6002 47 127 8355
4.7194748 7.9592962 -1.2986571 831 82722290 7256 48 102 9344
4.2683139 7.8394217 -1.339269 839 82722290 6838 49 76 9026
3.8496325 7.7276268 -1.3799131 846 82722290 6469 50 80 8743
3.4682992 7.6536779 -1.4260634 845 82722290 6140 51 85 8523
4.7988987 8.0768461 -1.6745086 785 82722290 7147 52 144 9543
4.3318663 7.9465656 -1.700801 804 82722290 6819 53 103 9209
3.9187367 7.8601561 -1.7371408 817 82722290 6550 54 102 8953
3.5081658 7.742013 -1.7695012 831 82722290 6266 55 81 8682
4.6667681 7.8444819 -1.9801464 465 82722290 4055 56 136 9340
4.4101739 8.0801468 -2.0871799 765 82722290 6817 57 95 9439
3.9623613 7.9438381 -2.1033921 765 82722290 6369 58 80 9123
3.5516491 7.8361554 -2.1291413 780 82722290 6128 59 101 8863
4.5015464 7.546659 -2.2550411 430 82722290 3535 60 56 9072
4.2629952 7.7949557 -2.3692987 431 82722290 3640 61 55 9195
4.0335603 8.0826941 -2.504462 561 82722290 4931 62 96 9374
3.6065145 7.9660797 -2.5224674 595 82722290 4932 63 60 9101
4.1640878 6.9628019 2.5323455 163 82818280 1180 0 69 8499
3.7871771 6.9175816 2.36709 168 82818280 1140 1 99 8234
3.4370012 6.8792887 2.2267587 131 82818280 842 2 64 8006
3.0985701 6.8341084 2.0960712 138 82818280 840 3 67 7791
4.2314701 7.0836091 2.2289803 36 82818280 265 4 91 8547
3.8652682 7.0529137 2.0870056 54 82818280 370 5 46 8309
3.4834328 6.9655323 1.940034 87 82818280 562 6 87 8026
3.1384296 6.9034314 1.8127626 152 82818280 926 7 84 7797
4.2488484 7.1158037 1.9098819 617 82818280 4463 8 124 8505
3.87198 7.0716019 1.7734845 513 82818280 3497 9 94 8255
3.4991369 6.9874821 1.6405398 601 82818280 3835 10 75 7985
3.1575468 6.9294252 1.524376 497 82818280 2995 11 48 7766
4.2739301 7.1603646 1.5999337 774 82818280 5579 12 143 8491
3.8949995 7.1071639 1.4715209 756 82818280 5132 13 86 8237
3.5172358 7.020257 1.3483853 752 82818280 4772 14 120 7967
3.1602175 6.9307976 1.2365952 813 82818280 4842 15 91 7717
4.3301196 7.2542143 1.3018253 786 82818280 5746 16 72 8548
3.9259193 7.1597281 1.1781138 790 82818280 5379 17 89 8250
3.5526249 7.0813227 1.066661 803 82818280 5133 18 83 7994
3.1984215 7.0032482 0.96265209 779 82818280 4690 19 106 7759
4.379745 7.3370605 0.99849886 751 82818280 5559 20 103 8603
3.9728749 7.2426624 0.88486046 734 82818280 5067 21 101 8308
3.6064019 7.1800709 0.78343958 783 82818280 5105 22 80 8073
3.2353878 7.0740585 0.68589425 829 82818280 5055 23 131 7809
4.4260235 7.4113536 0.69120818 731 82818280 5483 24 107 8660
4.0188079 7.3218532 0.58888161 734 82818280 5146 25 116 8373
3.6443784 7.2550478 0.49472675 708 82818280 4681 26 161 8134
3.2802944 7.1610074 0.40548787 826 82818280 5137 27 123 7887
4.4755158 7.4859157 0.37912282 768 82818280 5855 28 97 8730
4.0848517 7.4360232 0.2875255 742 82818280 5343 29 56 8489
3.6869962 7.3226748 0.20222849 776 82818280 5216 30 52 8201
3.3264904 7.2548308 0.1192468 840 82818280 5353 31 98 7982
4.5570016 7.6213055 0.061993591 722 82818280 5693 32 111 8880
4.127008 7.5062432 -0.021678187 817 82818280 5996 33 107 8566
3.7490218 7.4435987 -0.099501304 761 82818280 5288 34 97 8335
3.3716741 7.340857 -0.17330348 685 82818280 4472 35 103 8080
4.5963035 7.678514 -0.26575807 807 82818280 6465 36 160 8953
4.1679306 7.5675287 -0.33793256 794 82818280 5937 37 93 8646
3.7691026 7.4756727 -0.40755922 859 82818280 6036 38 217 8382
3.4487138 7.5089345 -0.48063985 177 82818280 1214 39 88 8277
4.6712279 7.7897921 -0.60281575 829 82818280 6867 40 141 9103
4.222322 7.6580591 -0.66260028 834 82818280 6414 41 125 8770
3.8185203 7.5684299 -0.72376817 850 82818280 6150 42 147 8508
3.4389832 7.4770789 -0.78100997 880 82818280 6016 43 93 8267
4.741364 7.9004974 -0.95120245 805 82818280 6906 44 138 9263
4.2828889 7.7605405 -0.99863476 803 82818280 6392 45 74 8920
3.8760953 7.6725535 -1.0504378 863 82818280 6472 46 133 8660
3.4878695 7.5784898 -1.1015813 847 82818280 5995 47 161 8415
4.8049645 7.9912939 -1.3086638 818 82818280 7253 48 105 9416
4.3507667 7.8754091 -1.3499523 820 82818280 6790 49 76 9098
3.918371 7.7461557 -1.3874891 844 82818280 6526 50 68 8791
3.5250943 7.6537437 -1.430079 894 82818280 6533 51 82 8547
4.8361735 8.02701 -1.6702973 662 82818280 5996 52 147 9519
4.4205008 7.9920769 -1.7163148 767 82818280 6623 53 120 9293
3.9775259 7.8569689 -1.7417974 804 82818280 6481 54 83 8977
3.5703473 7.7523541 -1.7768385 827 82818280 6287 55 84 8718
4.7087555 7.8056579 -1.9776024 519 82818280 4515 56 122 9328
4.4653392 8.0631723 -2.0898335 630 82818280 5629 57 97 9451
4.0215812 7.9402099 -2.1089256 678 82818280 5674 58 86 9147
3.6191587 7.856535 -2.1406722 780 82818280 6195 59 90 8911
4.5237045 7.4791131 -2.2431097 422 82818280 3440 60 63 9024
4.2994924 7.7483745 -2.3631144 466 82818280 3916 61 51 9171
4.0046754 7.9030662 -2.4563711 368 82818280 3114 62 68 9194
3.5733907 7.765739 -2.4659257 365 82818280 2891 63 92 8897
4.2483096 7.0056834 2.557374 95 82918010 701 0 90 8583
3.8518755 6.9344034 2.3808892 160 82918010 1098 1 101 8282
3.4947915 6.8889084 2.2367718 113 82918010 728 2 43 8042
3.145282 6.8254638 2.0992997 152 82918010 923 3 55 7803
4.3408761 7.1665092 2.2634048 30 82918010 228 4 81 8679
3.9028265 7.0189123 2.0839915 42 82918010 286 5 49 8297
3.541923 6.9751744 1.948736 75 82918010 488 6 107 8062
3.1856246 6.8946395 1.8155526 126 82918010 771 7 69 7809
4.3227124 7.1396146 1.9233557 652 82918010 4784 8 96 8565
3.920989 7.0579557 1.7760625 650 82918010 4444 9 97 8267
3.557914 6.9972849 1.647936 650 82918010 4185 10 71 8021
3.2197843 6.9526296 1.533798 564 82918010 3447 11 58 7814
4.3421936 7.1743345 1.6089783 775 82918010 5650 12 135 8539
3.9442728 7.0934501 1.4736646 790 82918010 5379 13 77 8249
3.5763323 7.0301671 1.3544781 765 82918010 4900 14 100 8003
3.2176251 6.9435172 1.2423639 835 82918010 5021 15 75 7753
4.3991137 7.2680941 1.3091356 765 82918010 5656 16 73 8596
3.9986479 7.1873994 1.186682 767 82918010 5298 17 95 8310
3.6176007 7.1017795 1.0730659 742 82918010 4800 18 95 8042
3.2613845 7.0266938 0.96860737 783 82918010 4774 19 88 7807
4.449369 7.3508339 1.0040698 724 82918010 5419 20 111 8651
4.0636597 7.3015556 0.8950851 670 82918010 4732 21 121 8404
3.6612422 7.1790867 0.78576863 790 82918010 5181 22 87 8097
3.3039246 7.108273 0.69116431 809 82918010 5008 23 148 7869
4.5085907 7.4454479 0.69695497 731 82918010 5575 24 105 8732
4.11025 7.3807206 0.59563345 729 82918010 5230 25 93 8469
3.705152 7.2645593 0.49691629 755 82918010 5037 26 148 8170
3.3393447 7.1733384 0.40733871 793 82918010 4977 27 123 7923
4.5710835 7.540329 0.38329187 767 82918010 5977 28 91 8826
4.1479177 7.4422469 0.28874484 725 82918010 5272 29 67 8525
3.7482398 7.3319588 0.20311622 814 82918010 5520 30 50 8237
3.3861461 7.2669115 0.11978462 860 82918010 5530 31 100 8018
4.6223426 7.6239843 0.062244918 726 82918010 5770 32 131 8916
4.1905255 7.5122185 -0.021769295 772 82918010 5711 33 137 8602
3.8110139 7.4525051 -0.099931061 677 82918010 4745 34 100 8371
3.4268017 7.3417735 -0.17381826 852 82918010 5595 35 108 8104
4.6806736 7.7116899 -0.26789531 790 82918010 6432 36 145 9025
4.2435308 7.5941491 -0.34027764 824 82918010 6249 37 73 8706
3.8422096 7.5057516 -0.41047662 871 82918010 6209 38 204 8442
3.4592564 7.4116435 -0.47576204 358 82918010 2405 39 81 8193
4.7438202 7.8019066 -0.60599434 792 82918010 6630 40 139 9151
4.2925978 7.673779 -0.66622686 819 82918010 6368 41 120 8818
3.8812411 7.5767822 -0.72683066 845 82918010 6165 42 159 8544
3.5050306 7.4991274 -0.78554469 922 82918010 6377 43 77 8315
4.8207765 7.9222417 -0.95736378 787 82918010 6839 44 148 9323
4.3653803 7.7965436 -1.0066955 834 82918010 6746 45 77 8992
3.9557171 7.7122169 -1.0591712 803 82918010 6122 46 135 8732
3.5595047 7.6108284 -1.1094358 840 82918010 6030 47 158 8475
4.8786516 8.0022469 -1.315335 806 82918010 7218 48 132 9464
4.4338202 7.910677 -1.3606356 745 82918010 6265 49 105 9170
3.9874806 7.7641306 -1.3950649 840 82918010 6566 50 71 8839
3.5920508 7.6748314 -1.4381104 909 82918010 6716 51 98 8595
4.8483834 7.9366961 -1.6576635 459 82918010 4096 52 116 9447
4.4521418 7.9339476 -1.7096659 477 82918010 4088 53 112 9257
4.052567 7.8847656 -1.7534393 807 82918010 6591 54 103 9037
3.6427469 7.7835035 -1.7890674 795 82918010 6129 55 63 8778
4.7320852 7.7366023 -1.9674262 610 82918010 5251 56 148 9280
4.4058151 7.8417668 -2.0394175 474 82918010 4034 57 87 9223
4.0168281 7.811542 -2.0812585 459 82918010 3740 58 119 9027
3.6870518 7.87638 -2.1522031 769 82918010 6174 59 83 8959
4.5695105 7.4512157 -2.2431097 369 82918010 3001 60 52 9024
4.3412666 7.7117434 -2.3600223 435 82918010 3645 61 57 9159
4.053092 7.8783455 -2.4563711 386 82918010 3266 62 75 9194
3.7479537 8.0152225 -2.5524011 650 82918010 5514 63 87 9209
4.303215 6.9990005 2.5645251 138 83015900 1025 0 72 8607
3.894352 6.9106383 2.3808892 201 83015900 1381 1 79 8282
3.5528283 6.8980761 2.2467844 141 83015900 917 2 51 8078
3.1969056 6.8269696 2.1057565 169 83015900 1038 3 60 7827
4.4029546 7.1693535 2.2727933 41 83015900 315 4 68 8715
4.0143027 7.1162333 2.1201606 55 83015900 389 5 49 8441
3.6113336 7.0050592 1.9632392 33 83015900 220 6 75 8122
3.2278695 6.8749628 1.8155526 112 83015900 686 7 63 7809
4.4031439 7.17275 1.9395238 531 83015900 3962 8 99 8637
3.9814851 7.064394 1.7837967 639 83015900 4407 9 92 8303
3.6115556 6.9961934 1.6528668 654 83015900 4235 10 77 8045
3.2673941 6.9433889 1.5361533 559 83015900 3421 11 44 7826
4.4046245 7.17769 1.6157616 764 83015900 5617 12 125 8575
4.0109267 7.110249 1.4822396 791 83015900 5448 13 77 8297
3.6465368 7.0606322 1.364633 741 83015900 4817 14 114 8063
3.2753074 6.9557929 1.2481327 831 83015900 5043 15 73 7789
4.4622369 7.2712893 1.3146181 757 83015900 5643 16 78 8632
4.0660253 7.204102 1.1935365 777 83015900 5428 17 120 8358
3.6829598 7.1217027 1.0794705 786 83015900 5145 18 90 8090
3.3349133 7.0711675 0.97754037 755 83015900 4689 19 88 7879
4.5380292 7.3945045 1.0138193 703 83015900 5365 20 108 8735
4.1142511 7.2868738 0.8963632 718 83015900 5086 21 109 8416
3.7271886 7.1989112 0.79042679 757 83015900 5023 22 99 8145
3.3627923 7.1202927 0.69432628 794 83015900 4960 23 146 7905
4.5792251 7.4584188 0.70078611 740 83015900 5707 24 80 8780
4.1672359 7.3762054 0.59732133 739 83015900 5332 25 84 8493
3.7771943 7.2948713 0.50056565 743 83015900 5030 26 149 8230
3.4037938 7.1960468 0.40980646 776 83015900 4928 27 142 7971
4.6360974 7.5427804 0.38485527 760 83015900 5971 28 89 8862
4.2230186 7.4688544 0.29077706 649 83015900 4780 29 56 8585
3.820787 7.3620605 0.20459574 803 83015900 5525 30 57 8297
3.4512088 7.2893753 0.1205017 855 83015900 5564 31 97 8066
4.7004561 7.6465926 0.062663801 745 83015900 6002 32 120 8976
4.2779117 7.5594707 -0.021981876 772 83015900 5824 33 129 8686
3.8898418 7.4928789 -0.10079059 720 83015900 5133 34 114 8443
3.5026307 7.3856492 -0.17536256 841 83015900 5622 35 102 8176
4.759335 7.7339015 -0.26967633 776 83015900 6402 36 149 9085
4.3196139 7.6201258 -0.34262279 802 83015900 6166 37 80 8766
3.9158266 7.5352125 -0.41339403 822 83015900 5943 38 206 8502
3.5149341 7.4119263 -0.47715566 671 83015900 4531 39 114 8217
4.8293028 7.8338075 -0.61076236 803 83015900 6831 40 108 9223
4.3750358 7.7097363 -0.67166668 776 83015900 6132 41 128 8890
3.9607563 7.6164718 -0.73295563 818 83015900 6069 42 163 8616
3.5612278 7.4990625 -0.78781205 898 83015900 6247 43 81 8339
4.8943653 7.9331474 -0.96229273 805 83015900 7069 44 128 9371
4.4366941 7.8110857 -1.0120692 777 83015900 6352 45 82 9040
4.0139661 7.70893 -1.0620824 856 83015900 6563 46 117 8756
3.611243 7.5995898 -1.1110066 904 83015900 6509 47 153 8487
4.8464355 7.8407526 -1.2936536 555 83015900 4806 48 147 9308
4.4998727 7.9142718 -1.3659773 798 83015900 6767 49 63 9206
4.0679135 7.8025613 -1.4064287 833 83015900 6618 50 62 8911
3.6644788 7.7060685 -1.4481496 877 83015900 6571 51 101 8655
4.928093 7.957016 -1.6681918 492 83015900 4449 52 95 9507
4.4365616 7.7937384 -1.685287 249 83015900 2074 53 105 9125
4.128098 7.9119344 -1.7650809 816 83015900 6754 54 98 9097
3.7106168 7.8034439 -1.7988503 830 83015900 6468 55 75 8826
4.7609258 7.6775217 -1.9597938 598 83015900 5108 56 139 9244
4.4886174 7.8755908 -2.0553381 354 83015900 3055 57 154 9295
4.1943641 8.0351791 -2.1476595 711 83015900 6172 58 73 9315
3.7603269 7.9062047 -2.1666167 812 83015900 6608 59 77 9019
4.6396928 7.462522 -2.2550411 338 83015900 2786 60 60 9072
4.371254 7.6547546 -2.3507462 436 83015900 3625 61 54 9123
4.1174159 7.8840785 -2.4659894 414 83015900 3530 62 76 9230
3.8218026 8.0441446 -2.5690305 675 83015900 5802 63 78 9269
4.3763757 7.0210705 2.5824027 133 83113740 1002 0 66 8667
3.976609 6.95646 2.4050372 162 83113740 1135 1 92 8366
3.6057684 6.8965759 2.2534597 150 83113740 982 2 41 8102
3.2585971 6.8489718 2.1186705 172 83113740 1064 3 48 7875
4.4529848 7.1520371 2.2759228 67 83113740 513 4 81 8727
4.0694294 7.1116309 2.1261888 71 83113740 506 5 48 8465
3.665046 7.0034027 1.9690405 34 83113740 227 6 86 8146
3.3101921 6.9393001 1.837872 84 83113740 528 7 65 7905
4.4656081 7.1753817 1.9476081 625 83113740 4701 8 115 8673
4.0596571 7.1008768 1.7992649 625 83113740 4384 9 109 8375
3.6653175 6.9947066 1.6577978 691 83113740 4502 10 71 8069
3.320087 6.9444413 1.5408642 671 83113740 4132 11 41 7850
4.4921608 7.2205744 1.6315895 749 83113740 5614 12 152 8659
4.0896635 7.1469917 1.4951024 705 83113740 4940 13 84 8369
3.7007744 7.0590739 1.3686949 782 83113740 5115 14 88 8087
3.3383725 6.9783058 1.2558243 793 83113740 4872 15 86 7837
4.5694208 7.3444743 1.3328937 673 83113740 5158 16 80 8752
4.1396575 7.2305536 1.2021046 775 83113740 5494 17 90 8418
3.7431717 7.1305609 1.0842742 799 83113740 5277 18 95 8126
3.3833835 7.0613103 0.97902924 786 83113740 4895 19 96 7891
4.6022053 7.3968806 1.0179976 726 83113740 5587 20 95 8771
4.1766753 7.2925539 0.90019751 744 83113740 5315 21 108 8452
3.7990711 7.2287669 0.79624945 750 83113740 5050 22 107 8205
3.4219313 7.1318569 0.69748831 780 83113740 4917 23 155 7941
4.6501865 7.4708009 0.70461726 665 83113740 5186 24 75 8828
4.2421761 7.4024258 0.60154122 742 83113740 5428 25 104 8553
3.8441741 7.3139677 0.50348514 783 83113740 5364 26 124 8278
3.4790275 7.2398362 0.41350815 761 83113740 4923 27 108 8043
4.7266736 7.5854163 0.38850316 724 83113740 5797 28 88 8946
4.2866678 7.4740129 0.29199639 715 83113740 5317 29 69 8621
3.8826618 7.3703194 0.20548347 787 83113740 5462 30 47 8333
3.5062726 7.2896876 0.12086026 843 83113740 5520 31 78 8090
4.7790189 7.6685266 0.063082673 688 83113740 5618 32 112 9036
4.336163 7.5538936 -0.022042612 768 83113740 5827 33 117 8710
3.9525251 7.5007162 -0.10122034 749 83113740 5384 34 131 8479
3.5635042 7.3964434 -0.17613471 847 83113740 5713 35 92 8212
4.857492 7.7859664 -0.27252597 695 83113740 5855 36 155 9181
4.3961744 7.6454515 -0.3449679 798 83113740 6220 37 72 8826
3.9787638 7.5428467 -0.41514444 841 83113740 6131 38 218 8538
3.6123419 7.4981461 -0.484124 413 83113740 2872 39 91 8337
4.909008 7.8547964 -0.6147356 773 83113740 6662 40 99 9283
4.4640441 7.7553391 -0.67801309 866 83113740 6973 41 125 8974
4.0241599 7.6237473 -0.73601812 847 83113740 6338 42 147 8652
3.6383188 7.5416279 -0.79461408 882 83113740 6242 43 83 8411
4.987258 7.9738083 -0.97091866 753 83113740 6732 44 118 9455
4.5143037 7.8353777 -1.0187865 787 83113740 6520 45 83 9100
4.0890207 7.7368102 -1.0693601 829 83113740 6442 46 135 8816
3.6836643 7.6308565 -1.118861 861 83113740 6287 47 149 8547
5.0585141 8.0726843 -1.3370163 772 83113740 7144 48 121 9620
4.5839214 7.9481926 -1.3766607 790 83113740 6803 49 73 9278
4.1378827 7.8193483 -1.4140046 832 83113740 6680 50 87 8959
3.7271316 7.7153969 -1.454173 838 83113740 6331 51 91 8691
4.9768238 7.9266281 -1.6681918 533 83113740 4819 52 101 9507
4.6671119 8.0829821 -1.7539914 152 83113740 1370 53 123 9497
4.204114 7.9384723 -1.7767227 765 83113740 6414 54 121 9157
3.7839785 7.8334222 -1.8110791 811 83113740 6407 55 69 8886
4.8079448 7.6481643 -1.9597938 542 83113740 4630 56 129 9244
4.5485706 7.8681645 -2.0606451 450 83113740 3910 57 93 9319
4.2763886 8.0711985 -2.1642599 738 83113740 6503 58 105 9387
3.8290384 7.9249372 -2.1781478 786 83113740 6463 59 101 9067
4.7597661 7.5519114 -2.2908356 305 83113740 2590 60 120 9216
4.3948946 7.5876565 -2.338378 460 83113740 3785 61 45 9075
4.1440506 7.8177972 -2.4531651 367 83113740 3098 62 64 9182
3.8861237 8.0516949 -2.5790086 626 83113740 5423 63 74 9305
4.4499683 7.0425038 2.60028 130 83210600 994 0 58 8727
4.0480437 6.9816446 2.4222858 168 83210600 1195 1 85 8426
3.6696298 6.9150486 2.2668104 158 83210600 1053 2 58 8150
3.3106189 6.8496599 2.1251271 200 83210600 1245 3 53 7899
4.533885 7.1833591 2.2946999 84 83210600 653 4 81 8799
4.1304808 7.1166654 2.135231 101 83210600 727 5 47 8501
3.73526 7.0321994 1.9835435 51 83210600 346 6 78 8206
3.3832457 6.9818764 1.8546116 64 83210600 410 7 62 7977
4.5220304 7.1676259 1.9529976 656 83210600 4963 8 92 8697
4.1149092 7.0961108 1.8044211 633 83210600 4467 9 100 8399
3.7247114 7.003191 1.6651942 699 83210600 4595 10 73 8105
3.3780558 6.9556918 1.5479306 683 83210600 4250 11 59 7886
4.5678148 7.2427163 1.6428952 729 83210600 5542 12 123 8719
4.1452932 7.1421866 1.49939 736 83210600 5185 13 112 8393
3.7829075 7.1093187 1.3829116 636 83210600 4246 14 116 8171
3.4018364 7.0003047 1.2635159 818 83210600 5087 15 86 7885
4.6207266 7.3263302 1.3347213 760 83210600 5841 16 66 8764
4.2018385 7.2358298 1.2072455 782 83210600 5591 17 94 8454
3.8036304 7.138947 1.0890777 776 83210600 5171 18 76 8162
3.4422803 7.0725369 0.98349571 803 83210600 5046 19 106 7927
4.679297 7.4189086 1.0249615 716 83210600 5584 20 111 8831
4.2573028 7.3286924 0.90786594 729 83210600 5299 21 85 8524
3.8770807 7.268548 0.80323666 735 83210600 5039 22 68 8277
3.4813383 7.142962 0.70065033 775 83210600 4929 23 162 7977
4.7533884 7.5331731 0.71323746 635 83210600 5072 24 100 8936
4.2995477 7.396955 0.60322917 732 83210600 5386 25 98 8577
3.9002542 7.3113785 0.5049448 726 83210600 5002 26 129 8302
3.5444124 7.2614322 0.41597596 741 83210600 4851 27 104 8091
4.7923355 7.586679 0.39006656 746 83210600 6021 28 91 8982
4.3806911 7.5305023 0.29524794 668 83210600 5079 29 71 8717
3.96175 7.4098325 0.20725894 755 83210600 5337 30 68 8405
3.5667367 7.3003788 0.12139808 853 83210600 5633 31 113 8126
4.8644366 7.6999278 0.063585326 679 83210600 5633 32 105 9108
4.4126201 7.5789971 -0.022194456 773 83210600 5946 33 114 8770
4.0097923 7.4974847 -0.10150685 778 83210600 5627 34 98 8503
3.6246409 7.4067664 -0.17690684 859 83210600 5845 35 89 8248
4.930819 7.7965646 -0.27395079 805 83210600 6854 36 150 9229
4.4611254 7.6494074 -0.34637499 808 83210600 6346 37 111 8862
4.0475993 7.5605593 -0.41747835 873 83210600 6436 38 218 8586
3.6635468 7.4865994 -0.48482081 840 83210600 5858 39 85 8349
4.9827437 7.8649864 -0.61791432 833 83210600 7252 40 124 9331
4.5175791 7.7381358 -0.67891973 828 83210600 6685 41 119 8986
4.1047392 7.6621485 -0.74214309 851 83210600 6474 42 153 8724
3.7108085 7.5728002 -0.80028254 814 83210600 5842 43 105 8471
5.0680485 7.9934616 -0.97707987 777 83210600 7035 44 118 9515
4.5923767 7.8590097 -1.0255039 779 83210600 6538 45 88 9160
4.1589375 7.753562 -1.0751824 881 83210600 6922 46 125 8864
3.7513673 7.6508379 -1.1251446 874 83210600 6455 47 142 8595
5.1270666 8.0715866 -1.3420197 722 83210600 6733 48 102 9656
4.6625628 7.9711337 -1.3855634 794 83210600 6927 49 70 9338
4.2026029 7.82513 -1.4196866 832 83210600 6735 50 60 8995
3.8004599 7.7454886 -1.4642122 866 83210600 6635 51 77 8751
5.0190234 7.8859749 -1.6660861 516 83210600 4653 52 110 9495
4.7106605 8.0440159 -1.7517751 506 83210600 4550 53 145 9485
4.2861829 7.9747415 -1.7906927 813 83210600 6925 54 116 9229
3.8578463 7.8627915 -1.8233078 724 83210600 5796 55 82 8946
4.8484802 7.6086297 -1.9572498 518 83210600 4414 56 125 9232
4.5908442 7.8300109 -2.0579917 469 83210600 4066 57 73 9307
4.3479519 8.0859442 -2.1753268 720 83210600 6411 58 88 9435
3.8929887 7.9326658 -2.1867959 801 83210600 6640 59 76 9103
5.3754768 8.413909 -2.5622756 468 83210600 4968 60 53 10308
4.4413691 7.5605469 -2.338378 468 83210600 3851 61 48 9075
4.1809845 7.7718554 -2.446753 392 83210600 3291 62 63 9158
3.9303794 8.0173454 -2.5756826 426 83210600 3678 63 123 9293
4.5178094 7.0536513 2.6145821 141 83308130 1089 0 60 8775
4.154892 7.0656567 2.460233 110 83308130 806 1 103 8558
3.7557147 6.9735885 2.2935114 158 83308130 1071 2 56 8246
3.3627717 6.849967 2.1315842 187 83308130 1171 3 48 7923
4.6153355 7.2139554 2.3134766 140 83308130 1105 4 73 8871
4.2094226 7.1512461 2.1533155 109 83308130 798 5 40 8573
3.8004396 7.0501475 1.995146 80 83308130 546 6 94 8254
3.4569452 7.0238156 1.8713514 85 83308130 548 7 56 8049
4.597425 7.1890001 1.9664711 666 83308130 5108 8 100 8757
4.182138 7.1111379 1.8147334 624 83308130 4454 9 93 8447
3.7899251 7.021544 1.6750559 720 83308130 4789 10 72 8153
3.4414923 6.9770441 1.5573525 683 83308130 4296 11 52 7934
4.6312122 7.2443399 1.6496785 740 83308130 5672 12 121 8755
4.2249746 7.1776676 1.5122524 783 83308130 5613 13 86 8465
3.8208387 7.0755668 1.3808806 732 83308130 4873 14 109 8159
3.4709375 7.0324078 1.2731305 714 83308130 4509 15 72 7945
4.6911464 7.3378096 1.3420314 714 83308130 5548 16 68 8812
4.2762933 7.2610817 1.2158135 770 83308130 5583 17 92 8514
3.8813012 7.1782417 1.0986848 752 83308130 5099 18 104 8234
3.5014412 7.0833054 0.98796219 781 83308130 4952 19 114 7963
4.7632518 7.4503093 1.033318 688 83308130 5454 20 105 8903
4.3324738 7.3538337 0.91425639 703 83308130 5181 21 104 8584
3.9386632 7.2761321 0.80673027 716 83308130 4951 22 78 8313
3.5516157 7.1750317 0.7059204 798 83308130 5154 23 133 8037
4.8188572 7.5340953 0.71611083 664 83308130 5347 24 86 8972
4.3813267 7.4323053 0.608293 765 83308130 5724 25 87 8649
3.9792566 7.3505096 0.50932401 785 83308130 5504 26 123 8374
3.5995467 7.2610216 0.41720986 784 83308130 5162 27 128 8115
4.8969784 7.6479979 0.39475673 726 83308130 6002 28 81 9090
4.439003 7.5241404 0.29606083 710 83308130 5428 29 63 8741
4.0357466 7.4381051 0.20873846 786 83308130 5629 30 56 8465
3.6381302 7.332098 0.12229446 846 83308130 5671 31 85 8186
4.9504175 7.730567 0.064087972 696 83308130 5864 32 126 9180
4.4956489 7.6137776 -0.022376668 763 83308130 5964 33 143 8842
4.0843391 7.5254703 -0.10222312 753 83308130 5523 34 103 8563
3.7020571 7.4488482 -0.17845114 795 83308130 5505 35 83 8320
4.9979854 7.7964568 -0.27501941 762 83308130 6538 36 152 9265
4.5446029 7.683815 -0.3491891 821 83308130 6557 37 66 8934
4.1225228 7.5882411 -0.42039576 832 83308130 6220 38 224 8646
3.7360728 7.5176196 -0.48830497 868 83308130 6140 39 83 8409
5.089138 7.9249411 -0.62506622 802 83308130 7143 40 139 9439
4.6015511 7.7720494 -0.68435961 836 83308130 6858 41 124 9058
4.168808 7.6683316 -0.74520558 830 83308130 6367 42 147 8760
3.7678494 7.5712786 -0.8025499 894 83308130 6454 43 68 8495
5.1557207 8.0224648 -0.98447353 746 83308130 6855 44 140 9587
4.6648293 7.871717 -1.0308777 766 83308130 6498 45 74 9208
4.2349072 7.7802076 -1.0824604 836 83308130 6657 46 131 8924
3.8247564 7.6809239 -1.1329991 841 83308130 6296 47 167 8655
5.1764965 8.0399752 -1.3420197 629 83308130 5862 48 143 9656
4.7477121 8.0036144 -1.3962467 736 83308130 6518 49 98 9410
4.2959023 7.8824334 -1.4348383 746 83308130 6169 50 68 9091
3.86902 7.76438 -1.4722435 862 83308130 6677 51 70 8799
5.0481038 7.8252478 -1.6597692 498 83308130 4457 52 101 9459
4.7599287 8.0149612 -1.7517751 576 83308130 5180 53 138 9485
4.3575807 7.9896312 -1.8000062 791 83308130 6810 54 86 9277
3.9269767 7.8810325 -1.8330908 793 83308130 6418 55 67 8994
4.8696237 7.5393324 -1.9470733 474 83308130 3995 56 150 9184
4.6388016 7.8016949 -2.0579917 499 83308130 4325 57 79 9307
4.3807058 8.0283632 -2.1670265 449 83308130 3969 58 85 9399
3.9363933 7.8982038 -2.1839132 631 83308130 5215 59 119 9091
5.5091338 8.5076008 -2.6010528 488 83308130 5349 60 60 10464
4.4402027 7.4534626 -2.3136413 390 83308130 3141 61 49 8979
4.2175117 7.7257557 -2.440341 421 83308130 3515 62 85 9134
3.9383893 7.9105072 -2.5490749 332 83308130 2812 63 60 9197
4.6233773 7.1218767 2.650337 101 83406220 801 0 82 8895
4.1863942 7.0202866 2.4533334 166 83406220 1211 1 92 8534
3.7984331 6.9504123 2.2935114 142 83406220 963 2 47 8246
3.4305227 6.8809214 2.1477263 220 83406220 1399 3 48 7983
4.6721187 7.2049403 2.3197358 142 83406220 1127 4 67 8895
4.2651291 7.1452303 2.1593437 149 83406220 1099 5 38 8597
3.8771548 7.0879893 2.0125496 96 83406220 667 6 93 8326
3.5208492 7.0442305 1.882511 70 83406220 462 7 66 8097
4.6796112 7.2195311 1.9826394 641 83406220 4997 8 110 8829
4.2497048 7.1256056 1.8250456 579 83406220 4179 9 108 8495
3.8555028 7.0393577 1.6849174 723 83406220 4865 10 79 8201
3.4895077 6.9663172 1.559708 721 83406220 4554 11 77 7946
4.7204356 7.2850194 1.6655064 685 83406220 5351 12 131 8839
4.2931433 7.1921611 1.5208277 742 83406220 5380 13 86 8513
3.8982813 7.1142201 1.3930663 762 83406220 5162 14 121 8231
3.5140224 7.0109782 1.2731305 799 83406220 5045 15 81 7945
4.7683296 7.3586531 1.3511692 712 83406220 5608 16 76 8872
4.3390355 7.2652974 1.2209544 744 83406220 5440 17 97 8550
3.9424348 7.1855707 1.1034884 779 83406220 5330 18 68 8270
3.5662057 7.1042547 0.99391752 818 83406220 5251 19 94 8011
4.8348026 7.4609513 1.0388891 673 83406220 5394 20 95 8951
4.3958735 7.357841 0.9180907 736 83406220 5469 21 119 8620
4.000484 7.2832317 0.81022382 711 83406220 4958 22 88 8349
3.6116793 7.1851444 0.70908237 800 83406220 5212 23 152 8073
4.9040365 7.5646081 0.72185761 674 83406220 5515 24 85 9044
4.4575582 7.4566545 0.61251289 747 83406220 5668 25 84 8709
4.041584 7.3574495 0.51151365 752 83406220 5316 26 144 8410
3.6655858 7.2816153 0.41967762 783 83406220 5216 27 122 8163
4.9568663 7.6379199 0.39579901 731 83406220 6074 28 100 9114
4.5035586 7.527637 0.29728016 676 83406220 5204 29 49 8777
4.1044526 7.4552383 0.20992211 771 83406220 5591 30 65 8513
3.7100456 7.3632131 0.12319081 774 83406220 5264 31 101 8246
5.0304236 7.7503738 0.064506851 653 83406220 5576 32 103 9240
4.5607753 7.6169357 -0.022467775 743 83406220 5855 33 139 8878
4.1478024 7.5317993 -0.10265287 755 83406220 5583 34 120 8599
3.7585034 7.4474139 -0.1789659 820 83406220 5711 35 78 8344
5.098011 7.846107 -0.27786902 765 83406220 6701 36 152 9361
4.6225014 7.707201 -0.35153425 808 83406220 6539 37 81 8994
4.2095094 7.6362791 -0.42448008 778 83406220 5930 38 219 8730
3.7929242 7.5159445 -0.48969865 839 83406220 5967 39 123 8433
5.1637955 7.9337068 -0.62824488 765 83406220 6886 40 105 9487
4.6861076 7.8052211 -0.68979937 800 83406220 6667 41 134 9130
4.244657 7.6949549 -0.75030977 846 83406220 6577 42 165 8820
3.8411748 7.6013284 -0.80821824 805 83406220 5894 43 71 8555
5.2374225 8.0406876 -0.99063474 715 83406220 6653 44 132 9647
4.7560363 7.9144936 -1.0402819 766 83406220 6616 45 82 9292
4.3056006 7.795783 -1.0882826 851 83406220 6851 46 119 8972
3.8879178 7.6891603 -1.1377116 849 83406220 6410 47 154 8691
5.2452145 8.0379181 -1.3470231 566 83406220 5316 48 124 9692
4.8273168 8.025178 -1.4051493 738 83406220 6623 49 59 9470
4.3499212 7.8662953 -1.4367323 818 83406220 6781 50 82 9103
3.9432952 7.7932758 -1.4822826 792 83406220 6218 51 87 8859
5.0895586 7.7842383 -1.6576635 504 83406220 4498 52 117 9447
4.7785974 7.9350882 -1.7406937 466 83406220 4139 53 118 9425
4.3381228 7.8391433 -1.772066 546 83406220 4555 54 107 9133
3.9858677 7.8777542 -1.8379824 795 83406220 6468 55 69 9018
4.864408 7.4308167 -1.9267206 351 83406220 2899 56 115 9088
4.6563716 7.7229738 -2.0447245 569 83406220 4869 57 62 9247
4.3054571 7.7765908 -2.106159 363 83406220 3026 58 163 9135
4.0216002 7.9466558 -2.2040923 543 83406220 4569 59 142 9175
5.6186299 8.5610943 -2.6278985 612 83406220 6845 60 66 10572
4.4858527 7.4260778 -2.3136413 339 83406220 2730 61 48 8979
4.2648368 7.6997323 -2.440341 414 83406220 3458 62 58 9134
3.9608433 7.834744 -2.532445 397 83406220 3318 63 61 9137
4.6669893 7.0933743 2.650337 92 83502980 731 0 67 8895
4.2650738 7.0534778 2.4740317 144 83502980 1068 1 86 8606
3.8633673 6.9672971 2.3068619 149 83502980 1022 2 54 8294
3.4935591 6.9009886 2.1606402 187 83502980 1204 3 46 8031
