# .PCD v0.7 - Point Cloud Data file format
VERSION 0.7
FIELDS x y z intensity t reflectivity ring noise range
SIZE 4 4 4 4 4 2 1 2 4
TYPE F F F F U U U U U
COUNT 1 1 1 1 1 1 1 1 1
WIDTH 780
HEIGHT 1
VIEWPOINT 0 0 0 1 0 0 0
POINTS 780
DATA ascii
1.3564979 -1.9885935 -0.66739345 278 15720780 173 62 47 2498
1.3732858 -1.8584361 -0.66657883 134 15720780 77 63 51 2405
1.133373 -1.967905 0.70884228 262 15818060 148 0 84 2379
1.2293595 -1.9581817 0.6939708 319 15818060 186 1 85 2414
1.3447136 -1.9732823 0.69144666 273 15818060 168 2 43 2486
1.4567746 -1.9736934 0.68523854 342 15818060 222 3 43 2547
1.1472224 -1.989623 0.62042177 337 15818060 191 4 64 2379
1.2307293 -1.9622645 0.60105962 323 15818060 185 5 52 2393
1.3817039 -2.0292373 0.6115483 221 15818060 142 6 65 2530
1.4379303 -1.9522957 0.57960975 354 15818060 220 7 60 2493
0.98601097 -1.7092762 0.45473382 497 15818060 204 8 1 2025
1.245677 -1.9844037 0.51539546 84 15818060 48 9 54 2399
1.3368566 -1.9656577 0.4990446 351 15818060 207 10 52 2429
1.3323822 -1.8123016 0.4502857 80 15818060 42 11 39 2294
1.0165786 -1.7616266 0.39023232 311 15818060 133 12 100 2071
1.1632079 -1.8546088 0.39749107 413 15818060 205 13 80 2225
1.2361993 -1.818406 0.37758851 99 15818060 49 14 81 2231
1.2420331 -1.6902744 0.34051633 72 15818060 32 15 51 2125
1.0333881 -1.790828 0.31860298 336 15818060 147 16 24 2092
1.1008197 -1.7560227 0.29902673 272 15818060 119 17 63 2094
1.0633746 -1.5660086 0.25485647 276 15818060 101 18 64 1910
1.2369657 -1.685535 0.26141357 74 15818060 33 19 59 2107
1.0360053 -1.7954358 0.24222563 293 15818060 128 20 90 2087
1.0855513 -1.7322711 0.21897845 288 15818060 122 21 52 2056
1.0911888 -1.6086005 0.18952775 274 15818060 105 22 73 1953
1.2491087 -1.7040137 0.18629552 124 15818060 56 23 104 2121
1.0677682 -1.8513031 0.1711259 320 15818060 147 24 59 2144
1.1039575 -1.7626684 0.14664018 287 15818060 125 25 75 2085
1.1486272 -1.6934019 0.12468525 265 15818060 111 26 125 2050
1.1840286 -1.6172442 0.10318425 304 15818060 122 27 89 2007
1.1281179 -1.9581482 0.098233193 353 15818060 181 28 74 2262
1.154224 -1.8443588 0.073735781 249 15818060 118 29 27 2177
1.1729057 -1.7327083 0.051611297 247 15818060 108 30 30 2093
1.1984491 -1.6382004 0.030327111 336 15818060 139 31 76 2030
1.1260582 -1.9548097 0.015749723 648 15818060 330 32 99 2256
1.175944 -1.8805981 -0.0056131477 298 15818060 147 33 91 2218
1.2413388 -1.8342859 -0.026442159 265 15818060 130 34 104 2215
1.2479701 -1.7082059 -0.045384929 271 15818060 121 35 69 2116
1.1430793 -1.9866018 -0.068064705 465 15818060 244 36 137 2293
1.2223539 -1.9580092 -0.09028732 347 15818060 185 37 79 2310
1.2654856 -1.8716553 -0.10998556 311 15818060 159 38 136 2262
1.2703267 -1.7387439 -0.12525554 291 15818060 136 39 78 2157
1.118643 -1.9476702 -0.14906496 507 15818060 257 40 88 2251
1.2083521 -1.9375374 -0.1730165 458 15818060 240 41 104 2290
1.2986885 -1.9219189 -0.19804093 402 15818060 218 42 138 2328
1.3092717 -1.7940862 -0.21076973 317 15818060 158 43 67 2231
1.1283625 -1.9661818 -0.2340268 508 15818060 264 44 113 2279
1.2191876 -1.9566605 -0.2597346 441 15818060 238 45 59 2320
1.2039353 -1.7837068 -0.26297334 674 15818060 317 46 89 2168
1.3688328 -1.8766652 -0.30671483 506 15818060 278 47 127 2343
1.114327 -1.9454981 -0.31465748 485 15818060 249 48 98 2264
1.2866814 -2.0669894 -0.36530915 73 15818060 44 49 52 2462
1.2823213 -1.9019876 -0.36664057 618 15818060 334 50 69 2323
1.3398213 -1.8379685 -0.38600591 70 15818060 37 51 46 2307
1.1329372 -1.9820784 -0.40691453 87 15818060 47 52 84 2319
1.2231712 -1.967182 -0.43531194 48 15818060 27 53 73 2357
1.3555459 -2.0119603 -0.47983348 49 15818060 30 54 80 2473
1.4567869 -1.9983487 -0.51483071 42 15818060 27 55 52 2526
1.0949483 -1.9181024 -0.47913608 370 15818060 189 56 107 2260
1.2137802 -1.9543599 -0.52162915 193 15818060 108 57 68 2359
1.2996236 -1.9297576 -0.55126721 395 15818060 226 58 78 2391
1.3830947 -1.8976091 -0.58111167 190 15818060 111 59 67 2419
1.1098639 -1.9495225 -0.57569176 492 15818060 264 60 38 2316
1.205012 -1.9438735 -0.60991079 468 15818060 262 61 37 2367
1.3119823 -1.948916 -0.65136319 397 15818060 236 62 63 2438
1.3686519 -1.876142 -0.66990477 201 15818060 117 63 45 2417
1.1325885 -1.9947447 0.71599323 227 15915030 131 0 81 2403
1.2173212 -1.9656881 0.6939708 350 15915030 204 1 94 2414
1.3390129 -1.9910611 0.69478434 284 15915030 177 2 53 2498
1.4310242 -1.9639131 0.67878157 348 15915030 221 3 39 2523
1.1178175 -1.966411 0.61103326 333 15915030 183 4 89 2343
1.2247772 -1.9796569 0.60407376 327 15915030 189 5 53 2405
1.3172717 -1.960358 0.58834326 321 15915030 190 6 101 2434
1.4121969 -1.9422027 0.57402986 374 15915030 228 7 69 2469
0.97550446 -1.715294 0.45473382 499 15915030 205 8 27 2025
1.1964577 -1.9322245 0.49992713 104 15915030 56 9 42 2327
1.3116809 -1.954321 0.49411374 318 15915030 184 10 58 2405
1.3696171 -1.8871024 0.4667739 125 15915030 70 11 48 2378
1.011578 -1.7780744 0.39249349 307 15915030 133 12 70 2083
1.0586264 -1.7111008 0.36533448 512 15915030 214 13 27 2045
1.2052512 -1.7964928 0.37149563 109 15915030 53 14 93 2195
1.2455487 -1.7170395 0.3443622 71 15915030 33 15 49 2149
1.0517031 -1.8486784 0.32774079 299 15915030 138 16 36 2152
1.065038 -1.7223372 0.29217222 415 15915030 174 17 49 2046
1.0471253 -1.5626243 0.25325528 310 15915030 112 18 79 1898
1.1776991 -1.6255944 0.25099176 130 15915030 53 19 77 2023
1.0249691 -1.8017588 0.24222563 297 15915030 130 20 61 2087
1.0749018 -1.7388992 0.21897845 263 15915030 111 21 72 2056
1.1145176 -1.6648897 0.19535041 281 15915030 114 22 91 2013
1.1265048 -1.5567021 0.16943143 315 15915030 117 23 125 1929
1.0741266 -1.8890147 0.17399928 313 15915030 149 24 60 2180
1.0994126 -1.7795926 0.14748415 282 15915030 124 25 66 2097
1.1382151 -1.7004179 0.12468525 251 15915030 105 26 125 2050
1.1319635 -1.5662016 0.099482566 327 15915030 122 27 113 1935
1.0983192 -1.9337597 0.096669801 388 15915030 193 28 65 2226
1.1491853 -1.8616116 0.074142225 282 15915030 135 29 48 2189
1.1889064 -1.779774 0.052794926 253 15915030 116 30 44 2141
1.1883748 -1.6455232 0.030327111 254 15915030 105 31 72 2030
1.1199683 -1.9721168 0.015833499 431 15915030 222 32 107 2268
1.1958809 -1.938845 -0.005764991 330 15915030 171 33 85 2278
1.2233964 -1.8318894 -0.026298905 288 15915030 140 34 87 2203
1.2374653 -1.7158313 -0.045384929 268 15915030 120 35 87 2116
1.1190318 -1.972712 -0.067352295 436 15915030 224 36 131 2269
1.2228914 -1.985893 -0.091225371 355 15915030 194 37 83 2334
1.2805872 -1.9192659 -0.11231948 356 15915030 190 38 140 2310
1.2946726 -1.7950872 -0.1287397 295 15915030 145 39 80 2217
1.1125708 -1.9649166 -0.14985961 469 15915030 240 40 105 2263
1.1964409 -1.9449153 -0.1730165 476 15915030 250 41 98 2290
1.2868714 -1.9298513 -0.19804093 440 15915030 238 42 146 2328
1.3261703 -1.8408579 -0.21530442 337 15915030 175 43 74 2279
1.1045216 -1.9522901 -0.23156229 486 15915030 247 44 100 2255
1.2071588 -1.9641044 -0.2597346 452 15915030 243 45 57 2320
1.2391899 -1.8604556 -0.27316234 393 15915030 199 46 115 2252
1.3572921 -1.885029 -0.30671483 157 15915030 86 47 108 2343
1.1023686 -1.9522989 -0.31465748 473 15915030 243 48 98 2264
1.2367176 -2.0141675 -0.35462588 213 15915030 121 49 51 2390
1.3034453 -1.959148 -0.37611037 353 15915030 200 50 54 2383
1.3699808 -1.9037721 -0.3980529 82 15915030 47 51 65 2379
1.1033555 -1.9581157 -0.4005976 269 15915030 140 52 75 2283
1.2110778 -1.9746503 -0.43531194 48 15915030 27 53 73 2357
1.2779989 -1.9222099 -0.45655003 43 15915030 24 54 51 2353
1.3621513 -1.8928224 -0.48548171 27 15915030 16 55 58 2382
1.1004122 -1.9554451 -0.48676834 258 15915030 136 56 100 2296
1.2017655 -1.9617708 -0.52162915 253 15915030 141 57 50 2359
1.2942214 -1.9474206 -0.55403394 337 15915030 194 58 53 2403
1.3782284 -1.9155154 -0.58399445 185 15915030 110 59 80 2431
1.0865039 -1.9360232 -0.56972599 463 15915030 243 60 45 2292
1.1930619 -1.9512308 -0.60991079 456 15915030 255 61 45 2367
1.2999992 -1.9569294 -0.65136319 428 15915030 255 62 59 2438
1.3571143 -1.8845047 -0.66990477 147 15915030 86 63 56 2417
1.1091384 -1.9816651 0.70884228 286 16011890 162 0 63 2379
1.1932546 -1.9535037 0.68707132 322 16011890 184 1 86 2390
1.3331443 -2.0088437 0.69812196 278 16011890 175 2 49 2510
1.4121981 -1.9632744 0.6755532 333 16011890 210 3 47 2511
1.0887414 -1.9429141 0.60164475 337 16011890 179 4 81 2307
1.2126071 -1.9871348 0.60407376 325 16011890 188 5 37 2405
1.3116534 -1.9781083 0.59124392 300 16011890 180 6 104 2446
1.4070588 -1.9603127 0.57681984 380 16011890 234 7 75 2481
0.96496123 -1.7212473 0.45473382 294 16011890 120 8 53 2025
1.1723619 -1.9195257 0.49477103 113 16011890 60 9 51 2303
1.2931799 -1.9525412 0.49164829 342 16011890 196 10 52 2393
1.3854238 -1.9337308 0.47619575 213 16011890 125 11 24 2426
1.0064135 -1.7945267 0.39475456 302 16011890 133 12 85 2095
1.0481074 -1.7175642 0.36533448 459 16011890 192 13 15 2045
1.2333776 -1.863024 0.38368139 190 16011890 98 14 87 2267
1.2556783 -1.753541 0.35013095 71 16011890 34 15 55 2185
1.046141 -1.865441 0.3295683 316 16011890 148 16 55 2164
1.0730032 -1.7592592 0.29731309 462 16011890 201 17 58 2082
1.0506368 -1.5888599 0.25645766 273 16011890 101 18 69 1922
1.1053635 -1.5456218 0.23759231 303 16011890 111 19 64 1915
1.0197242 -1.8184098 0.24361841 295 16011890 130 20 65 2099
1.0642118 -1.7454619 0.21897845 292 16011890 124 21 69 2056
1.0976982 -1.6617316 0.1941859 266 16011890 107 22 84 2001
1.1099834 -1.553858 0.16837741 324 16011890 119 23 108 1917
1.074213 -1.9164385 0.17591487 318 16011890 155 24 65 2204
1.1133876 -1.8271933 0.15086004 289 16011890 133 25 61 2145
1.1277601 -1.7073698 0.12468525 265 16011890 111 26 119 2050
1.1571331 -1.6218965 0.1025673 285 16011890 113 27 89 1995
1.0922899 -1.9509232 0.097190939 410 16011890 206 28 71 2238
1.1564522 -1.899359 0.075361557 280 16011890 139 29 63 2225
1.1779636 -1.7870355 0.052794926 275 16011890 126 30 59 2141
1.1991507 -1.6820942 0.03086493 261 16011890 112 31 78 2066
1.1078465 -1.9789517 0.015833499 399 16011890 205 32 100 2268
1.1839619 -1.9461464 -0.005764991 364 16011890 189 33 67 2278
1.2055306 -1.8293425 -0.026155654 293 16011890 141 34 110 2191
1.2686614 -1.7820328 -0.046929218 277 16011890 133 35 65 2188
1.1127604 -1.9900104 -0.0677085 437 16011890 227 36 142 2281
1.1920094 -1.9626132 -0.089818291 623 16011890 329 37 65 2298
1.2556044 -1.9070655 -0.11115251 364 16011890 190 38 139 2286
1.276686 -1.7932384 -0.12804288 295 16011890 144 39 68 2205
1.0888222 -1.9507955 -0.14827029 479 16011890 240 40 108 2239
1.1968983 -1.9726797 -0.17482977 472 16011890 253 41 83 2314
1.2881502 -1.9576874 -0.20008259 403 16011890 223 42 132 2352
1.3079268 -1.8392249 -0.21417077 329 16011890 169 43 74 2267
1.0983357 -1.9694556 -0.23279455 506 16011890 260 44 121 2267
1.1950846 -1.9714744 -0.2597346 456 16011890 246 45 80 2320
1.2866307 -1.9576097 -0.28626248 166 16011890 92 46 117 2360
1.3181313 -1.8545339 -0.30043128 47 16011890 25 47 123 2295
1.07881 -1.9382589 -0.31132188 460 16011890 231 48 86 2240
1.2058938 -1.9912653 -0.34928423 225 16011890 124 49 50 2354
1.2653874 -1.9274859 -0.36853451 157 16011890 85 50 55 2335
1.3719763 -1.9314325 -0.40206856 144 16011890 83 51 50 2403
1.0798476 -1.9441935 -0.39638633 353 16011890 180 52 99 2259
1.2111468 -2.0022261 -0.43974447 53 16011890 30 53 78 2381
1.2920097 -1.9693865 -0.46586338 70 16011890 40 54 51 2401
1.3709222 -1.9298774 -0.49281898 34 16011890 20 55 44 2418
1.0883932 -1.9621602 -0.48676834 261 16011890 138 56 107 2296
1.1776018 -1.9490743 -0.5163222 276 16011890 151 57 62 2335
1.2822479 -1.9553251 -0.55403394 300 16011890 173 58 63 2403
1.3799392 -1.94293 -0.58975989 158 16011890 95 59 55 2455
1.0689781 -1.9324826 -0.5667432 454 16011890 236 60 33 2280
1.1690916 -1.9386564 -0.60372669 430 16011890 236 61 36 2343
1.2752883 -1.9455267 -0.64495105 425 16011890 247 62 44 2414
1.352206 -1.9021938 -0.67323077 34 16011890 20 63 50 2429
1.036093 -1.8781041 0.6695118 119 16109370 60 0 91 2247
1.1931075 -1.9804785 0.6939708 303 16109370 177 1 92 2414
1.295535 -1.9784139 0.68477142 271 16109370 164 2 51 2462
1.3934339 -1.9624788 0.67232472 340 16109370 212 3 54 2499
1.0711983 -1.9394172 0.59851527 413 16109370 218 4 71 2295
1.1884124 -1.9746338 0.59804553 323 16109370 183 5 52 2381
1.2867408 -1.9666317 0.58544266 325 16109370 191 6 96 2422
1.3950042 -1.9689094 0.57681984 357 16109370 220 7 87 2481
0.98265964 -1.7783102 0.46820739 291 16109370 126 8 57 2085
1.112184 -1.8463696 0.4741466 130 16109370 63 9 46 2207
1.281175 -1.9604393 0.49164829 316 16109370 181 10 60 2393
1.3735325 -1.9421953 0.47619575 340 16109370 200 11 40 2426
1.0181894 -1.8419245 0.40379909 318 16109370 146 12 99 2143
1.019284 -1.6936145 0.35890317 485 16109370 196 13 22 2009
1.221923 -1.8705567 0.38368139 191 16109370 98 14 114 2267
1.2038734 -1.7031773 0.33859345 92 16109370 41 15 61 2113
1.0346752 -1.8718247 0.3295683 321 16109370 150 16 41 2164
1.086677 -1.8065203 0.3041676 401 16109370 182 17 90 2130
1.0603639 -1.625157 0.26126122 292 16109370 112 18 58 1958
1.068391 -1.5134645 0.231637 344 16109370 120 19 66 1867
1.031611 -1.8663582 0.24918947 302 16109370 139 20 66 2147
1.0657794 -1.77241 0.22153464 275 16109370 119 21 64 2080
1.0744381 -1.6484245 0.19185682 259 16109370 101 22 79 1977
1.1073169 -1.5704088 0.16943143 312 16109370 116 23 108 1929
1.0566492 -1.9125237 0.17495708 313 16109370 151 24 75 2192
1.1021551 -1.8339906 0.15086004 308 16109370 142 25 85 2145
1.1368828 -1.7443615 0.12687485 270 16109370 117 26 113 2086
1.16096 -1.6485626 0.10380119 291 16109370 119 27 89 2019
1.0745062 -1.9470921 0.096669801 670 16109370 332 28 77 2226
1.138602 -1.8961372 0.074955113 290 16109370 142 29 48 2213
1.1931394 -1.8344554 0.053978559 279 16109370 134 30 46 2189
1.1819022 -1.6796077 0.030685658 293 16109370 124 31 63 2054
1.1072776 -2.0067248 0.016001049 424 16109370 223 32 109 2292
1.1781721 -1.9636644 -0.0057953601 351 16109370 184 33 92 2290
1.2204473 -1.8769431 -0.026728665 283 16109370 142 34 93 2239
1.2301117 -1.7505195 -0.045899689 273 16109370 125 35 74 2140
1.1005291 -1.9968007 -0.0677085 420 16109370 218 36 123 2281
1.1676215 -1.9493171 -0.088880241 428 16109370 222 37 62 2274
1.2438792 -1.9147338 -0.11115251 391 16109370 204 38 136 2286
1.2932105 -1.8402444 -0.1308302 302 16109370 153 39 82 2253
1.0826032 -1.9679308 -0.14906496 467 16109370 236 40 149 2251
1.1663396 -1.9491831 -0.17210986 476 16109370 247 41 106 2278
1.2761137 -1.9655545 -0.20008259 408 16109370 226 42 138 2352
1.3034803 -1.8569933 -0.21530442 332 16109370 173 43 68 2279
1.074731 -1.9552367 -0.23033002 483 16109370 243 44 107 2243
1.1890841 -1.9890051 -0.26107806 457 16109370 249 45 74 2332
1.2681139 -1.9554735 -0.28480691 156 16109370 86 46 110 2348
1.2862296 -1.8333699 -0.29571864 46 16109370 24 47 108 2259
1.0668968 -1.9448419 -0.31132188 414 16109370 208 48 88 2240
1.2058226 -2.0190039 -0.35284531 169 16109370 96 49 61 2378
1.221326 -1.885487 -0.35906467 135 16109370 70 50 49 2275
1.3533074 -1.9301274 -0.40006071 274 16109370 157 51 69 2391
1.0962617 -2.0025964 -0.40691453 264 16109370 142 52 107 2319
1.1867546 -1.9893633 -0.43531194 47 16109370 26 53 71 2357
1.2799015 -1.977277 -0.46586338 64 16109370 37 54 75 2401
1.3320761 -1.8997763 -0.48303595 50 16109370 28 55 41 2370
1.087584 -1.9893816 -0.49185655 118 16109370 64 56 106 2320
1.1596301 -1.9462098 -0.51366872 250 16109370 135 57 66 2323
1.2638829 -1.9533525 -0.55126721 429 16109370 245 58 65 2391
1.3746784 -1.9608986 -0.59264261 336 16109370 205 59 72 2467
1.0682278 -1.9594159 -0.5727089 409 16109370 217 60 48 2304
1.1512476 -1.9358276 -0.60063457 424 16109370 230 61 52 2331
1.2570468 -1.9436053 -0.64174503 419 16109370 242 62 68 2402
1.2809062 -1.8255109 -0.64329708 21 16109370 11 63 47 2321
0.93153304 -1.7133433 0.60872829 96 16207360 40 0 45 2043
1.1691923 -1.9679997 0.68707132 315 16207360 180 1 87 2390
1.2958817 -2.0056889 0.69144666 287 16207360 177 2 54 2486
1.374733 -1.9615273 0.66909629 348 16207360 215 3 45 2487
1.0648168 -1.9561285 0.60164475 399 16207360 213 4 62 2307
1.1762739 -1.9818885 0.59804553 327 16207360 185 5 38 2381
1.2746495 -1.9744899 0.58544266 323 16207360 190 6 98 2422
1.3427644 -1.9200457 0.56008017 308 16207360 179 7 68 2409
0.9829151 -1.8048451 0.47359687 376 16207360 167 8 47 2109
1.0110515 -1.702018 0.43547586 416 16207360 171 9 40 2027
1.2627577 -1.9583933 0.48918286 324 16207360 183 10 56 2381
1.3683246 -1.960235 0.47855124 391 16207360 232 11 26 2438
1.0125066 -1.8584863 0.40606022 304 16207360 141 12 77 2155
1.0148991 -1.7099901 0.36104697 436 16207360 178 13 9 2021
1.2104225 -1.8780191 0.38368139 132 16207360 68 14 99 2267
1.1324029 -1.623103 0.32128718 152 16207360 61 15 47 2005
1.0572131 -1.9406271 0.34053361 351 16207360 175 16 57 2236
1.0816314 -1.8233691 0.30588123 333 16207360 153 17 82 2142
1.0439348 -1.6216329 0.25966004 310 16207360 118 18 60 1946
1.0999275 -1.5786092 0.24056998 338 16207360 127 19 62 1939
1.0201398 -1.8726529 0.24918947 319 16207360 147 20 80 2147
1.0548841 -1.7789161 0.22153464 287 16207360 124 21 73 2080
1.0836836 -1.6851223 0.19535041 281 16207360 114 22 69 2013
1.1181452 -1.6066077 0.17259344 267 16207360 103 23 160 1965
1.062055 -1.9504871 0.17783047 337 16207360 168 24 69 2228
1.096984 -1.8510163 0.15170401 300 16207360 140 25 70 2157
1.1326365 -1.7613789 0.12760471 268 16207360 118 26 112 2098
1.1645026 -1.6753359 0.10503507 266 16207360 111 27 99 2043
1.0625389 -1.9536484 0.096669801 453 16207360 225 28 69 2226
1.1513897 -1.944366 0.07658089 348 16207360 178 29 43 2261
1.2012976 -1.8720309 0.054866284 294 16207360 145 30 41 2225
1.1989524 -1.7262475 0.031402752 326 16207360 144 31 59 2102
1.0777457 -1.9818559 0.015749723 445 16207360 226 32 113 2256
1.1599905 -1.9605289 -0.005764991 358 16207360 186 33 64 2278
1.2089076 -1.8843962 -0.026728665 344 16207360 173 34 89 2239
1.2261851 -1.7678926 -0.046157073 316 16207360 146 35 76 2152
1.0882561 -2.0035157 -0.0677085 434 16207360 226 36 139 2281
1.1678354 -1.9770932 -0.089818291 412 16207360 218 37 68 2298
1.2515105 -1.952603 -0.11290295 416 16207360 224 38 148 2322
1.2818946 -1.8481447 -0.1308302 333 16207360 169 39 63 2253
1.0533874 -1.9429579 -0.14668098 461 16207360 226 40 93 2215
1.1726004 -1.987219 -0.17482977 454 16207360 243 41 112 2314
1.2511312 -1.9532114 -0.19804093 667 16207360 361 42 152 2328
1.3192748 -1.904236 -0.21983916 350 16207360 189 43 55 2327
1.0683992 -1.9722899 -0.23156229 458 16207360 233 44 107 2255
1.1708016 -1.9859915 -0.2597346 427 16207360 230 45 70 2320
1.2560914 -1.9632177 -0.28480691 159 16207360 88 46 107 2348
1.2681835 -1.8314469 -0.29414776 41 16207360 21 47 103 2247
1.049292 -1.9408981 -0.30965412 458 16207360 227 48 97 2228
1.1753447 -1.9956878 -0.34750366 190 16207360 104 49 58 2342
1.1523046 -1.8030823 -0.34201896 173 16207360 81 50 41 2167
1.3818334 -1.9967656 -0.41210771 178 16207360 108 51 48 2463
1.0783443 -1.9988879 -0.40480891 280 16207360 149 52 102 2307
1.0967889 -1.8644606 -0.40650049 19 16207360 9 53 66 2201
1.2424008 -1.945408 -0.45655003 31 16207360 17 54 63 2353
1.3070232 -1.8885934 -0.47814447 41 16207360 22 55 45 2346
0.98636186 -1.8308296 -0.45115113 48 16207360 22 56 89 2128
1.1595236 -1.9734688 -0.51897568 219 16207360 121 57 71 2347
1.2393078 -1.9413862 -0.54573381 414 16207360 232 58 60 2367
1.3427365 -1.9405595 -0.58399445 458 16207360 271 59 81 2431
1.0616859 -1.9761728 -0.57569176 270 16207360 145 60 44 2316
1.1452132 -1.952857 -0.60372669 429 16207360 235 61 42 2343
1.2450974 -1.9512818 -0.64174503 449 16207360 259 62 69 2402
1.3484548 -1.9470803 -0.68320864 22 16207360 13 63 50 2465
0.93182212 -1.739221 0.61587936 106 16303400 45 0 57 2067
1.1570948 -1.9751368 0.68707132 327 16303400 187 1 88 2390
1.2711592 -1.9941633 0.68477142 272 16303400 165 2 45 2462
1.3495213 -1.9509153 0.66263938 344 16303400 209 3 58 2463
1.0418417 -1.9422076 0.59538573 410 16303400 214 4 93 2283
1.1582243 -1.9790442 0.5950315 327 16303400 183 5 56 2369
1.256255 -1.9724524 0.582542 312 16303400 181 6 88 2410
1.3707376 -1.98588 0.57681984 166 16303400 102 7 54 2481
0.98841101 -1.8417526 0.48168102 390 16303400 179 8 55 2145
0.99466544 -1.698077 0.43289781 463 16303400 188 9 49 2015
1.2318069 -1.9363778 0.48178655 350 16303400 193 10 65 2345
1.3629466 -1.9782834 0.48090667 382 16303400 229 11 46 2450
1.0010841 -1.864664 0.40606022 348 16303400 162 12 112 2155
1.0282425 -1.7569456 0.36962202 296 16303400 127 13 45 2069
1.154454 -1.8155499 0.36946467 244 16303400 116 14 85 2183
1.2030354 -1.7470896 0.3443622 101 16303400 46 15 50 2149
1.0452857 -1.9470775 0.34053361 388 16303400 194 16 56 2236
1.0764198 -1.8402233 0.30759484 328 16303400 152 17 66 2154
1.033965 -1.6280078 0.25966004 297 16303400 113 18 72 1946
1.1037148 -1.6049509 0.24354763 272 16303400 105 19 74 1963
1.0142677 -1.8893785 0.25058225 311 16303400 145 20 71 2159
1.0800856 -1.8471562 0.22920315 259 16303400 120 21 83 2152
1.0925186 -1.7219946 0.19884402 294 16303400 124 22 72 2049
1.0947301 -1.5937321 0.17048544 279 16303400 105 23 137 1941
1.0557226 -1.9675072 0.17878824 334 16303400 168 24 77 2240
1.0856057 -1.8577124 0.15170401 314 16303400 146 25 79 2157
1.1153913 -1.7581815 0.12687485 282 16303400 123 26 117 2086
1.1406422 -1.6626852 0.10380119 300 16303400 122 27 96 2019
1.0505315 -1.9601313 0.096669801 481 16303400 239 28 68 2226
1.1515324 -1.9721076 0.077393778 340 16303400 177 29 36 2285
1.1962053 -1.8895024 0.055162188 290 16303400 145 30 56 2237
1.195122 -1.7434685 0.031582024 319 16303400 143 31 66 2114
1.0598971 -1.9778548 0.01566595 421 16303400 212 32 91 2244
1.1479391 -1.9676095 -0.005764991 659 16303400 342 33 95 2278
1.2165737 -1.9221957 -0.027158424 329 16303400 170 34 99 2275
1.2491987 -1.8248826 -0.047443978 341 16303400 167 35 95 2212
1.0646217 -1.9890053 -0.06699609 416 16303400 212 36 120 2257
1.1436124 -1.9634988 -0.088880241 443 16303400 229 37 68 2274
1.2459117 -1.9703759 -0.11348643 379 16303400 206 38 138 2334
1.2840648 -1.8757464 -0.13222386 316 16303400 164 39 97 2277
1.0640143 -1.9916286 -0.14985961 440 16303400 225 40 120 2263
1.1543674 -1.9840339 -0.17392313 427 16303400 226 41 87 2302
1.2263485 -1.9406366 -0.19599928 490 16303400 260 42 130 2304
1.3008227 -1.9024335 -0.21870546 409 16303400 219 43 77 2315
1.0506563 -1.9682781 -0.23033002 463 16303400 233 44 112 2243
1.1346228 -1.9519006 -0.2543608 411 16303400 212 45 67 2272
1.2630953 -2.001106 -0.28917363 139 16303400 79 46 93 2384
1.3240473 -1.937415 -0.30985656 81 16303400 45 47 100 2367
1.0485375 -1.9682761 -0.31298968 419 16303400 213 48 97 2252
1.1869149 -2.0439115 -0.35462588 183 16303400 104 49 51 2390
1.1601784 -1.8401901 -0.34770086 193 16303400 93 50 51 2203
1.2961568 -1.8977414 -0.39002153 678 16303400 369 51 63 2331
1.0549687 -1.9846036 -0.4005976 273 16303400 142 52 94 2283
1.1208317 -1.9323651 -0.41979805 18 16303400 9 53 71 2273
1.186515 -1.8832743 -0.44025159 19 16303400 10 54 62 2269
1.3749239 -2.0129914 -0.50749344 30 16303400 18 55 51 2490
0.9641121 -1.8161311 -0.44606298 38 16303400 17 56 107 2104
1.1415262 -1.9704199 -0.5163222 305 16303400 166 57 77 2335
1.2273723 -1.948954 -0.54573381 443 16303400 248 58 76 2367
1.3308042 -1.9487619 -0.58399445 332 16303400 196 59 90 2431
1.0441023 -1.9723772 -0.5727089 271 16303400 144 60 43 2304
1.1099936 -1.9196966 -0.59135836 417 16303400 219 61 45 2295
1.2331011 -1.9588848 -0.64174503 419 16303400 241 62 56 2402
1.2844328 -1.8791673 -0.65660095 36 16303400 20 63 34 2369
0.93717587 -1.7752961 0.62660581 79 16401590 35 0 54 2103
1.1334565 -1.9622945 0.68017191 320 16401590 179 1 83 2366
1.2404914 -1.9726527 0.67475849 245 16401590 144 2 53 2426
1.3440419 -1.9687045 0.66586781 354 16401590 217 3 59 2475
1.0244917 -1.9383217 0.59225631 406 16401590 210 4 64 2271
1.1344488 -1.9659925 0.58900326 374 16401590 205 5 41 2345
1.231739 -1.9604045 0.5767408 315 16401590 179 6 97 2386
1.3519557 -1.9846076 0.57402986 363 16401590 222 7 68 2469
1.009889 -1.9098061 0.49784929 369 16401590 181 8 89 2217
0.96078193 -1.6635531 0.42258561 459 16401590 178 9 28 1967
1.2261449 -1.9538471 0.48425201 374 16401590 208 10 49 2357
1.3309343 -1.9574181 0.47384027 407 16401590 237 11 53 2414
0.98962384 -1.8707714 0.40606022 341 16401590 158 12 110 2155
1.0469481 -1.8143545 0.3803409 298 16401590 135 13 32 2129
1.0678757 -1.7023728 0.34509319 396 16401590 165 14 100 2039
1.2056082 -1.774032 0.34820801 150 16401590 71 15 43 2173
1.033319 -1.9534546 0.34053361 616 16401590 308 16 59 2236
1.0947769 -1.8982362 0.31616291 327 16401590 160 17 95 2214
1.0618416 -1.6947896 0.2692672 289 16401590 117 18 55 2018
1.0804727 -1.5919882 0.24056998 282 16401590 106 19 86 1939
1.024947 -1.9377095 0.25615329 353 16401590 172 20 93 2207
1.0448935 -1.8124009 0.2240908 319 16401590 141 21 73 2104
1.1009411 -1.7590376 0.20233761 292 16401590 127 22 71 2085
1.1117604 -1.6399969 0.17470145 295 16401590 117 23 110 1989
1.0380396 -1.9633734 0.17783047 630 16401590 313 24 96 2228
1.0921146 -1.8954542 0.15423593 318 16401590 153 25 99 2193
1.1236449 -1.7954524 0.12906444 282 16401590 127 26 122 2122
1.1572934 -1.7093474 0.10626898 274 16401590 117 27 96 2067
1.0496812 -1.9877429 0.097712062 483 16401590 245 28 78 2250
1.1274426 -1.9583489 0.07658089 309 16401590 158 29 63 2261
1.1718799 -1.8764565 0.054570373 284 16401590 139 30 61 2213
1.1844018 -1.7507688 0.031582024 308 16401590 138 31 81 2114
1.0477413 -1.984321 0.01566595 416 16401590 210 32 84 2244
1.1418278 -1.985018 -0.0057953601 434 16401590 228 33 72 2290
1.2047565 -1.9296242 -0.027158424 342 16401590 177 34 99 2275
1.2446939 -1.8424546 -0.047701363 336 16401590 166 35 91 2224
1.0412065 -1.9742808 -0.06628368 403 16401590 201 36 123 2233
1.1375142 -1.9808772 -0.089349262 428 16401590 224 37 76 2286
1.2401417 -1.9881532 -0.11406991 352 16401590 194 38 137 2346
1.2591184 -1.8637364 -0.1308302 343 16401590 174 39 82 2253
1.029465 -1.9557383 -0.14668098 430 16401590 211 40 110 2215
1.136218 -1.9807006 -0.1730165 432 16401590 227 41 87 2290
1.2270681 -1.9684176 -0.19804093 465 16401590 252 42 154 2328
1.2958075 -1.9202821 -0.21983916 423 16401590 229 43 73 2327
1.0330032 -1.9641232 -0.22909777 443 16401590 221 44 122 2231
1.1285542 -1.9691718 -0.25570425 398 16401590 208 45 65 2284
1.2570889 -2.0189302 -0.29062921 316 16401590 182 46 97 2396
1.3187869 -1.955366 -0.31142747 90 16401590 51 47 108 2379
1.0253952 -1.9536284 -0.30965412 434 16401590 216 48 73 2228
1.1389735 -1.9893636 -0.34394258 388 16401590 208 49 53 2318
1.1801554 -1.8975857 -0.3571707 284 16401590 145 50 51 2263
1.3241633 -1.9645208 -0.40206856 347 16401590 201 51 61 2403
1.0263284 -1.9596435 -0.39428073 289 16401590 146 52 80 2247
1.1148084 -1.9494439 -0.42201436 93 16401590 49 53 64 2285
1.0817292 -1.7405441 -0.40532637 17 16401590 8 54 63 2089
1.165552 -1.7291409 -0.43412092 14 16401590 6 55 51 2130
0.99643093 -1.9051462 -0.46641564 43 16401590 21 56 97 2200
1.1003932 -1.9265763 -0.5030548 265 16401590 137 57 74 2275
1.1969056 -1.9266924 -0.53743368 412 16401590 224 58 62 2331
1.3188218 -1.9568908 -0.58399445 363 16401590 215 59 81 2431
1.0266055 -1.9684404 -0.56972599 308 16401590 162 60 51 2292
1.103936 -1.9365443 -0.59445047 422 16401590 224 61 47 2307
1.2027578 -1.9369425 -0.63212687 412 16401590 231 62 72 2366
1.3309073 -1.9730399 -0.68653464 26 16401590 16 63 50 2477
0.94212145 -1.8115011 0.63733232 91 16499540 41 0 39 2139
1.1213946 -1.9692123 0.68017191 352 16499540 197 1 74 2366
1.2526681 -2.0194073 0.6881091 250 16499540 153 2 32 2474
1.3254789 -1.9673291 0.66263938 351 16499540 213 3 51 2463
1.0179294 -1.9548464 0.59538573 407 16499540 212 4 78 2283
1.0993906 -1.9325327 0.57694691 311 16499540 164 5 39 2297
1.219687 -1.9679254 0.5767408 342 16499540 195 6 109 2386
1.3006835 -1.9347504 0.55729026 279 16499540 161 7 69 2397
1.0197625 -1.9574492 0.50862819 392 16499540 201 8 97 2265
0.96215451 -1.6897861 0.42774168 353 16499540 140 9 19 1991
1.2141333 -1.9613338 0.48425201 390 16499540 217 10 79 2357
1.3188987 -1.9655477 0.47384027 376 16499540 219 11 49 2414
1.0162529 -1.9499646 0.42188808 368 16499540 185 12 102 2239
1.0357958 -1.8207443 0.3803409 314 16499540 143 13 58 2129
1.051187 -1.698836 0.34306228 454 16499540 187 14 100 2027
1.2276878 -1.8305832 0.3578226 96 16499540 48 15 56 2233
1.0103512 -1.9387232 0.33687851 576 16499540 282 16 63 2212
1.0654975 -1.8739438 0.3110221 343 16499540 163 17 96 2178
1.038918 -1.6810399 0.26606479 293 16499540 117 18 70 1994
1.0574317 -1.5788013 0.23759231 266 16499540 98 19 75 1915
1.0350708 -1.9862412 0.26172438 386 16499540 196 20 93 2255
1.0573369 -1.8602713 0.22920315 275 16499540 128 21 80 2152
1.0901271 -1.7657597 0.20233761 276 16499540 120 22 65 2085
1.1282631 -1.6865292 0.17891748 283 16499540 117 23 128 2037
1.0149211 -1.9484879 0.17591487 401 16499540 195 24 83 2204
1.1041127 -1.9437529 0.15761182 354 16499540 178 25 89 2241
1.1251909 -1.8226974 0.13052417 301 16499540 139 26 120 2146
1.1734139 -1.7562748 0.10873675 272 16499540 122 27 97 2115
1.0263985 -1.9728754 0.096669801 528 16499540 261 28 52 2226
1.1390847 -2.0069506 0.078206666 324 16499540 173 29 44 2309
1.1729281 -1.9040394 0.055162188 289 16499540 144 30 55 2237
1.2069473 -1.8078992 0.032478392 312 16499540 148 31 89 2174
1.0355459 -1.9907124 0.01566595 382 16499540 192 32 109 2244
1.1177876 -1.9711099 -0.0057346225 404 16499540 208 33 69 2266
1.2054782 -1.9574142 -0.027444931 375 16499540 198 34 88 2299
1.2267104 -1.8400748 -0.047443978 333 16499540 163 35 80 2212
1.0235428 -1.9699887 -0.065927483 386 16499540 190 36 168 2221
1.1194311 -1.9773849 -0.088880241 429 16499540 222 37 61 2274
1.2027956 -1.9548918 -0.11173599 636 16499540 336 38 134 2298
1.2675951 -1.9013301 -0.13292068 366 16499540 192 39 76 2289
1.0229574 -1.9726474 -0.14747563 446 16499540 221 40 119 2227
1.1122628 -1.9668038 -0.17120321 429 16499540 220 41 108 2266
1.2024416 -1.9555396 -0.19599928 467 16499540 248 42 113 2304
1.2840005 -1.9281969 -0.21983916 391 16499540 212 43 70 2327
1.0154408 -1.9598262 -0.2278655 451 16499540 222 44 127 2219
1.1105845 -1.9656773 -0.2543608 415 16499540 214 45 56 2272
1.2010409 -1.9555558 -0.28044018 434 16499540 232 46 64 2312
1.293581 -1.9436134 -0.30828568 54 16499540 30 47 97 2355
1.0024723 -1.9387714 -0.30631849 442 16499540 215 48 96 2204
1.1092465 -1.9653107 -0.33860093 412 16499540 215 49 59 2282
1.2242551 -1.9956961 -0.37421641 132 16499540 74 50 53 2371
1.2858753 -1.9332057 -0.39403719 352 16499540 195 51 56 2355
1.0305351 -1.9974003 -0.4005976 264 16499540 138 52 104 2283
1.1086175 -1.9665211 -0.42423064 167 16499540 88 53 67 2297
1.2617533 -2.0582736 -0.47750515 17 16499540 11 54 75 2461
1.1939598 -1.7949505 -0.44879544 16 16499540 8 55 63 2202
0.99546492 -1.9320742 -0.47150385 44 16499540 22 56 144 2224
1.094293 -1.9434896 -0.50570834 279 16499540 146 57 66 2287
1.2033632 -1.963869 -0.54573381 433 16499540 243 58 68 2367
1.2938883 -1.9455471 -0.57822889 460 16499540 267 59 78 2407
0.98795021 -1.9230088 -0.55481172 289 16499540 144 60 49 2232
1.1033932 -1.9634976 -0.60063457 432 16499540 235 61 38 2331
1.1908504 -1.944286 -0.63212687 436 16499540 244 62 54 2366
1.3379425 -2.0099626 -0.69651246 213 16499540 134 63 32 2513
0.91531974 -1.7866629 0.62660581 84 16596650 37 0 55 2103
1.0980383 -1.9560113 0.67327237 354 16596650 194 1 72 2342
1.2222064 -1.9975591 0.67809618 265 16596650 157 2 47 2438
1.2941859 -1.9465517 0.65295398 322 16596650 189 3 51 2427
1.0006284 -1.9507478 0.59225631 385 16596650 199 4 94 2271
1.0931934 -1.9493729 0.579961 378 16596650 201 5 37 2309
1.1954424 -1.9555026 0.57093954 324 16596650 181 6 81 2362
1.3468558 -2.0302255 0.58239967 119 16596650 74 7 55 2505
1.0130717 -1.9740731 0.51132292 402 16596650 209 8 85 2277
0.99765944 -1.7774175 0.44836611 254 16596650 111 9 61 2087
1.1714758 -1.91863 0.47192484 382 16596650 201 10 56 2297
1.2938212 -1.9539818 0.46912938 351 16596650 201 11 59 2390
1.0042689 -1.9561635 0.42188808 374 16596650 188 12 119 2239
1.0361546 -1.8476617 0.38462844 347 16596650 161 13 64 2153
1.0407434 -1.705254 0.34306228 470 16596650 193 14 93 2027
1.2229695 -1.8479595 0.3597455 118 16596650 59 15 47 2245
1.003853 -1.9554372 0.33870608 466 16596650 231 16 59 2224
1.0772072 -1.9218885 0.31787655 346 16596650 172 17 82 2226
1.0471541 -1.7178473 0.27086839 277 16596650 114 18 73 2030
1.0739859 -1.6249948 0.24354763 271 16596650 105 19 69 1963
1.0065345 -1.9607447 0.25754607 488 16596650 240 20 95 2219
1.0517347 -1.8771331 0.23048122 298 16596650 140 21 75 2164
1.0854838 -1.7826165 0.20350215 280 16596650 123 22 68 2097
1.1178935 -1.6934203 0.17891748 270 16596650 112 23 117 2037
1.0029463 -1.9546787 0.17591487 413 16596650 201 24 86 2204
1.0980135 -1.9609352 0.15845579 328 16596650 166 25 109 2253
1.1513609 -1.8909506 0.13490336 295 16596650 145 26 137 2218
1.1626155 -1.7634417 0.10873675 295 16596650 132 27 113 2115
1.0142739 -1.9791361 0.096669801 479 16596650 238 28 89 2226
1.1150373 -1.9929695 0.077393778 640 16596650 334 29 43 2285
1.1736815 -1.9317052 0.05575401 336 16596650 172 30 49 2261
1.209033 -1.8353108 0.03283694 327 16596650 158 31 55 2198
1.0233116 -1.9970289 0.01566595 402 16596650 202 32 108 2244
1.105672 -1.9779314 -0.0057346225 434 16596650 223 33 61 2266
1.2059039 -1.985285 -0.027731439 349 16596650 188 34 99 2323
1.2351773 -1.877636 -0.048216123 339 16596650 171 35 70 2248
1.0114359 -1.9762319 -0.065927483 377 16596650 186 36 128 2221
1.1189634 -2.0051579 -0.089818291 419 16596650 222 37 74 2298
1.190778 -1.9622352 -0.11173599 473 16596650 250 38 146 2298
1.2756569 -1.9390968 -0.13501118 371 16596650 201 39 62 2325
1.0053875 -1.9682242 -0.14668098 434 16596650 213 40 111 2215
1.1001737 -1.9735914 -0.17120321 405 16596650 208 41 90 2266
1.1718196 -1.9322108 -0.19293679 474 16596650 244 42 138 2268
1.2918259 -1.9659907 -0.22324018 383 16596650 214 43 69 2363
1.0088227 -1.9766519 -0.22909777 427 16596650 213 44 112 2231
1.1043044 -1.9828726 -0.25570425 418 16596650 218 45 62 2284
1.1890192 -1.9628884 -0.28044018 431 16596650 231 46 96 2312
1.2685697 -1.9316261 -0.30514392 118 16596650 64 47 111 2331
0.99055737 -1.9448858 -0.30631849 411 16596650 200 48 104 2204
1.0971667 -1.9720799 -0.33860093 397 16596650 207 49 61 2282
1.1813165 -1.9524786 -0.36474657 112 16596650 60 50 50 2311
1.3064476 -1.9905132 -0.4040764 263 16596650 154 51 63 2415
1.0075555 -1.9826223 -0.39638633 190 16596650 97 52 90 2259
1.1366298 -2.0454483 -0.43974447 59 16596650 34 53 73 2381
1.194284 -1.9753121 -0.45655003 24 16596650 13 54 51 2353
1.18937 -1.8120641 -0.45124114 13 16596650 6 55 55 2214
0.96766979 -1.906773 -0.4638716 43 16596650 21 56 92 2188
1.0880264 -1.9604 -0.50836176 251 16596650 132 57 51 2299
1.1671324 -1.9312416 -0.53466696 385 16596650 207 58 58 2319
1.2819263 -1.9534496 -0.57822889 471 16596650 273 59 60 2407
0.99712437 -1.9705192 -0.5667432 252 16596650 131 60 35 2280
1.0688521 -1.9296598 -0.58826625 440 16596650 229 61 41 2283
1.1609604 -1.9218622 -0.6225087 416 16596650 226 62 42 2330
1.2939349 -1.9699495 -0.67988265 404 16596650 243 63 59 2453
0.90949994 -1.8024724 0.63018125 66 16694290 29 0 43 2115
1.0748867 -1.9425988 0.66637295 272 16694290 146 1 91 2318
1.2099265 -2.0050209 0.67809618 270 16694290 160 2 38 2438
1.275878 -1.9447925 0.64972562 342 16694290 199 3 38 2415
0.9834159 -1.9465108 0.58912677 301 16694290 154 4 74 2259
1.0587353 -1.9153813 0.56790465 390 16694290 199 5 49 2261
1.1593719 -1.9229133 0.55933702 320 16694290 171 6 105 2314
1.3024122 -1.9896264 0.56845003 180 16694290 107 7 49 2445
0.99038976 -1.9593797 0.50593346 379 16694290 192 8 96 2253
0.98106098 -1.7732506 0.44578803 292 16694290 126 9 55 2075
1.0566882 -1.7547504 0.43001249 387 16694290 169 10 47 2093
1.2753716 -1.9520332 0.4667739 359 16694290 203 11 44 2378
0.98161131 -1.941255 0.41736585 682 16694290 335 12 121 2215
1.0476454 -1.8953184 0.39320356 316 16694290 153 13 53 2201
1.0302606 -1.7116078 0.34306228 442 16694290 182 14 95 2027
1.2245603 -1.8752639 0.36359134 152 16694290 78 15 60 2269
0.99718726 -1.9721437 0.34053361 462 16694290 231 16 52 2236
1.0653945 -1.9284619 0.31787655 386 16694290 191 17 70 2226
1.0427214 -1.7344326 0.27246958 289 16694290 121 18 75 2042
1.0770035 -1.6515018 0.24652529 282 16694290 111 19 84 1987
0.99448454 -1.9668838 0.25754607 436 16694290 215 20 106 2219
1.0575016 -1.9148856 0.23431547 331 16694290 160 21 89 2200
1.0929722 -1.8199599 0.20699576 299 16694290 136 22 86 2133
1.1140059 -1.7102637 0.17997149 256 16694290 108 23 106 2049
0.99093372 -1.9607959 0.17591487 418 16694290 203 24 84 2204
1.0801768 -1.9571557 0.15761182 362 16694290 182 25 66 2241
1.1212376 -1.8671738 0.13271376 333 16694290 158 26 120 2182
1.1648432 -1.7906336 0.10997066 296 16694290 135 27 87 2139
0.99670881 -1.9746197 0.09614867 468 16694290 230 28 83 2214
1.0854133 -1.9682674 0.076174445 419 16694290 212 29 57 2249
1.1679727 -1.9491606 0.056049913 335 16694290 173 30 63 2273
1.1912099 -1.8326344 0.032657668 349 16694290 167 31 88 2186
0.99481899 -1.9711323 0.015414624 385 16694290 188 32 103 2208
1.0993057 -1.9951887 -0.005764991 453 16694290 235 33 79 2278
1.1998659 -2.0029404 -0.02787469 294 16694290 161 34 81 2335
1.2301649 -1.8952427 -0.0484735 347 16694290 177 35 74 2260
0.99929094 -1.9824009 -0.065927483 368 16694290 181 36 141 2221
1.0835236 -1.9699601 -0.08794219 396 16694290 201 37 80 2250
1.1787156 -1.9695048 -0.11173599 423 16694290 223 38 132 2298
1.25069 -1.9267907 -0.13361752 390 16694290 207 39 85 2301
0.98791051 -1.9636596 -0.14588632 444 16694290 215 40 110 2203
1.0880433 -1.9803048 -0.17120321 378 16694290 194 41 86 2266
1.166079 -1.9496258 -0.19395763 452 16694290 235 42 122 2280
1.2732396 -1.9638562 -0.2221065 573 16694290 317 43 64 2351
0.99667513 -1.9828048 -0.22909777 456 16694290 227 44 93 2231
1.0691652 -1.9477979 -0.25033042 366 16694290 183 45 67 2236
1.1830615 -1.9803729 -0.28189576 426 16694290 230 46 92 2324
1.2114074 -1.8694863 -0.29414776 177 16694290 89 47 126 2247
0.97860509 -1.9509273 -0.30631849 419 16694290 204 48 82 2204
1.0793399 -1.9683695 -0.33682039 390 16694290 201 49 51 2270
1.1875292 -1.9902177 -0.37042847 260 16694290 143 50 52 2347
1.2942095 -1.998492 -0.4040764 250 16694290 146 51 59 2415
0.99537134 -1.9887671 -0.39638633 192 16694290 98 52 107 2259
1.0844018 -1.9799775 -0.42423064 224 16694290 118 53 82 2297
1.2122849 -2.0331578 -0.46819174 18 16694290 11 54 67 2413
1.3059505 -2.0165451 -0.50015622 14 16694290 8 55 35 2454
1.0136235 -2.0280645 -0.49185655 148 16694290 80 56 109 2320
1.0759772 -1.967039 -0.50836176 238 16694290 126 57 73 2299
1.1672168 -1.9584275 -0.54020041 233 16694290 128 58 65 2343
1.263585 -1.9515009 -0.57534623 455 16694290 261 59 71 2395
0.97464609 -1.9557939 -0.56077743 286 16694290 145 60 47 2256
1.0514361 -1.9260049 -0.58517426 433 16694290 223 61 30 2271
1.1550645 -1.938884 -0.62571472 410 16694290 225 62 62 2342
1.2567408 -1.9391496 -0.66657883 449 16694290 259 63 56 2405
0.90861803 -1.8285357 0.63733232 134 16792360 61 0 56 2139
0.94188654 -1.7271656 0.5904789 368 16792360 155 1 49 2054
1.1917064 -2.0025017 0.67475849 264 16792360 155 2 47 2426
1.2764816 -1.971989 0.65618247 345 16792360 206 3 69 2439
0.89404714 -1.7969298 0.54218441 252 16792360 109 4 58 2079
1.0636327 -1.9524415 0.57694691 416 16792360 219 5 55 2297
1.1713554 -1.9700253 0.57093954 318 16792360 178 6 93 2362
1.271183 -1.9681681 0.56008017 365 16792360 212 7 67 2409
0.97313774 -1.9549515 0.5032388 400 16792360 201 8 75 2241
0.98699379 -1.8101056 0.45352221 336 16792360 150 9 57 2111
1.0039253 -1.6905173 0.41275445 477 16792360 192 10 39 2009
1.237869 -1.9202631 0.45735207 356 16792360 193 11 39 2330
0.97493482 -1.9577907 0.41962692 499 16792360 247 12 123 2227
1.0416445 -1.9120791 0.3953473 350 16792360 172 13 70 2213
1.0438867 -1.7585773 0.35118607 339 16792360 146 14 89 2075
1.1552929 -1.7931274 0.34628507 207 16792360 96 15 48 2161
0.97449446 -1.956992 0.33687851 486 16792360 238 16 65 2212
1.0535417 -1.9349627 0.31787655 371 16792360 184 17 108 2226
1.0563196 -1.7817179 0.27887437 335 16792360 146 18 55 2090
1.0861787 -1.6881196 0.25099176 290 16792360 119 19 64 2023
0.98239726 -1.9729488 0.25754607 409 16792360 202 20 97 2219
1.0457321 -1.9213383 0.23431547 359 16792360 174 21 92 2200
1.0635266 -1.7958027 0.20350215 311 16792360 137 22 58 2097
1.0970285 -1.7070111 0.17891748 272 16792360 113 23 122 2037
0.99487293 -1.9989654 0.17878824 483 16792360 243 24 81 2240
1.0624279 -1.9532312 0.15676785 330 16792360 164 25 89 2229
1.1158628 -1.8843246 0.13344362 319 16792360 153 26 136 2194
1.1538341 -1.7977473 0.10997066 291 16792360 133 27 100 2139
0.96322829 -1.9377564 0.094064154 475 16792360 223 28 78 2166
1.0790428 -1.9854279 0.07658089 399 16792360 204 29 48 2261
1.1681968 -1.9769466 0.056641731 354 16792360 187 30 47 2297
1.1928971 -1.8601093 0.033016212 350 16792360 171 31 96 2210
0.99338716 -1.9986905 0.015582174 381 16792360 190 32 82 2232
1.0755903 -1.9808054 -0.0057042539 434 16792360 221 33 80 2254
1.1570383 -1.9586092 -0.027158424 577 16792360 299 34 84 2275
1.2185128 -1.9027551 -0.0484735 345 16792360 176 35 91 2260
0.99244159 -1.9992387 -0.06628368 370 16792360 184 36 120 2233
1.0828444 -1.9976549 -0.088880241 390 16792360 202 37 72 2274
1.1787926 -1.9973445 -0.11290295 429 16792360 231 38 147 2322
1.258226 -1.9646934 -0.13570802 372 16792360 203 39 72 2337
0.97052765 -1.9589554 -0.14509167 392 16792360 188 40 124 2191
1.064477 -1.9658993 -0.16938995 381 16792360 192 41 104 2242
1.1540945 -1.9567441 -0.19395763 424 16792360 220 42 129 2280
1.2354167 -1.9313773 -0.21757179 494 16792360 262 43 47 2303
0.97919476 -1.9781852 -0.2278655 407 16792360 200 44 116 2219
1.0515201 -1.9438334 -0.24898697 380 16792360 188 45 70 2224
1.1467043 -1.9465427 -0.27607349 392 16792360 203 46 96 2276
1.2127298 -1.8969309 -0.29728952 161 16792360 83 47 91 2271
0.97187895 -1.9675498 -0.30798629 388 16792360 191 48 84 2216
1.0616 -1.9645149 -0.33503985 385 16792360 196 49 51 2258
1.1572676 -1.9668282 -0.36474657 259 16792360 138 50 51 2311
1.2182245 -1.9066987 -0.38399804 118 16792360 62 51 68 2295
0.97792727 -1.9842407 -0.39428073 260 16792360 131 52 94 2247
1.0722325 -1.986594 -0.42423064 265 16792360 140 53 82 2297
1.1580205 -1.9695233 -0.4518933 20 16792360 11 54 54 2329
1.084813 -1.697825 -0.41944641 15 16792360 6 55 51 2058
0.95973313 -1.9500701 -0.47150385 365 16792360 181 56 94 2224
1.0638874 -1.9736041 -0.50836176 266 16792360 141 57 66 2299
1.1788437 -2.0058198 -0.55126721 229 16792360 131 58 41 2391
1.251587 -1.9592173 -0.57534623 458 16792360 263 59 77 2395
0.95750695 -1.9513028 -0.55779463 272 16792360 137 60 38 2244
1.050585 -1.952842 -0.59135836 420 16792360 221 61 51 2295
1.1372888 -1.9359643 -0.6225087 401 16792360 218 62 72 2330
1.2510297 -1.9565381 -0.66990477 426 16792360 249 63 45 2417
0.88731235 -1.8134975 0.63018125 239 16889790 107 0 60 2115
0.90950817 -1.6924158 0.57667994 389 16889790 156 1 39 2006
1.1793969 -2.0097761 0.67475849 262 16889790 154 2 57 2426
1.2705784 -1.989525 0.65941095 299 16889790 179 3 43 2451
0.91358477 -1.8648019 0.56096137 318 16889790 147 4 49 2151
1.0571266 -1.9691647 0.579961 404 16889790 215 5 34 2309
1.1356875 -1.9369957 0.55933702 314 16889790 168 6 115 2314
1.2402669 -1.9464027 0.55171037 345 16889790 194 7 75 2373
0.96627057 -1.9713857 0.50593346 361 16889790 183 8 113 2253
0.99805802 -1.8574228 0.4638344 313 16889790 146 9 64 2159
0.99946815 -1.7067798 0.4152199 486 16889790 199 10 58 2021
1.2386922 -1.9476796 0.46206298 356 16889790 197 11 49 2354
0.95252663 -1.9425732 0.41510469 427 16889790 207 12 112 2203
1.0354773 -1.9288373 0.39749107 361 16889790 179 13 74 2225
1.0689231 -1.8261911 0.36337182 329 16889790 152 14 80 2147
1.1061441 -1.7402041 0.33474758 328 16889790 143 15 56 2089
0.97291094 -1.9842322 0.34053361 437 16889790 218 16 52 2236
1.0641105 -1.9832537 0.32473105 463 16889790 240 17 73 2274
1.0693756 -1.8292336 0.2852791 312 16889790 143 18 77 2138
1.0885631 -1.7148585 0.25396943 268 16889790 112 19 66 2047
0.96502584 -1.9682378 0.25615329 379 16889790 185 20 85 2207
1.050842 -1.9592631 0.23814973 352 16889790 176 21 84 2236
1.0826018 -1.8538624 0.20932481 293 16889790 137 22 69 2157
1.1057361 -1.7439967 0.18207951 286 16889790 123 23 97 2073
0.97732496 -1.9942911 0.17783047 470 16889790 233 24 97 2228
1.044768 -1.9491631 0.15592387 634 16889790 312 25 91 2217
1.1163596 -1.911823 0.13490336 329 16889790 162 26 115 2218
1.1427816 -1.8047931 0.10997066 303 16889790 139 27 103 2139
0.97240216 -1.9867022 0.09614867 452 16889790 222 28 77 2214
1.061178 -1.9814389 0.076174445 394 16889790 199 29 44 2249
1.150005 -1.973712 0.056345824 346 16889790 180 30 57 2285
1.1878765 -1.8775336 0.033195488 367 16889790 181 31 73 2222
0.97055525 -1.9831918 0.015414624 374 16889790 182 32 100 2208
1.0577545 -1.9767872 -0.0056738849 406 16889790 204 33 82 2242
1.1631174 -1.9967771 -0.027588185 412 16889790 220 34 88 2311
1.2132226 -1.9203386 -0.048730884 364 16889790 188 35 94 2272
0.96962124 -1.9837381 -0.065571271 364 16889790 178 36 131 2209
1.0536183 -1.9725318 -0.087473169 374 16889790 187 37 53 2238
1.1363724 -1.9527431 -0.10998556 425 16889790 217 38 149 2262
1.2589445 -1.9926322 -0.13710168 322 16889790 179 39 53 2361
0.96373898 -1.9756351 -0.14588632 414 16889790 201 40 104 2203
1.06366 -1.9935077 -0.17120321 388 16889790 199 41 83 2266
1.1360554 -1.9534528 -0.19293679 436 16889790 224 42 122 2268
1.2362934 -1.9591271 -0.21983916 448 16889790 243 43 76 2327
0.95134962 -1.951966 -0.22416872 405 16889790 193 44 106 2183
1.0339639 -1.9397258 -0.24764352 379 16889790 186 45 75 2212
1.1347389 -1.9535422 -0.27607349 402 16889790 208 46 106 2276
1.2264534 -1.9445865 -0.30357304 141 16889790 76 47 121 2319
0.94939321 -1.9521028 -0.30465072 403 16889790 194 48 95 2192
1.0606812 -1.991941 -0.33860093 357 16889790 186 49 49 2282
1.1392311 -1.9636424 -0.3628526 257 16889790 136 50 58 2299
1.1686512 -1.8540863 -0.37195104 141 16889790 69 51 52 2223
0.94510394 -1.9476893 -0.38585815 433 16889790 209 52 105 2199
1.054485 -1.982723 -0.42201436 249 16889790 130 53 91 2285
1.0927759 -1.8849336 -0.43093821 60 16889790 29 54 46 2221
1.2184602 -1.9330344 -0.47569868 28 16889790 15 55 37 2334
0.94263583 -1.9453686 -0.46895975 248 16889790 121 56 106 2212
1.0462679 -1.9697595 -0.50570834 166 16889790 87 57 61 2287
1.1313869 -1.9523975 -0.53466696 282 16889790 152 58 60 2319
1.22091 -1.9372956 -0.56669801 442 16889790 246 59 71 2359
0.95057213 -1.967607 -0.56077743 238 16889790 121 60 28 2256
1.0331522 -1.949007 -0.58826625 421 16889790 219 61 53 2283
1.1195925 -1.9328997 -0.61930263 398 16889790 214 62 57 2318
1.2328498 -1.9544258 -0.66657883 430 16889790 248 63 44 2405
0.86125475 -1.7879478 0.6194548 245 16988600 106 0 45 2079
0.95289171 -1.7995379 0.61117727 257 16988600 116 1 77 2126
1.149725 -1.9870447 0.66474557 242 16988600 138 2 59 2390
1.2213821 -1.9386119 0.64004022 342 16988600 193 3 45 2379
0.91722375 -1.9016758 0.57034981 361 16988600 172 4 57 2187
1.0233001 -1.9345447 0.56790465 382 16988600 195 5 55 2261
1.0829867 -1.8733616 0.53903264 302 16988600 150 6 98 2230
1.2158779 -1.9342141 0.54613048 382 16988600 211 7 55 2349
0.94399214 -1.9562147 0.50054401 402 16988600 200 8 107 2229
0.99212611 -1.8738693 0.46641243 326 16988600 154 9 67 2171
