# .PCD v0.7 - Point Cloud Data file format
VERSION 0.7
FIELDS x y z intensity t reflectivity ring noise range
SIZE 4 4 4 4 4 2 1 2 4
TYPE F F F F U U U U U
COUNT 1 1 1 1 1 1 1 1 1
WIDTH 770
HEIGHT 1
VIEWPOINT 0 0 0 1 0 0 0
POINTS 770
DATA ascii
-0.067617424 -1.3290205 -0.38387179 236 26660210 45 63 82 1385
-0.42114496 -2.5340142 0.8018052 231 26760090 167 0 79 2691
-0.33984193 -2.6698406 0.80781192 157 26760090 124 1 99 2810
-0.16725659 -1.8732886 0.54459071 50 26760090 19 2 40 1958
-0.091565885 -1.7804 0.4979884 76 26760090 26 3 38 1851
-0.36592093 -2.2086446 0.60477424 384 26760090 207 4 80 2319
-0.2449148 -1.9174016 0.50159472 52 26760090 21 5 33 1997
-0.17038381 -1.900077 0.47521892 47 26760090 18 6 96 1966
-0.098870367 -1.8852212 0.45127258 47 26760090 18 7 50 1941
-0.34124732 -2.0621736 0.48168102 80 26760090 37 8 77 2145
-0.23379123 -1.8359256 0.40711728 23 26760090 8 9 27 1895
-0.16611062 -1.8412243 0.38810012 84 26760090 30 10 57 1889
-0.095332973 -1.7879376 0.3584227 73 26760090 24 11 27 1826
-0.31828287 -1.9252758 0.37440446 61 26760090 24 12 92 1987
-0.24745995 -1.9373273 0.35461563 46 26760090 18 13 48 1985
-0.16497655 -1.8247391 0.31462887 55 26760090 19 14 100 1859
-0.095721401 -1.78701 0.29052055 66 26760090 22 15 52 1813
-0.30631548 -1.8526847 0.28936219 61 26760090 22 16 29 1900
-0.23743586 -1.8555002 0.2698952 55 26760090 20 17 75 1890
-0.16823387 -1.8496073 0.25005287 54 26760090 19 18 70 1874
-0.09377972 -1.7309635 0.21674871 39 26760090 12 19 78 1747
-0.30511412 -1.8452185 0.21854857 59 26760090 21 20 88 1883
-0.21885766 -1.7081852 0.18447019 56 26760090 17 21 85 1732
-0.15414827 -1.6859391 0.16507256 50 26760090 15 22 85 1701
-0.091928057 -1.6799591 0.14835131 55 26760090 16 23 126 1689
-0.28654039 -1.7308267 0.1404765 58 26760090 18 24 59 1760
-0.23436743 -1.8254477 0.12976073 38 26760090 13 25 63 1845
-0.14710537 -1.6082909 0.098410107 36 26760090 9 26 124 1618
-0.090845466 -1.6423113 0.084675863 39 26760090 11 27 106 1647
-0.27985123 -1.6853096 0.074261166 57 26760090 17 28 68 1710
-0.22269118 -1.7297227 0.059103783 42 26760090 13 29 45 1745
-0.14618355 -1.5817764 0.039183158 32 26760090 8 30 50 1589
-0.078827955 -1.4156488 0.021184159 59 26760090 12 31 69 1418
-0.27528125 -1.6572516 0.011728518 36 26760090 10 32 108 1680
-0.21026316 -1.6284767 -0.00415545 31 26760090 8 33 75 1642
-0.1388554 -1.5004815 -0.017990218 35 26760090 8 34 79 1507
-0.066350184 -1.1778613 -0.025309175 133 26760090 19 35 63 1180
-0.28599674 -1.7165711 -0.051679306 97 26760090 29 36 140 1741
-0.21386957 -1.6469014 -0.064959966 45 26760090 12 37 50 1662
-0.11482842 -1.2352052 -0.060389955 80 26760090 12 38 76 1242
-0.063145801 -1.121325 -0.065327995 192 26760090 24 39 61 1125
-0.26212707 -1.5657171 -0.10535866 254 26760090 64 40 64 1591
-0.20540456 -1.576116 -0.12043157 56 26760090 14 41 61 1594
-0.1276575 -1.3690588 -0.11739541 191 26760090 36 42 142 1380
-0.065722041 -1.1559316 -0.10987234 239 26760090 32 43 60 1163
-0.25856802 -1.541155 -0.16132344 255 26760090 63 44 41 1571
-0.19218984 -1.470111 -0.16703622 261 26760090 58 45 46 1492
-0.13085558 -1.3954521 -0.17127229 304 26760090 61 46 114 1412
-0.076129802 -1.3332369 -0.17633156 177 26760090 32 47 105 1347
-0.25030625 -1.4842907 -0.21125415 250 26760090 58 48 64 1520
-0.1931894 -1.472757 -0.2228653 232 26760090 52 49 46 1502
-0.13303579 -1.4107553 -0.22648695 303 26760090 62 50 80 1435
-0.076078318 -1.3258301 -0.22537926 318 26760090 58 51 79 1347
-0.2414287 -1.4239169 -0.25741425 249 26760090 54 52 74 1467
-0.18849753 -1.4313706 -0.27130812 247 26760090 53 53 45 1469
-0.13537659 -1.4307686 -0.28425235 238 26760090 51 54 111 1465
-0.073673204 -1.2843077 -0.26780978 313 26760090 54 55 119 1314
-0.23667853 -1.3911862 -0.30613831 263 26760090 55 56 87 1444
-0.19418478 -1.4686164 -0.33588582 184 26760090 42 57 34 1519
-0.13253307 -1.3978544 -0.33269703 321 26760090 67 58 82 1443
-0.076556563 -1.3325379 -0.33031359 271 26760090 51 59 105 1375
-0.25320601 -1.4778798 -0.38478878 173 26760090 41 60 20 1548
-0.17015666 -1.278648 -0.34399277 250 26760090 45 61 27 1335
-0.12923875 -1.3603292 -0.37884864 207 26760090 42 62 89 1418
-0.074457869 -1.3055582 -0.37721986 271 26760090 50 63 108 1361
-0.43863276 -2.5426705 0.80538064 259 26859610 189 0 80 2703
-0.35773855 -2.6790972 0.81126159 208 26859610 166 1 97 2822
-0.18093871 -1.8951758 0.55126601 49 26859610 19 2 32 1982
-0.10581065 -1.837497 0.51413065 89 26859610 32 3 21 1911
-0.38928407 -2.2634435 0.62042177 134 26859610 76 4 73 2379
-0.25513279 -1.9043503 0.4985806 54 26859610 21 5 48 1985
-0.18759488 -1.9569508 0.48972204 47 26859610 19 6 81 2026
-0.11180153 -1.9078815 0.45685247 78 26859610 30 7 39 1965
-0.343995 -2.0024171 0.46820739 58 26859610 25 8 71 2085
-0.26367322 -1.9738557 0.43805388 49 26859610 20 9 31 2039
-0.17627805 -1.8284806 0.38563472 139 26859610 49 10 44 1877
-0.10839752 -1.8225565 0.36548907 79 26859610 27 11 28 1862
-0.32211617 -1.8768257 0.36535999 62 26859610 23 12 94 1939
-0.25150344 -1.8772603 0.34389678 55 26859610 20 13 41 1925
-0.17844422 -1.8472366 0.31869081 54 26859610 19 14 82 1883
-0.10597835 -1.7745651 0.28859761 69 26859610 22 15 54 1801
-0.32570311 -1.8975266 0.2966724 59 26859610 22 16 39 1948
-0.25355589 -1.8893229 0.27503607 64 26859610 24 17 63 1926
-0.17842977 -1.8367033 0.24845169 46 26859610 16 18 85 1862
-0.10655027 -1.7660125 0.2212152 37 26859610 12 19 77 1783
-0.31844696 -1.8550587 0.21994133 48 26859610 17 20 89 1895
-0.245224 -1.8250648 0.19725104 49 26859610 17 21 78 1852
-0.17029221 -1.7443957 0.17089522 48 26859610 15 22 77 1761
-0.098602585 -1.6197057 0.14308128 31 26859610 8 23 133 1629
-0.31538966 -1.8351358 0.14909664 50 26859610 18 24 62 1868
-0.22480066 -1.6697531 0.1187891 44 26859610 13 25 69 1689
-0.163956 -1.6788844 0.1027893 42 26859610 12 26 108 1690
-0.10239141 -1.6656461 0.085909754 51 26859610 14 27 97 1671
-0.30851442 -1.789891 0.078951351 62 26859610 20 28 51 1818
-0.23330036 -1.7283238 0.059103783 39 26859610 12 29 45 1745
-0.17119054 -1.7360494 0.043029964 42 26859610 13 30 26 1745
-0.097880952 -1.5827994 0.023693988 50 26859610 13 31 58 1586
-0.29360035 -1.7028322 0.012063618 30 26859610 9 32 101 1728
-0.2282995 -1.6866134 -0.0043072933 40 26859610 12 33 74 1702
-0.15867034 -1.607071 -0.019279499 44 26859610 12 34 99 1615
-0.072079688 -1.1534842 -0.024794411 127 26859610 17 35 64 1156
-0.28017348 -1.6202296 -0.048829671 183 26859610 49 36 123 1645
-0.22397074 -1.6455581 -0.064959966 38 26859610 11 37 59 1662
-0.14251056 -1.4372417 -0.070309073 60 26859610 13 38 81 1446
-0.073012672 -1.1687423 -0.068115324 170 26859610 23 39 53 1173
-0.2696797 -1.5522823 -0.104564 241 26859610 60 40 69 1579
-0.21669067 -1.5866816 -0.1213382 82 26859610 21 41 95 1606
-0.13605548 -1.3682498 -0.11739541 296 26859610 56 42 152 1380
-0.070559569 -1.1197386 -0.10647131 233 26859610 30 43 78 1127
-0.27006677 -1.5512991 -0.16255569 261 26859610 66 44 77 1583
-0.20606151 -1.5043467 -0.17106658 222 26859610 52 45 47 1528
-0.13941546 -1.394623 -0.17127229 257 26859610 51 46 137 1412
-0.086562201 -1.3683636 -0.18104421 181 26859610 35 47 132 1383
-0.25326508 -1.4476097 -0.20625076 252 26859610 56 48 70 1484
-0.20706931 -1.5068139 -0.22820695 220 26859610 52 49 26 1538
-0.13813494 -1.3745418 -0.22080505 276 26859610 54 50 97 1399
-0.084212027 -1.3253384 -0.22537926 295 26859610 54 51 98 1347
-0.25834638 -1.4689497 -0.26583681 290 26859610 67 52 62 1515
-0.19888821 -1.44187 -0.2735244 243 26859610 53 53 65 1481
-0.14297229 -1.4181985 -0.28192401 284 26859610 60 54 115 1453
-0.084531263 -1.3307295 -0.27759281 289 26859610 54 55 89 1362
-0.24928573 -1.4128053 -0.31122646 272 26859610 59 56 78 1468
-0.19677156 -1.4210279 -0.32527193 285 26859610 62 57 67 1471
-0.13758729 -1.3621621 -0.32439691 191 26859610 38 58 70 1407
-0.086210363 -1.3552933 -0.33607903 258 26859610 50 59 119 1399
-0.25617006 -1.4419658 -0.37584022 137 26859610 31 60 19 1512
-0.20199898 -1.4498379 -0.39037383 157 26859610 36 61 24 1515
-0.14107609 -1.3940256 -0.38846681 234 26859610 50 62 92 1454
-0.082467221 -1.3050768 -0.37721986 291 26859610 54 63 101 1361
-0.46229222 -2.5850353 0.81968266 250 26955910 189 0 73 2751
-0.37735265 -2.6996174 0.81816113 112 26955910 91 1 82 2846
-0.19023213 -1.8710951 0.54459071 38 26955910 14 2 36 1958
-0.11781854 -1.8483473 0.51735914 68 26955910 25 3 49 1923
-0.40316498 -2.2610123 0.62042177 74 26955910 42 4 83 2379
-0.27971664 -1.9947711 0.52269334 67 26955910 29 5 40 2081
-0.19841675 -1.9441791 0.48682144 60 26955910 24 6 94 2014
-0.11898055 -1.837279 0.44011283 92 26955910 33 7 83 1893
-0.35627511 -2.0002687 0.46820739 60 26955910 26 8 84 2085
-0.2757796 -1.9722006 0.43805388 83 26955910 34 9 38 2039
-0.18629541 -1.8156819 0.38316929 71 26955910 25 10 49 1865
-0.12189041 -1.8570809 0.37255546 87 26955910 31 11 35 1898
-0.35633811 -2.0024443 0.39023232 59 26955910 25 12 104 2071
-0.25973818 -1.8522967 0.33960924 63 26955910 23 13 50 1901
-0.20791632 -2.0225804 0.34915513 58 26955910 25 14 100 2063
-0.12231556 -1.8566166 0.30205804 56 26955910 20 15 63 1885
-0.33526191 -1.8838159 0.29484484 56 26955910 21 16 38 1936
-0.25357988 -1.8054006 0.26304072 69 26955910 24 17 77 1842
-0.18725114 -1.8119144 0.2452493 39 26955910 13 18 95 1838
-0.11975439 -1.8009686 0.22568169 34 26955910 11 19 71 1819
-0.3298234 -1.8530698 0.21994133 46 26955910 17 20 111 1895
-0.25807923 -1.8353413 0.19852911 48 26955910 17 21 87 1864
-0.18345909 -1.7670771 0.17322429 36 26955910 12 22 60 1785
-0.11893322 -1.7741193 0.15678336 33 26955910 10 23 124 1785
-0.32244721 -1.8096137 0.14718105 51 26955910 17 24 77 1844
-0.2333719 -1.656489 0.11794512 38 26955910 11 25 91 1677
-0.17920358 -1.7255017 0.10570876 40 26955910 12 26 129 1738
-0.11422706 -1.6889 0.087143645 49 26955910 14 27 96 1695
-0.32160002 -1.7997661 0.079472482 56 26955910 19 28 73 1830
-0.23383723 -1.6556082 0.056665119 41 26955910 11 29 43 1673
-0.16558337 -1.5798633 0.039183158 37 26955910 9 30 50 1589
-0.10107854 -1.4864011 0.022259802 48 26955910 11 31 77 1490
-0.31671166 -1.7718736 0.012566269 42 26955910 14 32 98 1800
-0.2369615 -1.6732994 -0.0042769248 37 26955910 11 33 58 1690
-0.16477148 -1.5702664 -0.018849738 41 26955910 10 34 82 1579
-0.084086113 -1.2248347 -0.0263387 126 26955910 19 35 85 1228
-0.29010975 -1.61848 -0.048829671 220 26955910 60 36 100 1645
-0.22730353 -1.5966684 -0.063083865 48 26955910 12 37 54 1614
-0.17267561 -1.6389774 -0.080228195 45 26955910 12 38 72 1650
-0.081002846 -1.1802239 -0.068812154 175 26955910 25 39 63 1185
-0.28556478 -1.585951 -0.10694798 259 26955910 67 40 47 1615
-0.22134683 -1.5497856 -0.11861829 161 26955910 40 41 52 1570
-0.14947264 -1.4149506 -0.12147872 276 26955910 56 42 166 1428
-0.078253269 -1.1312023 -0.10760498 224 26955910 29 43 64 1139
-0.27958027 -1.5496128 -0.16255569 259 26955910 65 44 55 1583
-0.22036037 -1.5384663 -0.17509696 245 26955910 60 45 30 1564
-0.1492276 -1.4055861 -0.17272787 258 26955910 52 46 120 1424
-0.094132774 -1.3559386 -0.17947333 251 26955910 47 47 137 1371
-0.27274144 -1.5044931 -0.21458973 252 26955910 60 48 31 1544
-0.2146233 -1.4937683 -0.22642639 235 26955910 55 49 20 1526
-0.16039535 -1.5032781 -0.24163868 234 26955910 55 50 60 1531
-0.093165219 -1.3365989 -0.22738709 297 26955910 55 51 91 1359
-0.26523715 -1.4557143 -0.26373115 281 26955910 63 52 49 1503
-0.20773162 -1.4406224 -0.2735244 235 26955910 51 53 54 1481
-0.1516715 -1.4172945 -0.28192401 328 26955910 69 54 127 1453
-0.095144957 -1.3653449 -0.28493008 311 26955910 61 55 78 1398
-0.26005843 -1.4227852 -0.31377053 279 26955910 61 56 93 1480
-0.19710559 -1.3618823 -0.31200454 253 26955910 50 57 36 1411
-0.15590048 -1.4541736 -0.34653059 66 26955910 15 58 52 1503
-0.095335454 -1.3663591 -0.33896178 267 26955910 53 59 105 1411
-0.26501298 -1.4403667 -0.37584022 88 26955910 20 60 25 1512
-0.20922077 -1.4370973 -0.38728175 190 26955910 43 61 7 1503
-0.14592235 -1.3586408 -0.37884864 324 26955910 65 62 104 1418
-0.092068888 -1.3275508 -0.38387179 278 26955910 53 63 83 1385
-0.48023069 -2.5934138 0.82325816 184 27054210 141 0 77 2763
-0.38726649 -2.6517599 0.80436218 128 27054210 100 1 95 2798
-0.21778019 -2.018873 0.58797997 51 27054210 23 2 50 2114
-0.1283516 -1.8360602 0.51413065 67 27054210 24 3 44 1911
-0.40861642 -2.2129273 0.60790372 88 27054210 48 4 76 2331
-0.29700163 -2.0274951 0.5317356 51 27054210 23 5 36 2117
-0.20407587 -1.8850424 0.47231832 58 27054210 22 6 81 1954
-0.13025165 -1.8365142 0.44011283 95 27054210 34 7 56 1893
-0.37702626 -2.0440433 0.47898629 68 27054210 31 8 82 2133
-0.2980409 -2.0400517 0.45352221 65 27054210 29 9 41 2111
-0.18345891 -1.6860785 0.35604951 185 27054210 55 10 50 1733
-0.13328294 -1.8562981 0.37255546 79 27054210 28 11 42 1898
-0.36434641 -1.9770405 0.38571009 79 27054210 33 12 104 2047
-0.27965528 -1.9090794 0.35032809 69 27054210 26 13 49 1961
-0.20366234 -1.8684223 0.32275268 58 27054210 21 14 99 1907
-0.1285982 -1.7849452 0.29052055 64 27054210 21 15 58 1813
-0.34896415 -1.8933868 0.2966724 69 27054210 26 16 49 1948
-0.27672169 -1.8860692 0.27503607 56 27054210 21 17 81 1926
-0.19966041 -1.8225534 0.24685051 59 27054210 20 18 72 1850
-0.12648812 -1.7408201 0.21823753 41 27054210 13 19 78 1759
-0.33686632 -1.8275683 0.21715578 45 27054210 16 20 107 1871
-0.27453756 -1.8691385 0.20236337 44 27054210 16 21 82 1900
-0.18515478 -1.6828161 0.16507256 47 27054210 14 22 79 1701
-0.12283503 -1.6779823 0.14835131 37 27054210 11 23 121 1689
-0.33788586 -1.8311274 0.14909664 44 27054210 16 24 66 1868
-0.24527417 -1.6668687 0.1187891 38 27054210 11 25 92 1689
-0.18454614 -1.676746 0.1027893 39 27054210 11 26 118 1690
-0.12282374 -1.6642642 0.085909754 39 27054210 11 27 88 1671
-0.33481836 -1.8095475 0.079993613 50 27054210 17 28 66 1842
-0.25974226 -1.7609249 0.060323119 42 27054210 13 29 26 1781
-0.1818924 -1.6384331 0.040662695 33 27054210 9 30 34 1649
-0.11552197 -1.5575475 0.023335442 52 27054210 13 31 70 1562
-0.32976156 -1.7816962 0.012650044 57 27054210 19 32 101 1812
-0.24897964 -1.6836848 -0.0043072933 47 27054210 14 33 75 1702
-0.18500672 -1.6646315 -0.019995764 40 27054210 11 34 81 1675
-0.092495084 -1.2362595 -0.026596081 98 27054210 15 35 71 1240
-0.3022238 -1.6284627 -0.049185876 230 27054210 63 36 108 1657
-0.23180783 -1.559662 -0.061676789 60 27054210 15 37 61 1578
-0.17741318 -1.5902394 -0.077894285 51 27054210 13 38 100 1602
-0.089136638 -1.1916511 -0.069508985 163 27054210 23 39 60 1197
-0.29529062 -1.5841689 -0.10694798 272 27054210 71 40 59 1615
-0.23438092 -1.5720681 -0.12043157 216 27054210 55 41 52 1594
-0.15682277 -1.4021243 -0.12045789 291 27054210 58 42 174 1416
-0.091475591 -1.2140888 -0.11554073 205 27054210 31 43 59 1223
-0.28908324 -1.5478681 -0.16255569 265 27054210 66 44 89 1583
-0.23332235 -1.5606722 -0.17778386 231 27054210 58 45 55 1588
-0.16183989 -1.4401547 -0.17709458 306 27054210 65 46 102 1460
-0.10334761 -1.3671983 -0.18104421 269 27054210 51 47 127 1383
-0.28635061 -1.5261507 -0.21792533 255 27054210 63 48 49 1568
-0.22730441 -1.5158954 -0.22998749 221 27054210 53 49 18 1550
-0.16961628 -1.5022657 -0.24163868 219 27054210 51 50 74 1531
-0.10136468 -1.3360021 -0.22738709 318 27054210 59 51 114 1359
-0.28948683 -1.5353243 -0.27847064 275 27054210 69 52 45 1587
-0.21832196 -1.450983 -0.27574065 274 27054210 61 53 77 1493
-0.15904059 -1.4046401 -0.27959567 288 27054210 60 54 116 1441
-0.10263217 -1.3530208 -0.28248429 300 27054210 58 55 87 1386
-0.2775009 -1.4672546 -0.32394689 259 27054210 61 56 73 1528
-0.21419495 -1.4185063 -0.32527193 91 27054210 20 57 38 1471
-0.16218834 -1.429985 -0.34099716 86 27054210 19 58 70 1479
-0.10548163 -1.3889787 -0.34472725 305 27054210 63 59 99 1435
-0.27384591 -1.4387136 -0.37584022 261 27054210 60 60 17 1512
-0.20933072 -1.3784697 -0.3718214 315 27054210 66 61 18 1443
-0.15425608 -1.3577198 -0.37884864 339 27054210 68 62 98 1418
-0.10108113 -1.3384579 -0.38719776 246 27054210 48 63 100 1397
-0.50259882 -2.6241693 0.83398461 260 27152660 204 0 89 2799
-0.40006879 -2.6266091 0.79746276 185 27152660 143 1 78 2774
-0.21448554 -1.8800721 0.54792839 33 27152660 13 2 47 1970
-0.13786162 -1.8121895 0.50767374 87 27152660 31 3 28 1887
-0.43088073 -2.2558947 0.62042177 95 27152660 54 4 75 2379
-0.30066648 -1.9682242 0.51666516 62 27152660 26 5 33 2057
-0.2196113 -1.9184606 0.48102018 40 27152660 16 6 106 1990
-0.14151783 -1.8356805 0.44011283 87 27152660 31 7 60 1893
-0.38956118 -2.0416913 0.47898629 73 27152660 33 8 90 2133
-0.30702212 -2.0150123 0.44836611 42 27152660 18 9 37 2087
-0.19782692 -1.7199223 0.36344582 40 27152660 12 10 55 1769
-0.14558513 -1.8671763 0.37491092 67 27152660 24 11 41 1910
-0.36322868 -1.9053084 0.37214336 70 27152660 27 12 102 1975
-0.2949298 -1.9306707 0.35461563 61 27152660 24 13 51 1985
-0.22459872 -1.9493815 0.33696938 52 27152660 21 14 96 1991
-0.13585339 -1.7368872 0.28282887 66 27152660 21 15 63 1765
-0.35391158 -1.8562595 0.29118973 62 27152660 22 16 57 1912
-0.28110442 -1.8373741 0.26818156 59 27152660 21 17 87 1878
-0.20947202 -1.8094802 0.2452493 58 27152660 20 18 81 1838
-0.13997449 -1.7756225 0.22270402 53 27152660 17 19 83 1795
-0.36370075 -1.9074225 0.22690517 43 27152660 16 20 114 1955
-0.28419492 -1.8556246 0.20108528 46 27152660 17 21 79 1888
-0.20375101 -1.7528293 0.17205976 40 27152660 13 22 68 1773
-0.13785788 -1.7367778 0.15362135 40 27152660 12 23 124 1749
-0.34462968 -1.8055205 0.14718105 37 27152660 13 24 77 1844
-0.26820406 -1.7481552 0.1246969 46 27152660 15 25 90 1773
-0.20451489 -1.7588655 0.10789835 39 27152660 12 26 93 1774
-0.13589922 -1.6993172 0.08776059 55 27152660 16 27 109 1707
-0.33915469 -1.7721341 0.07843022 59 27152660 19 28 65 1806
-0.26325077 -1.7118828 0.058697339 38 27152660 11 29 38 1733
-0.20032294 -1.7087747 0.042438146 26 27152660 8 30 43 1721
-0.13084212 -1.6285701 0.024411082 49 27152660 13 31 60 1634
-0.32940659 -1.7207109 0.012231168 32 27152660 10 32 72 1752
-0.27758831 -1.8007243 -0.0046109809 47 27152660 16 33 65 1822
-0.19381866 -1.6515477 -0.01985251 43 27152660 12 34 87 1663
-0.10492142 -1.295459 -0.027882989 61 27152660 10 35 65 1300
-0.31899327 -1.6619167 -0.05025449 215 27152660 62 36 96 1693
-0.2432089 -1.5700597 -0.062145814 64 27152660 16 37 75 1590
-0.19417737 -1.6486385 -0.080811672 50 27152660 14 38 70 1662
-0.098380566 -1.2149631 -0.070902653 161 27152660 24 39 60 1221
-0.30273902 -1.5705699 -0.10615332 275 27152660 71 40 47 1603
-0.24402253 -1.5706004 -0.12043157 205 27152660 52 41 81 1594
-0.17103067 -1.4486319 -0.12454122 258 27152660 55 42 141 1464
-0.09601149 -1.1777842 -0.11213969 173 27152660 24 43 58 1187
-0.30310208 -1.5695053 -0.16502023 280 27152660 72 44 63 1607
-0.23555218 -1.5120814 -0.17241004 238 27152660 56 45 44 1540
-0.17347905 -1.4627916 -0.18000573 282 27152660 62 46 112 1484
-0.11270414 -1.3783957 -0.1826151 302 27152660 59 47 144 1395
-0.29118332 -1.5010328 -0.21458973 271 27152660 64 48 49 1544
-0.22927448 -1.4675723 -0.2228653 223 27152660 50 49 33 1502
-0.17602746 -1.4776639 -0.23785076 230 27152660 52 50 93 1507
-0.10956033 -1.3353549 -0.22738709 284 27152660 52 51 93 1359
-0.28760129 -1.4755411 -0.26794243 271 27152660 63 52 56 1527
-0.23087351 -1.4729187 -0.28017321 245 27152660 56 53 69 1517
-0.17044863 -1.4270154 -0.28425235 317 27152660 68 54 139 1465
-0.11573448 -1.4109097 -0.29471308 229 27152660 48 55 65 1446
-0.27974862 -1.4309962 -0.31631464 274 27152660 61 56 93 1492
-0.23380458 -1.4865303 -0.34119278 140 27152660 33 57 59 1543
-0.1709595 -1.4289629 -0.34099716 95 27152660 21 58 66 1479
-0.10923562 -1.3302578 -0.33031359 337 27152660 64 59 99 1375
-0.27369493 -1.391387 -0.36390877 355 27152660 76 60 22 1464
-0.21959601 -1.3886118 -0.37491345 289 27152660 61 61 14 1455
-0.16258398 -1.3567477 -0.37884864 277 27152660 56 62 112 1418
-0.10741425 -1.3148293 -0.38054579 271 27152660 51 63 89 1373
-0.52091473 -2.6322732 0.83756012 150 27249980 119 0 80 2811
-0.40537581 -2.5559955 0.77676433 272 27249980 199 1 100 2702
-0.24391523 -2.0274925 0.59131765 42 27249980 19 2 41 2126
-0.14992581 -1.8228282 0.51090223 61 27249980 22 3 39 1899
-0.42901209 -2.1736498 0.59851527 84 27249980 44 4 85 2295
-0.33280635 -2.0925245 0.54982013 81 27249980 39 5 43 2189
-0.23277386 -1.9286371 0.48392081 58 27249980 23 6 101 2002
-0.14696777 -1.7649921 0.42337319 67 27249980 22 7 62 1821
-0.44732267 -2.2687156 0.53288066 140 27249980 79 8 79 2373
-0.32305303 -2.0362406 0.45352221 39 27249980 17 9 42 2111
-0.24512796 -2.0218005 0.42754707 28 27249980 12 10 56 2081
-0.14717284 -1.7489966 0.3513563 93 27249980 30 11 44 1790
-0.38402438 -1.9492948 0.38118783 70 27249980 29 12 89 2023
-0.29564345 -1.8588624 0.34175301 63 27249980 23 13 54 1913
-0.23227842 -1.9127448 0.33087653 52 27249980 20 14 79 1955
-0.15646908 -1.8540506 0.30205804 66 27249980 24 15 63 1885
-0.36300206 -1.8424168 0.28936219 59 27249980 21 16 68 1900
-0.30358222 -1.9059895 0.27846327 58 27249980 22 17 73 1950
-0.22201091 -1.8199661 0.24685051 60 27249980 21 18 69 1850
-0.15187545 -1.7865946 0.22419284 32 27249980 10 19 98 1807
-0.35926801 -1.8232968 0.21715578 47 27249980 16 20 104 1871
-0.28806081 -1.8067141 0.19597293 52 27249980 18 21 72 1840
-0.21450233 -1.751546 0.17205976 56 27249980 18 22 85 1773
-0.15258776 -1.7835397 0.15783736 41 27249980 13 23 110 1797
-0.35338691 -1.7916363 0.14622326 48 27249980 16 24 69 1832
-0.2996915 -1.8765019 0.1339806 37 27249980 14 25 71 1905
-0.20947768 -1.7100219 0.1049789 37 27249980 11 26 142 1726
-0.14838074 -1.722331 0.088994481 40 27249980 12 27 86 1731
-0.35467336 -1.7935416 0.079472482 66 27249980 22 28 38 1830
-0.26616749 -1.6628659 0.057071563 33 27249980 9 29 47 1685
-0.20786427 -1.6837014 0.041846327 32 27249980 9 30 47 1697
-0.14393516 -1.6635987 0.024948904 45 27249980 13 31 66 1670
-0.34461546 -1.7422006 0.012398719 40 27249980 13 32 86 1776
-0.26391938 -1.6449575 -0.0042161876 43 27249980 12 33 66 1666
-0.19953372 -1.6146016 -0.019422751 51 27249980 14 34 79 1627
-0.1347473 -1.5457811 -0.033287998 46 27249980 11 35 66 1552
-0.31985152 -1.6128658 -0.048829671 221 27249980 60 36 133 1645
-0.26237911 -1.627728 -0.064490944 110 27249980 30 37 45 1650
-0.20871462 -1.6831001 -0.082562104 40 27249980 12 38 110 1698
-0.11415465 -1.3098125 -0.076477304 121 27249980 21 39 46 1317
-0.31938535 -1.603912 -0.10853729 257 27249980 69 40 60 1639
-0.25174537 -1.5572611 -0.11952493 232 27249980 58 41 82 1582
-0.17549193 -1.4119595 -0.12147872 201 27249980 41 42 156 1428
-0.11889149 -1.3556827 -0.12914488 201 27249980 38 43 72 1367
-0.30805621 -1.5442041 -0.16255569 287 27249980 72 44 62 1583
-0.24864118 -1.5341496 -0.17509696 219 27249980 53 45 35 1564
-0.18097597 -1.44988 -0.17855017 261 27249980 57 46 132 1472
-0.11907522 -1.3539762 -0.17947333 288 27249980 54 47 145 1371
-0.30972654 -1.5458258 -0.22126092 259 27249980 66 48 64 1592
-0.249697 -1.5364188 -0.2335486 213 27249980 53 49 36 1574
-0.18656477 -1.4883136 -0.23974472 237 27249980 55 50 83 1519
-0.1208711 -1.3700128 -0.23341058 270 27249980 53 51 88 1395
-0.29431841 -1.4621671 -0.26583681 274 27249980 63 52 60 1515
-0.23041807 -1.413275 -0.26909184 249 27249980 53 53 62 1457
-0.18066929 -1.4376229 -0.28658071 299 27249980 65 54 115 1477
-0.12542176 -1.4218756 -0.29715881 229 27249980 49 55 80 1458
-0.29780602 -1.475234 -0.32649097 268 27249980 64 56 100 1540
-0.22780764 -1.3926719 -0.31996498 274 27249980 57 57 52 1447
-0.17972425 -1.4278871 -0.34099716 105 27249980 23 58 68 1479
-0.1204695 -1.3643727 -0.33896178 339 27249980 68 59 92 1411
-0.2891672 -1.423854 -0.37285736 359 27249980 81 60 1 1500
-0.23751894 -1.4444439 -0.39037383 258 27249980 59 61 9 1515
-0.16656683 -1.3213056 -0.36923048 330 27249980 63 62 134 1382
-0.11749845 -1.3371167 -0.38719776 280 27249980 55 63 99 1397
-0.53476357 -2.6178043 0.83398461 135 27345410 106 0 84 2799
-0.42479137 -2.5761404 0.78366381 271 27345410 202 1 98 2726
-0.25056329 -1.9802163 0.57796711 46 27345410 20 2 53 2078
-0.16925211 -1.913975 0.53672981 62 27345410 25 3 24 1995
-0.4446542 -2.182328 0.60164475 86 27345410 46 4 81 2307
-0.36648214 -2.2165 0.58297509 257 27345410 138 5 38 2321
-0.24460337 -1.9271725 0.48392081 50 27345410 20 6 100 2002
-0.17131263 -1.9151789 0.45964238 15 27345410 6 7 51 1977
-0.47056442 -2.3117621 0.54365951 217 27345410 127 8 103 2421
-0.34317064 -2.0804744 0.4638344 44 27345410 20 9 43 2159
-0.25752887 -2.0202584 0.42754707 57 27345410 25 10 63 2081
-0.15366748 -1.7011853 0.34193447 184 27345410 56 11 35 1742
-0.39362895 -1.9353533 0.37892672 71 27345410 29 12 79 2011
-0.32437804 -1.9618526 0.36104697 54 27345410 22 13 45 2021
-0.23652162 -1.8526253 0.32072175 56 27345410 20 14 91 1895
-0.16891086 -1.8648523 0.30398095 63 27345410 22 15 54 1897
-0.40976012 -2.0144851 0.31677547 56 27345410 24 16 57 2080
-0.30363065 -1.8337861 0.26818156 53 27345410 19 17 68 1878
-0.22409897 -1.7477928 0.23724335 48 27345410 15 18 79 1778
-0.15634678 -1.7144808 0.21525988 42 27345410 13 19 91 1735
-0.36807287 -1.8093784 0.21576303 47 27345410 16 20 108 1859
-0.29523936 -1.7813703 0.19341677 40 27345410 13 21 95 1816
-0.22524558 -1.7501969 0.17205976 51 27345410 16 22 82 1773
-0.16134445 -1.7587626 0.15572935 57 27345410 18 23 163 1773
-0.37630713 -1.8480402 0.15101223 56 27345410 20 24 91 1892
-0.28179514 -1.6974975 0.12132101 39 27345410 12 25 90 1725
-0.21537828 -1.6730651 0.1027893 43 27345410 12 26 118 1690
-0.15123282 -1.6378547 0.084675863 45 27345410 12 27 101 1647
-0.35608023 -1.7443458 0.077387959 56 27345410 18 28 60 1782
-0.29211113 -1.7558455 0.060323119 40 27345410 13 29 50 1781
-0.21973427 -1.6942911 0.042142238 42 27345410 12 30 47 1709
-0.1552477 -1.6746316 0.025128176 44 27345410 13 31 66 1682
-0.34809691 -1.7047819 0.012147394 39 27345410 12 32 89 1740
-0.26413944 -1.5841243 -0.0040643439 42 27345410 11 33 81 1606
-0.21407109 -1.6490449 -0.01985251 45 27345410 13 34 88 1663
-0.13865362 -1.4851987 -0.032001093 48 27345410 11 35 75 1492
-0.34176892 -1.669628 -0.050610691 192 27345410 56 36 97 1705
-0.26840007 -1.6024352 -0.063552886 206 27345410 54 37 34 1626
-0.20510626 -1.5748188 -0.077310808 58 27345410 15 38 107 1590
-0.12218936 -1.3090875 -0.076477304 85 27345410 15 39 72 1317
-0.33404157 -1.6253792 -0.11012662 254 27345410 70 40 51 1663
-0.26525983 -1.579288 -0.1213382 245 27345410 63 41 61 1606
-0.20736469 -1.5886952 -0.13679115 148 27345410 38 42 136 1608
-0.13055758 -1.3906099 -0.1325459 279 27345410 55 43 77 1403
-0.31752548 -1.5422848 -0.16255569 284 27345410 71 44 88 1583
-0.26002976 -1.5443541 -0.1764404 228 27345410 57 45 28 1576
-0.19915591 -1.5196046 -0.18728359 240 27345410 57 46 107 1544
-0.12849575 -1.3650644 -0.18104421 276 27345410 53 47 133 1383
-0.30476925 -1.4740719 -0.21125415 250 27345410 58 48 64 1520
-0.26307058 -1.5582609 -0.23710968 228 27345410 58 49 24 1598
-0.18950953 -1.4401475 -0.23216885 281 27345410 61 50 109 1471
-0.1326112 -1.4045807 -0.23943409 284 27345410 58 51 98 1431
-0.30808905 -1.4834677 -0.27004805 272 27345410 65 52 66 1539
-0.24499282 -1.4467186 -0.27574065 247 27345410 55 53 50 1493
-0.19102648 -1.448158 -0.28890905 256 27345410 57 54 120 1489
-0.13635199 -1.4444716 -0.30205032 256 27345410 56 55 82 1482
-0.30207017 -1.4504172 -0.32140279 261 27345410 60 56 79 1516
-0.24418882 -1.4373987 -0.33057889 255 27345410 57 57 27 1495
-0.19459927 -1.4730619 -0.35206401 71 27345410 17 58 63 1527
-0.12993459 -1.3752049 -0.34184453 343 27345410 69 59 93 1423
-0.29313198 -1.3993 -0.36689162 277 27345410 60 60 13 1476
-0.23076536 -1.3515242 -0.36563724 347 27345410 70 61 12 1419
-0.17618775 -1.3317226 -0.37243652 301 27345410 58 62 113 1394
-0.12570064 -1.3363706 -0.38719776 213 27345410 42 63 70 1397
-0.46580264 -2.2109537 0.70526671 30 27444680 17 0 80 2367
-0.4444693 -2.596143 0.79056329 249 27444680 188 1 100 2750
-0.32339245 -2.4356906 0.71147245 27 27444680 17 2 38 2558
-0.1788155 -1.889888 0.5302729 65 27444680 25 3 36 1971
-0.45803633 -2.1795588 0.60164475 60 27444680 32 4 81 2307
-0.37418026 -2.1798661 0.57393283 508 27444680 265 5 47 2285
-0.2610347 -1.9602623 0.49262267 40 27444680 17 6 94 2038
-0.18083844 -1.8908553 0.45406249 21 27444680 8 7 50 1953
-0.47993493 -2.2859433 0.53827012 231 27444680 133 8 80 2397
-0.35395142 -2.0667777 0.46125636 76 27444680 35 9 42 2147
-0.26992011 -2.01864 0.42754707 62 27444680 27 10 66 2081
-0.15845063 -1.6416497 0.33015716 224 27444680 63 11 35 1682
-0.40791631 -1.9444355 0.38118783 55 27444680 23 12 82 2023
-0.32841969 -1.9132781 0.35247186 52 27444680 20 13 44 1973
-0.24631496 -1.839417 0.31869081 64 27444680 23 14 108 1883
-0.19518133 -2.0170491 0.32897887 77 27444680 32 15 57 2053
-0.41967776 -2.0003257 0.3149479 57 27444680 25 16 67 2068
-0.32896078 -1.9138261 0.28017691 49 27444680 19 17 80 1962
-0.25700662 -1.9113976 0.25966004 41 27444680 16 18 90 1946
-0.17263418 -1.7727453 0.22270402 35 27444680 11 19 81 1795
-0.40119612 -1.9120699 0.22829795 47 27444680 18 20 113 1967
-0.31425652 -1.8265611 0.19852911 51 27444680 18 21 108 1864
-0.24236898 -1.7961262 0.17671789 48 27444680 16 22 63 1821
-0.1686379 -1.7220494 0.15256734 44 27444680 13 23 108 1737
-0.3827222 -1.8222837 0.14909664 47 27444680 17 24 67 1868
-0.32066378 -1.8608866 0.13313663 49 27444680 18 25 77 1893
-0.23204868 -1.7191926 0.10570876 36 27444680 11 26 113 1738
-0.1706803 -1.7323068 0.089611426 49 27444680 15 27 81 1743
-0.38159591 -1.8125172 0.080514744 62 27444680 21 28 74 1854
-0.30900148 -1.7894747 0.061542448 33 27444680 11 29 34 1817
-0.24951647 -1.8355552 0.045693133 37 27444680 13 30 36 1853
-0.17260541 -1.7452899 0.026203819 41 27444680 13 31 74 1754
-0.37338725 -1.7730669 0.012650044 40 27444680 13 32 82 1812
-0.29636306 -1.7125401 -0.0043983995 46 27444680 14 33 64 1738
-0.23712696 -1.742817 -0.020998536 36 27444680 11 34 83 1759
-0.15964852 -1.6037023 -0.034574907 36 27444680 9 35 88 1612
-0.34952965 -1.6557635 -0.05025449 214 27444680 61 36 103 1693
-0.28644073 -1.648013 -0.065428987 224 27444680 63 37 42 1674
-0.23583661 -1.7279149 -0.084896013 39 27444680 12 38 86 1746
-0.15039013 -1.5109675 -0.088323444 95 27444680 22 39 54 1521
-0.34152609 -1.6115854 -0.10933196 255 27444680 70 40 63 1651
-0.28316271 -1.6247827 -0.12496475 233 27444680 64 41 74 1654
-0.21548863 -1.5755466 -0.13577034 188 27444680 48 42 176 1596
-0.14027737 -1.4016695 -0.13367958 281 27444680 56 43 85 1415
-0.33441889 -1.5753366 -0.16625248 291 27444680 76 44 58 1619
-0.27360493 -1.5662228 -0.17912731 232 27444680 59 45 40 1600
-0.20847628 -1.5183539 -0.18728359 231 27444680 55 46 118 1544
-0.13924438 -1.3879249 -0.18418598 264 27444680 52 47 156 1407
-0.32867286 -1.5419086 -0.22126092 253 27444680 64 48 57 1592
-0.27057967 -1.5449282 -0.23532914 214 27444680 54 49 32 1586
-0.20643264 -1.4976506 -0.24163868 240 27444680 56 50 81 1531
-0.1471485 -1.4625975 -0.24947324 243 27444680 54 51 97 1491
-0.31965882 -1.4931015 -0.27215371 292 27444680 70 52 51 1551
-0.25794601 -1.4684196 -0.28017321 252 27444680 58 53 46 1517
-0.19990861 -1.4469587 -0.28890905 261 27444680 58 54 103 1489
-0.14050929 -1.3968511 -0.29226729 308 27444680 63 55 82 1434
-0.30604118 -1.4256045 -0.31631464 258 27444680 57 56 84 1492
-0.25503471 -1.4473987 -0.33323237 244 27444680 55 57 37 1507
-0.19883335 -1.4371405 -0.34376386 106 27444680 24 58 71 1491
-0.13837025 -1.3743818 -0.34184453 320 27444680 65 59 105 1423
-0.30907124 -1.4315598 -0.37584022 283 27444680 65 60 19 1512
-0.24714021 -1.3957517 -0.37800556 332 27444680 71 61 15 1467
-0.18752973 -1.3535253 -0.37884864 268 27444680 54 62 88 1418
-0.13849874 -1.3814636 -0.40050161 105 27444680 22 63 80 1445
-0.44290677 -2.0401411 0.65163428 78 27542060 37 0 69 2187
-0.45637259 -2.5707335 0.78366381 230 27542060 171 1 104 2726
-0.38753369 -2.7875781 0.81493914 70 27542060 60 2 38 2930
-0.19504531 -1.9347523 0.54318672 64 27542060 26 3 41 2019
-0.54005784 -2.4937308 0.68927056 89 27542060 62 4 84 2643
-0.39772493 -2.2347069 0.58900326 167 27542060 92 5 39 2345
-0.27305773 -1.9586236 0.49262267 63 27542060 26 6 95 2038
-0.19953156 -1.9593769 0.47080213 36 27542060 15 7 61 2025
-0.48900652 -2.2600975 0.53288066 452 27542060 255 8 83 2373
-0.36457711 -2.0530276 0.45867828 66 27542060 30 9 46 2135
-0.26602238 -1.9006397 0.40289274 63 27542060 24 10 66 1961
-0.18415037 -1.7928112 0.36077815 81 27542060 27 11 43 1838
-0.44225302 -2.0455661 0.40153795 73 27542060 33 12 110 2131
-0.34015316 -1.911227 0.35247186 55 27542060 21 13 54 1973
-0.27237129 -1.9432825 0.33696938 49 27542060 20 14 74 1991
-0.20634085 -2.0040307 0.32705593 62 27542060 26 15 67 2041
-0.42191783 -1.9513443 0.30763769 58 27542060 24 16 60 2020
-0.33861381 -1.9000787 0.27846327 57 27542060 22 17 79 1950
-0.26044428 -1.8509011 0.25165406 66 27542060 24 18 67 1886
-0.18718868 -1.8071843 0.22717051 39 27542060 13 19 78 1831
-0.41795897 -1.9328715 0.23108347 53 27542060 21 20 109 1991
-0.33383906 -1.8715838 0.20364144 49 27542060 18 21 88 1912
-0.25338525 -1.7946053 0.17671789 58 27542060 19 22 71 1821
-0.18043903 -1.7328714 0.15362135 54 27542060 17 23 123 1749
-0.38883558 -1.7965192 0.14718105 60 27542060 21 24 74 1844
-0.32786575 -1.8353164 0.13144867 47 27542060 17 25 82 1869
-0.24259308 -1.7177364 0.10570876 47 27542060 14 26 115 1738
-0.18005809 -1.7193081 0.088994481 32 27542060 10 27 113 1731
-0.39271012 -1.8101416 0.080514744 55 27542060 19 28 59 1854
-0.31574926 -1.7639341 0.060729563 38 27542060 12 29 40 1793
-0.23544297 -1.6558363 0.041254513 36 27542060 10 30 42 1673
-0.17076983 -1.6248686 0.024411082 51 27542060 14 31 69 1634
-0.37917006 -1.7472889 0.012482494 48 27542060 15 32 87 1788
-0.32381544 -1.805181 -0.0046413494 67 27542060 23 33 73 1834
-0.23767251 -1.6700525 -0.020139016 41 27542060 12 34 103 1687
-0.17579405 -1.6623461 -0.035861813 61 27542060 17 35 77 1672
-0.37242985 -1.712191 -0.052035511 198 27542060 61 36 76 1753
-0.30079895 -1.6698263 -0.066367038 207 27542060 60 37 30 1698
-0.22949739 -1.60778 -0.07906124 57 27542060 15 38 88 1626
-0.16721623 -1.5814964 -0.092504442 49 27542060 13 39 67 1593
-0.34629989 -1.5860634 -0.10774264 277 27542060 73 40 70 1627
-0.29100019 -1.6112396 -0.12405812 223 27542060 60 41 57 1642
-0.2217662 -1.5505227 -0.13372867 228 27542060 56 42 167 1572
-0.14887522 -1.4007823 -0.13367958 304 27542060 61 43 79 1415
-0.33642778 -1.5382721 -0.16255569 274 27542060 69 44 58 1583
-0.28108585 -1.5527806 -0.17778386 222 27542060 56 45 41 1588
-0.21948147 -1.5288367 -0.18873917 234 27542060 57 46 112 1556
-0.1502783 -1.4107041 -0.18732774 269 27542060 55 47 124 1431
-0.32793283 -1.4934348 -0.21458973 261 27542060 62 48 64 1544
-0.28217301 -1.5549153 -0.23710968 236 27542060 60 49 30 1598
-0.21054812 -1.4611706 -0.2359568 230 27542060 51 50 87 1495
-0.15988958 -1.4969589 -0.25549674 219 27542060 51 51 83 1527
-0.33135831 -1.5026486 -0.27425936 290 27542060 71 52 58 1563
-0.2669512 -1.4668093 -0.28017321 265 27542060 61 53 72 1517
-0.21046582 -1.4573559 -0.29123738 236 27542060 53 54 120 1501
-0.15157259 -1.4193261 -0.29715881 308 27542060 66 55 78 1458
-0.33250511 -1.5038545 -0.33412322 276 27542060 69 56 64 1576
-0.26180953 -1.4342939 -0.33057889 239 27542060 53 57 38 1495
-0.19929169 -1.3781111 -0.32993034 232 27542060 48 58 95 1431
-0.14803864 -1.3850895 -0.34472725 232 27542060 48 59 81 1435
-0.31532669 -1.4182901 -0.37285736 253 27542060 57 60 16 1500
-0.25360811 -1.3828044 -0.37491345 308 27542060 65 61 10 1455
-0.20080301 -1.3866824 -0.38846681 194 27542060 41 62 93 1454
-0.14819315 -1.3920529 -0.40382755 201 27542060 43 63 83 1457
-0.46541196 -2.0821013 0.66593629 64 27642200 32 0 82 2235
-0.4659026 -2.533973 0.7733146 288 27642200 209 1 86 2690
-0.39634472 -2.7281141 0.79825097 105 27642200 86 2 50 2870
-0.21429183 -2.0024707 0.5625574 61 27642200 26 3 53 2091
-0.58560628 -2.6260543 0.72682446 191 27642200 149 4 75 2787
-0.41353476 -2.2436476 0.59201735 104 27642200 58 5 40 2357
-0.30856991 -2.118227 0.53323144 48 27642200 23 6 102 2206
-0.20152126 -1.8652866 0.44848263 121 27642200 45 7 68 1929
-0.49523619 -2.2228134 0.52479649 420 27642200 229 8 97 2337
-0.36868778 -2.0046463 0.44836611 60 27642200 26 9 42 2087
-0.29127321 -1.991935 0.42261621 78 27642200 33 10 44 2057
-0.20916232 -1.9203187 0.38668823 60 27642200 23 11 34 1970
-0.46247914 -2.0773242 0.40832132 63 27642200 30 12 91 2167
-0.36043438 -1.9555495 0.36104697 45 27642200 18 13 36 2021
-0.29457065 -2.0117874 0.34915513 50 27642200 21 14 89 2063
-0.21991892 -2.014502 0.32897887 74 27642200 31 15 68 2053
-0.43130562 -1.9371423 0.30581015 64 27642200 26 16 55 2008
-0.3502661 -1.8979652 0.27846327 51 27642200 19 17 113 1950
-0.27006695 -1.837502 0.25005287 66 27642200 23 18 75 1874
-0.20217218 -1.8415103 0.231637 47 27642200 17 19 68 1867
-0.41167733 -1.8488327 0.2213341 52 27642200 19 20 93 1907
-0.34748387 -1.8812335 0.20491955 44 27642200 16 21 98 1924
-0.26090738 -1.7693855 0.17438883 53 27642200 17 22 80 1797
-0.1936902 -1.7554948 0.15572935 53 27642200 17 23 134 1773
-0.40765771 -1.8291253 0.15005444 41 27642200 15 24 70 1880
-0.33912086 -1.8332702 0.13144867 44 27642200 15 25 77 1869
-0.2583715 -1.7517643 0.10789835 42 27642200 13 26 140 1774
-0.19588956 -1.7658151 0.091462262 45 27642200 14 27 88 1779
-0.41426417 -1.8544991 0.082599267 60 27642200 22 28 49 1902
-0.3309378 -1.7855481 0.061542448 40 27642200 13 29 30 1817
-0.26849955 -1.8086225 0.045101319 35 27642200 12 30 44 1829
-0.18206392 -1.6357151 0.024590356 46 27642200 13 31 77 1646
-0.3951174 -1.7683513 0.012650044 33 27642200 11 32 84 1812
-0.31516507 -1.6969762 -0.0043680309 190 27642200 57 33 61 1726
-0.25144225 -1.6923004 -0.020425523 50 27642200 15 34 86 1711
-0.18866043 -1.6850817 -0.036376577 42 27642200 12 35 85 1696
-0.37506473 -1.6747591 -0.0509669 230 27642200 68 36 97 1717
-0.30004838 -1.6090111 -0.064021915 188 27642200 50 37 55 1638
-0.24819063 -1.6656162 -0.081978634 51 27642200 15 38 82 1686
-0.18091509 -1.6161568 -0.094594933 51 27642200 14 39 83 1629
-0.3639029 -1.6189553 -0.11012662 255 27642200 71 40 75 1663
-0.29428443 -1.5741378 -0.1213382 242 27642200 62 41 89 1606
-0.2295104 -1.5373073 -0.13270785 248 27642200 60 42 141 1560
-0.16414452 -1.4591997 -0.13934797 300 27642200 65 43 66 1475
-0.35896915 -1.5944043 -0.16871701 300 27642200 81 44 54 1643
-0.29280427 -1.5627474 -0.17912731 220 27642200 56 45 76 1600
-0.22356318 -1.4921215 -0.18437245 236 27642200 55 46 110 1520
-0.16426243 -1.4570428 -0.19361128 244 27642200 53 47 142 1479
-0.34232995 -1.5145768 -0.21792533 284 27642200 70 48 67 1568
-0.2917085 -1.5531546 -0.23710968 221 27642200 56 49 34 1598
-0.22655754 -1.5067226 -0.24353266 243 27642200 58 50 88 1543
-0.16242844 -1.4371698 -0.24545759 227 27642200 49 51 91 1467
-0.34580168 -1.5236288 -0.27847064 293 27642200 74 52 36 1587
-0.27812919 -1.4767333 -0.28238946 256 27642200 60 53 60 1529
-0.21764997 -1.4443965 -0.28890905 249 27642200 55 54 112 1489
-0.15895939 -1.4066956 -0.29471308 278 27642200 58 55 68 1446
-0.32611445 -1.4331764 -0.31885871 262 27642200 59 56 86 1504
-0.2749494 -1.4556595 -0.33588582 256 27642200 59 57 53 1519
-0.22342265 -1.4807763 -0.35483071 118 27642200 28 58 61 1539
-0.16438861 -1.453604 -0.36202368 167 27642200 38 59 89 1507
-0.46140906 -2.0168519 -0.53094888 204 27642200 93 60 19 2136
-0.26208806 -1.3812222 -0.37491345 344 27642200 73 61 9 1455
-0.2075803 -1.3739901 -0.38526073 289 27642200 60 62 112 1442
-0.15027755 -1.3338305 -0.38719776 228 27642200 45 63 74 1397
-0.47047651 -2.0457158 0.65520978 101 27738330 49 0 59 2199
-0.49003279 -2.5762308 0.78711355 245 27738330 184 1 108 2738
-0.41480383 -2.7370274 0.80158865 88 27738330 73 2 39 2882
-0.2200733 -1.9436975 0.54641521 53 27738330 22 3 32 2031
-0.59393609 -2.5885377 0.71743596 259 27738330 196 4 91 2751
-0.41424105 -2.1726093 0.57393283 85 27738330 44 5 44 2285
-0.3093169 -2.0357096 0.51292706 68 27738330 31 6 81 2122
-0.21826188 -1.9103979 0.45964238 24 27738330 10 7 71 1977
-0.50886577 -2.2197328 0.52479649 337 27738330 184 8 87 2337
-0.38974345 -2.0483992 0.45867828 64 27738330 29 9 43 2135
-0.31411287 -2.0597689 0.4374088 55 27738330 25 10 44 2129
-0.22094125 -1.9189992 0.38668823 57 27738330 22 11 37 1970
-0.47258514 -2.0629601 0.40606022 68 27738330 32 12 114 2155
-0.38569465 -2.0228894 0.37390959 58 27738330 25 13 46 2093
-0.29084218 -1.9047196 0.33087653 59 27738330 23 14 102 1955
-0.23227553 -2.0131147 0.32897887 50 27738330 21 15 59 2053
-0.46437165 -2.0269434 0.32043055 58 27738330 25 16 53 2104
-0.37304074 -1.9541119 0.28703138 54 27738330 22 17 114 2010
-0.29034415 -1.8945876 0.25805885 62 27738330 23 18 85 1934
-0.21621175 -1.863891 0.23461466 44 27738330 16 19 82 1891
-0.457618 -1.9973042 0.2394401 53 27738330 22 20 133 2063
-0.34334585 -1.7970276 0.19597293 50 27738330 17 21 96 1840
-0.27901822 -1.81497 0.17904694 53 27738330 18 22 76 1845
-0.19477138 -1.6711605 0.14835131 46 27738330 13 23 99 1689
-0.42154697 -1.8382486 0.15101223 49 27738330 18 24 70 1892
-0.34361467 -1.7958838 0.12891676 42 27738330 14 25 85 1833
-0.28185806 -1.8330165 0.1130074 41 27738330 14 26 116 1858
-0.20114309 -1.716969 0.088994481 41 27738330 12 27 100 1731
-0.42294997 -1.8402382 0.082078137 54 27738330 19 28 73 1890
-0.34866127 -1.8188198 0.062761784 44 27738330 15 29 35 1853
-0.27959201 -1.8069409 0.045101319 33 27738330 11 30 49 1829
-0.1906966 -1.6226506 0.024411082 32 27738330 9 31 81 1634
-0.40058342 -1.7425044 0.012482494 42 27738330 13 32 99 1788
-0.31425393 -1.6360878 -0.0042161876 229 27738330 63 33 53 1666
-0.25631246 -1.6551523 -0.019995764 45 27738330 13 34 89 1675
-0.19477236 -1.6481494 -0.035604432 39 27738330 11 35 67 1660
-0.38533381 -1.6724263 -0.0509669 196 27738330 58 36 110 1717
-0.31445628 -1.6306875 -0.064959966 230 27738330 63 37 32 1662
-0.24737085 -1.5929987 -0.078477763 154 27738330 40 38 101 1614
-0.1852053 -1.5674284 -0.091807611 59 27738330 15 39 75 1581
-0.37382978 -1.6166919 -0.11012662 268 27738330 74 40 64 1663
-0.31756371 -1.6427919 -0.12677802 240 27738330 67 41 51 1678
-0.24261481 -1.5594989 -0.1347495 250 27738330 63 42 147 1584
-0.16746199 -1.410713 -0.13481326 287 27738330 58 43 49 1427
-0.37682509 -1.627058 -0.1724138 270 27738330 76 44 64 1679
-0.3023876 -1.5609213 -0.17912731 245 27738330 63 45 39 1600
-0.24006334 -1.5377971 -0.19019474 232 27738330 57 46 124 1568
-0.17319958 -1.4560075 -0.19361128 240 27738330 52 47 126 1479
-0.36238053 -1.5587472 -0.2245965 279 27738330 73 48 55 1616
-0.29670885 -1.5280365 -0.2335486 245 27738330 61 49 30 1574
-0.23763216 -1.5170108 -0.24542663 206 27738330 50 50 73 1555
-0.17264445 -1.4478936 -0.24746542 223 27738330 49 51 70 1479
-0.3470878 -1.4869646 -0.27215371 290 27738330 70 52 71 1551
-0.28943893 -1.4865752 -0.28460574 244 27738330 58 53 64 1541
-0.22468308 -1.4314044 -0.28658071 240 27738330 52 54 121 1477
-0.17176004 -1.4406903 -0.30205032 130 27738330 29 55 66 1482
-0.33757421 -1.4425671 -0.32140279 260 27738330 60 56 72 1516
-0.29060379 -1.4884033 -0.34384626 238 27738330 57 57 21 1555
-0.23613012 -1.5024478 -0.36036414 145 27738330 35 58 79 1563
-0.16640466 -1.3947351 -0.34761 309 27738330 65 59 89 1447
-0.51636207 -2.195015 -0.57867461 302 27738330 164 60 35 2328
-0.27502099 -1.4023442 -0.38109761 323 27738330 71 61 14 1479
-0.21420948 -1.3612673 -0.38205469 283 27738330 58 62 96 1430
-0.1679869 -1.413028 -0.41047952 114 27738330 25 63 67 1481
-0.47511238 -2.0093479 0.64448327 113 27836170 53 0 75 2163
-0.48144475 -2.4491217 0.74916649 75 27836170 51 1 96 2606
-0.3992433 -2.5294905 0.74151123 116 27836170 82 2 51 2666
-0.24021982 -2.0111663 0.56578588 54 27836170 24 3 37 2103
-0.62044793 -2.6299455 0.72995389 354 27836170 278 4 80 2799
-0.45001829 -2.2839887 0.60407376 79 27836170 45 5 50 2405
-0.32726133 -2.0682764 0.52162892 80 27836170 37 6 74 2158
-0.25371057 -2.1060083 0.50707132 19 27836170 9 7 68 2181
-0.53589028 -2.2734766 0.53827012 300 27836170 173 8 88 2397
-0.39778247 -2.0229702 0.45352221 66 27836170 29 9 26 2111
-0.30464527 -1.9186184 0.40782359 43 27836170 17 10 52 1985
-0.22987677 -1.8942456 0.38197732 61 27836170 23 11 39 1946
-0.57710236 -2.4500394 0.48293844 100 27836170 66 12 119 2563
-0.39125222 -1.9857318 0.36747828 65 27836170 27 13 40 2057
-0.31180847 -1.9613003 0.34103131 65 27836170 26 14 91 2015
-0.23747414 -1.95286 0.31936428 53 27836170 21 15 51 1993
-0.46864182 -1.9894238 0.3149479 60 27836170 25 16 47 2068
-0.37353069 -1.8935241 0.27846327 50 27836170 19 17 95 1950
-0.33194143 -2.0806775 0.28367794 41 27836170 19 18 75 2126
-0.22331053 -1.8270713 0.23014818 52 27836170 18 19 94 1855
-0.453466 -1.9248507 0.23108347 65 27836170 26 20 97 1991
-0.36823222 -1.8651218 0.20364144 53 27836170 19 21 97 1912
-0.27693936 -1.7306706 0.17089522 50 27836170 16 22 73 1761
-0.21958815 -1.7885793 0.15889138 54 27836170 18 23 138 1809
-0.45203435 -1.9171246 0.15771678 41 27836170 16 24 80 1976
-0.36159238 -1.8289706 0.13144867 48 27836170 17 25 73 1869
-0.28931391 -1.8075981 0.11154768 30 27836170 10 26 130 1834
-0.21314183 -1.7275964 0.089611426 51 27836170 16 27 89 1743
-0.41769126 -1.7676044 0.078951351 65 27836170 22 28 70 1818
-0.3341831 -1.687236 0.058290895 30 27836170 9 29 41 1721
-0.28685969 -1.7815038 0.0445095 30 27836170 10 30 40 1805
-0.2080172 -1.6809893 0.025307452 47 27836170 14 31 80 1694
-0.41678804 -1.7633694 0.012650044 40 27836170 13 32 100 1812
-0.32662266 -1.6458992 -0.0042465562 158 27836170 45 33 64 1678
-0.27028146 -1.6772412 -0.02028227 44 27836170 13 34 67 1699
-0.21376798 -1.7183561 -0.037148722 41 27836170 12 35 76 1732
-0.40388259 -1.7050457 -0.052035511 76 27836170 23 36 145 1753
-0.33148402 -1.6640066 -0.066367038 227 27836170 65 37 36 1698
-0.25714067 -1.5914509 -0.078477763 209 27836170 54 38 101 1614
-0.2022129 -1.6257031 -0.095291764 54 27836170 15 39 73 1641
-0.38928062 -1.6376657 -0.11171594 266 27836170 76 40 67 1687
-0.32060856 -1.6056101 -0.12405812 241 27836170 65 41 75 1642
-0.24835823 -1.5343751 -0.13270785 234 27836170 57 42 126 1560
-0.18351978 -1.4689298 -0.14048165 271 27836170 60 43 72 1487
-0.37297887 -1.566655 -0.16625248 269 27836170 70 44 52 1619
-0.31663895 -1.582422 -0.18181422 239 27836170 63 45 31 1624
-0.25713214 -1.5833246 -0.19601703 263 27836170 69 46 126 1616
-0.18951885 -1.5139403 -0.20146568 216 27836170 51 47 117 1539
-0.36917612 -1.5449363 -0.22292872 274 27836170 70 48 46 1604
-0.31074613 -1.549458 -0.23710968 252 27836170 64 49 50 1598
-0.24121904 -1.4804381 -0.23974472 216 27836170 50 50 114 1519
-0.1874166 -1.4937623 -0.25549674 232 27836170 54 51 88 1527
-0.35344914 -1.4733189 -0.27004805 268 27836170 63 52 55 1539
-0.29855493 -1.4847714 -0.28460574 282 27836170 67 53 49 1541
-0.24863599 -1.5229437 -0.30520746 205 27836170 51 54 98 1573
-0.18790831 -1.497893 -0.31427908 68 27836170 16 55 49 1542
-0.36287192 -1.5088814 -0.3366673 231 27836170 58 56 101 1588
-0.29047886 -1.4407039 -0.33323237 243 27836170 55 57 47 1507
-0.22839172 -1.3972567 -0.33546373 341 27836170 72 58 99 1455
-0.1720576 -1.3705721 -0.34184453 324 27836170 66 59 105 1423
-0.53255177 -2.2031033 -0.58165747 436 27836170 239 60 63 2340
-0.28131926 -1.3892663 -0.37800556 243 27836170 52 61 22 1467
-0.22442564 -1.3713393 -0.38526073 132 27836170 28 62 81 1442
-0.16949712 -1.3547673 -0.3938497 63 27836170 13 63 56 1421
-0.48472834 -1.9952636 0.64090776 144 27934780 67 0 60 2151
