# .PCD v0.7 - Point Cloud Data file format
VERSION 0.7
FIELDS x y z intensity t reflectivity ring noise range
SIZE 4 4 4 4 4 2 1 2 4
TYPE F F F F U U U U U
COUNT 1 1 1 1 1 1 1 1 1
WIDTH 759
HEIGHT 1
VIEWPOINT 0 0 0 1 0 0 0
POINTS 759
DATA ascii
0.072960436 -1.2554506 0.30061591 264 25016980 44 7 47 1293
-0.079952396 -1.4917066 0.34425035 86 25016980 20 8 66 1533
-0.02240626 -1.3817779 0.30399522 75 25016980 15 9 28 1415
0.02726705 -1.3316867 0.27962112 103 25016980 19 10 55 1361
0.074077129 -1.2941638 0.25949332 357 25016980 62 11 12 1322
-0.082123898 -1.5367379 0.29526511 77 25016980 19 12 86 1567
-0.01791436 -1.079204 0.1959765 197 25016980 24 13 32 1097
0.022285262 -1.0986888 0.18870962 259 25016980 32 14 94 1115
0.072174057 -1.2663397 0.20591225 321 25016980 53 15 42 1285
-0.072385341 -1.3540622 0.20894997 96 25016980 18 16 20 1372
-0.01888309 -1.1222192 0.16193712 250 25016980 32 17 46 1134
0.021400709 -1.0840062 0.14597538 244 25016980 29 18 58 1094
0.06339778 -1.1244448 0.14081843 255 25016980 33 19 61 1135
-0.074412644 -1.39153 0.16283783 215 25016980 42 20 43 1403
-0.019316038 -1.1373289 0.12184405 222 25016980 29 21 71 1144
0.021343226 -1.1075411 0.10801044 276 25016980 34 22 47 1113
0.059146192 -1.0592339 0.093543015 254 25016980 29 23 115 1065
-0.072223648 -1.3457501 0.10791149 246 25016980 45 24 33 1352
-0.019350337 -1.1220473 0.079122394 199 25016980 25 25 76 1125
0.021154804 -1.0997564 0.067025922 281 25016980 34 26 120 1102
0.05899749 -1.0679554 0.055062447 284 25016980 33 27 82 1071
-0.061915852 -1.1432434 0.049768012 154 25016980 20 28 51 1146
-0.01970933 -1.1201835 0.037968677 230 25016980 29 29 32 1121
0.020277478 -1.1084774 0.027346836 278 25016980 34 30 30 1109
0.06059467 -1.1042153 0.016523046 298 25016980 37 31 67 1106
-0.062357508 -1.150283 0.0080424128 122 25016980 16 32 77 1152
-0.020005675 -1.1138169 -0.0028192275 250 25016980 31 33 35 1114
0.020619074 -1.1347319 -0.013549369 278 25016980 36 34 90 1135
0.059982765 -1.10612 -0.023764886 246 25016980 30 35 59 1108
-0.06687887 -1.2226324 -0.036362521 124 25016980 19 36 110 1225
-0.021403963 -1.1449243 -0.044791888 229 25016980 30 37 51 1146
0.020316372 -1.1444643 -0.055722129 278 25016980 37 38 112 1146
0.062131658 -1.1453773 -0.066721655 218 25016980 29 39 51 1149
-0.087289751 -1.5731142 -0.104564 133 25016980 33 40 57 1579
-0.02355752 -1.2302475 -0.093232475 171 25016980 26 41 62 1234
0.023603255 -1.3508785 -0.11535374 278 25016980 51 42 131 1356
0.072978452 -1.3589278 -0.12914488 321 25016980 60 43 74 1367
-0.08645758 -1.5483465 -0.16009118 83 25016980 20 44 85 1559
-0.031310782 -1.60156 -0.18047076 93 25016980 24 45 37 1612
0.025568236 -1.5085601 -0.18437245 174 25016980 40 46 97 1520
0.0706513 -1.3216249 -0.17476067 259 25016980 46 47 141 1335
-0.087869212 -1.550294 -0.21792533 213 25016980 52 48 57 1568
-0.031816006 -1.5918604 -0.23889025 285 25016980 74 49 15 1610
0.0258012 -1.5708469 -0.25110853 176 25016980 45 50 60 1591
0.082457915 -1.5506059 -0.26352808 74 25016980 18 51 76 1575
-0.13733214 -2.3853948 -0.42586526 385 25016980 227 52 98 2427
-0.031754889 -1.5495455 -0.29125452 236 25016980 59 53 62 1577
0.037562687 -2.3315246 -0.4612067 274 25016980 155 54 76 2377
0.083312437 -1.5661596 -0.32650784 62 25016980 16 55 87 1602
-0.14246871 -2.4507601 -0.5325619 386 25016980 243 56 123 2512
-0.049816251 -2.3702996 -0.53755003 337 25016980 199 57 93 2431
0.036659878 -2.3029373 -0.54573381 356 25016980 199 58 50 2367
0.12082385 -2.2750657 -0.56381524 388 25016980 214 59 70 2347
-0.14794676 -2.4946399 -0.64131463 446 25016980 297 60 50 2580
-0.053012151 -2.4256303 -0.64701563 389 25016980 245 61 40 2511
0.036943406 -2.3490863 -0.65136319 370 25016980 220 62 68 2438
0.12228178 -2.2844484 -0.65992683 332 25016980 188 63 54 2381
-0.091416262 -1.5121562 0.47285947 73 25116140 19 0 58 1587
-0.030537164 -1.3692956 0.41109291 90 25116140 19 1 64 1430
0.020258792 -1.327314 0.38438427 62 25116140 12 2 47 1382
0.071687818 -1.3532261 0.37853578 74 25116140 15 3 37 1407
-0.087518737 -1.4599531 0.39509833 88 25116140 20 4 65 1515
-0.032058809 -1.409927 0.36596066 77 25116140 16 5 17 1457
0.020585919 -1.3835609 0.34469086 88 25116140 18 6 62 1426
0.068283871 -1.3141518 0.31456557 118 25116140 22 7 43 1353
-0.086313881 -1.4444971 0.33347145 69 25116140 15 8 70 1485
-0.032455765 -1.4519156 0.31946355 73 25116140 16 9 19 1487
0.018758729 -1.3083434 0.27469024 81 25116140 14 10 43 1337
0.064934261 -1.2710916 0.25478241 376 25116140 63 11 34 1298
-0.085942827 -1.4420917 0.27717614 78 25116140 17 12 84 1471
-0.026146274 -1.1498972 0.20883912 151 25116140 21 13 32 1169
0.015543414 -1.0988048 0.18870962 259 25116140 32 14 82 1115
0.061996888 -1.2194401 0.19822058 292 25116140 45 15 44 1237
-0.089161508 -1.4956605 0.23088057 89 25116140 20 16 20 1516
-0.025495861 -1.1102084 0.1602235 253 25116140 32 17 59 1122
0.015072528 -1.1079003 0.14917776 279 25116140 35 18 60 1118
0.054705139 -1.0891358 0.13635194 271 25116140 33 19 72 1099
-0.085077934 -1.4267405 0.16701613 212 25116140 44 20 45 1439
-0.026294192 -1.137189 0.12184405 220 25116140 29 21 54 1144
0.014233396 -1.0837666 0.10568138 268 25116140 32 22 56 1089
0.054425318 -1.0953937 0.096705034 280 25116140 34 23 118 1101
-0.08547987 -1.4288641 0.11461604 246 25116140 51 24 31 1436
-0.025954889 -1.1099405 0.078278422 211 25116140 26 25 72 1113
0.014563304 -1.1118423 0.067755789 242 25116140 30 26 101 1114
0.053618733 -1.0922366 0.056296334 274 25116140 33 27 75 1095
-0.071816593 -1.1907097 0.051852535 143 25116140 20 28 32 1194
-0.026866831 -1.1320312 0.038375121 231 25116140 30 29 32 1133
0.013475606 -1.1085809 0.027346836 273 25116140 34 30 35 1109
0.053234272 -1.0925819 0.016343774 301 25116140 36 31 57 1094
-0.071583539 -1.1858125 0.0082937377 99 25116140 14 32 76 1188
-0.02568309 -1.0656873 -0.0026977528 252 25116140 29 33 59 1066
0.013222957 -1.0988423 -0.013119609 267 25116140 32 34 75 1099
0.051466264 -1.0705169 -0.022992741 259 25116140 30 35 55 1072
-0.074379548 -1.2221991 -0.036362521 111 25116140 17 36 112 1225
-0.029321732 -1.1807328 -0.046198964 216 25116140 30 37 38 1182
0.012876086 -1.1086123 -0.053971693 261 25116140 32 38 110 1110
0.053951617 -1.121805 -0.065327995 238 25116140 30 39 46 1125
-0.094730377 -1.5366961 -0.10218002 289 25116140 69 40 40 1543
-0.031105733 -1.2300798 -0.093232475 159 25116140 24 41 62 1234
0.015856065 -1.3988208 -0.11943706 279 25116140 55 42 143 1404
0.06747596 -1.4190142 -0.13481326 302 25116140 62 43 60 1427
-0.098910831 -1.5954417 -0.16502023 135 25116140 35 44 76 1607
-0.037768625 -1.4702107 -0.16569276 62 25116140 13 45 47 1480
0.016053855 -1.4848671 -0.1814613 221 25116140 50 46 105 1496
0.062540635 -1.3220334 -0.17476067 266 25116140 47 47 118 1335
-0.10185152 -1.6208867 -0.2279321 95 25116140 26 48 59 1640
-0.040653076 -1.5560459 -0.2335486 216 25116140 53 49 25 1574
0.015430766 -1.4998819 -0.23974472 280 25116140 65 50 105 1519
0.070719026 -1.5038116 -0.25549674 70 25116140 16 51 74 1527
-0.15346882 -2.408087 -0.43007657 385 25116140 231 52 92 2451
-0.042832024 -1.6082685 -0.30233589 193 25116140 52 53 70 1637
0.022903796 -2.296397 -0.45422167 363 25116140 199 54 79 2341
0.075909369 -1.6135819 -0.33629084 46 25116140 13 55 80 1650
-0.15900841 -2.4732459 -0.53765005 383 25116140 246 56 103 2536
-0.064994581 -2.3933465 -0.54285699 360 25116140 217 57 79 2455
0.022985484 -2.3498235 -0.55680066 347 25116140 203 58 74 2415
0.10631566 -2.2641282 -0.56093252 413 25116140 225 59 88 2335
-0.16173218 -2.4704881 -0.63534892 414 25116140 270 60 42 2556
-0.06724561 -2.4020789 -0.64083153 378 25116140 234 61 47 2487
0.022528987 -2.3492687 -0.65136319 357 25116140 212 62 66 2438
0.10989927 -2.3197067 -0.66990477 337 25116140 197 63 53 2417
-0.099170186 -1.4887075 0.46570846 64 25213660 16 0 52 1563
-0.039591942 -1.39206 0.41799238 89 25213660 19 1 34 1454
0.012008977 -1.3158873 0.38104665 55 25213660 10 2 36 1370
0.067707881 -1.4459996 0.40436336 89 25213660 20 3 20 1503
-0.096475191 -1.4593886 0.39509833 101 25213660 23 4 45 1515
-0.041044645 -1.4213142 0.36897478 71 25213660 15 5 15 1469
0.01209616 -1.3836612 0.34469086 90 25213660 18 6 95 1426
0.062355477 -1.3611817 0.32572532 98 25213660 19 7 43 1401
-0.096713722 -1.4672767 0.3388609 73 25213660 17 8 45 1509
-0.039027311 -1.3696839 0.30141717 90 25213660 18 9 17 1403
0.011501011 -1.4023829 0.29441372 97 25213660 20 10 45 1433
0.058190167 -1.2949754 0.25949332 360 25213660 63 11 23 1322
-0.097109519 -1.4768162 0.28395951 81 25213660 18 12 98 1507
-0.034905512 -1.2087255 0.219558 93 25213660 14 13 39 1229
0.0087062633 -1.0870531 0.18667868 245 25213660 30 14 91 1103
0.05239806 -1.172465 0.1905289 287 25213660 40 15 40 1189
-0.096001849 -1.459582 0.22539791 78 25213660 17 16 25 1480
-0.032653026 -1.1219029 0.16193712 255 25213660 33 17 68 1134
0.0080078607 -1.0722947 0.14437418 252 25213660 29 18 49 1082
0.047496952 -1.0775551 0.13486309 275 25213660 33 19 64 1087
-0.09930791 -1.509444 0.17676552 81 25213660 19 20 65 1523
-0.034318358 -1.1727861 0.1256783 215 25213660 30 21 73 1180
0.007750385 -1.1077197 0.10801044 269 25213660 33 22 76 1113
0.047703084 -1.0957069 0.096705034 268 25213660 33 23 99 1101
-0.09267047 -1.4044411 0.11270045 258 25213660 51 24 36 1412
-0.033471391 -1.1336906 0.079966374 224 25213660 29 25 47 1137
0.0077408939 -1.1119107 0.067755789 248 25213660 31 26 135 1114
0.046401739 -1.080572 0.055679392 316 25213660 37 27 88 1083
-0.085482821 -1.2859449 0.056021586 118 25213660 20 28 37 1290
-0.03417046 -1.1438328 0.038781568 195 25213660 26 29 19 1145
0.006673228 -1.1086428 0.027346836 282 25213660 35 30 28 1109
0.048570819 -1.1408391 0.017060867 275 25213660 36 31 56 1142
-0.080451287 -1.2092973 0.0084612872 103 25213660 15 32 74 1212
-0.033309694 -1.1014929 -0.0027888587 255 25213660 31 33 58 1102
0.0065510971 -1.1109016 -0.013262861 275 25213660 34 34 68 1111
0.047409609 -1.1307462 -0.024279648 279 25213660 36 35 55 1132
-0.08348155 -1.2456554 -0.037074931 83 25213660 13 36 137 1249
-0.037308477 -1.2045009 -0.047137015 175 25213660 26 37 62 1206
0.0062705055 -1.1446273 -0.055722129 256 25213660 34 38 117 1146
0.04857349 -1.1580226 -0.067418486 248 25213660 34 39 64 1161
-0.10739774 -1.5838708 -0.10535866 292 25213660 74 40 49 1591
-0.039780408 -1.2657452 -0.095952384 130 25213660 21 41 64 1270
0.0075214044 -1.446717 -0.12352037 290 25213660 61 42 135 1452
0.057779398 -1.3955295 -0.1325459 298 25213660 59 43 58 1403
-0.10707504 -1.5709869 -0.16255569 264 25213660 66 44 58 1583
-0.050962027 -1.6010551 -0.18047076 113 25213660 29 45 36 1612
0.0072210263 -1.544494 -0.18873917 140 25213660 34 46 87 1556
0.057363037 -1.3937124 -0.18418598 259 25213660 51 47 127 1407
-0.11097715 -1.6083758 -0.2262643 259 25213660 69 48 42 1628
-0.050582748 -1.5676281 -0.23532914 236 25213660 59 49 14 1586
0.0062273741 -1.4999483 -0.23974472 259 25213660 60 50 102 1519
0.06149048 -1.5042173 -0.25549674 174 25213660 41 51 72 1527
-0.16659425 -2.3835299 -0.42586526 382 25213660 225 52 80 2427
-0.050767805 -1.5490392 -0.29125452 316 25213660 78 53 44 1577
0.0087677632 -2.2847223 -0.4518933 336 25213660 182 54 91 2329
0.062166762 -1.5201107 -0.31672481 52 25213660 13 55 91 1554
-0.17253257 -2.4488273 -0.5325619 395 25213660 249 56 126 2512
-0.079678655 -2.3929026 -0.54285699 374 25213660 226 57 76 2455
0.0085242372 -2.3382437 -0.55403394 345 25213660 199 58 45 2403
0.092896201 -2.276377 -0.56381524 379 25213660 209 59 82 2347
-0.17605731 -2.4578555 -0.63236606 394 25213660 255 60 42 2544
-0.082774378 -2.4247971 -0.64701563 389 25213660 245 61 34 2511
0.0080737844 -2.3377988 -0.64815712 370 25213660 218 62 68 2426
0.095663741 -2.3203373 -0.66990477 336 25213660 196 63 50 2417
-0.10414536 -1.4309473 0.44783095 91 25311040 21 0 58 1503
-0.048132718 -1.3917909 0.41799238 101 25311040 21 1 68 1454
0.0042103282 -1.4081478 0.40774772 56 25311040 12 2 34 1466
0.055076253 -1.3540039 0.37853578 95 25311040 19 3 39 1407
-0.10709815 -1.4818783 0.40135729 92 25311040 22 4 49 1539
-0.049358368 -1.4094274 0.36596066 85 25311040 18 5 34 1457
0.0036059474 -1.3837093 0.34469086 77 25311040 16 6 69 1426
0.054927342 -1.3848628 0.33130521 94 25311040 19 7 66 1425
-0.10571494 -1.4666556 0.3388609 61 25311040 14 8 62 1509
-0.051487602 -1.4865464 0.3271977 77 25311040 18 9 12 1523
0.0028716847 -1.3906831 0.29194829 90 25311040 18 10 47 1421
0.05161145 -1.3305812 0.26655969 358 25311040 66 11 29 1358
-0.11208712 -1.5584753 0.29978737 66 25311040 17 12 83 1591
-0.048519876 -1.3854843 0.25171456 87 25311040 17 13 40 1409
0.0020803697 -1.1107398 0.19074059 244 25311040 31 14 87 1127
0.043378118 -1.1254199 0.18283725 204 25311040 26 15 51 1141
-0.1024029 -1.4234772 0.21991527 69 25311040 14 16 32 1444
-0.039954651 -1.1335511 0.16365074 235 25311040 31 17 55 1146
0.0014915932 -1.1198944 0.15077895 273 25311040 35 18 63 1130
0.042238336 -1.1135224 0.13932958 279 25311040 35 19 69 1123
-0.10429069 -1.4493654 0.16980167 65 25311040 14 20 67 1463
-0.041091621 -1.1606293 0.12440022 178 25311040 24 21 50 1168
0.00095339929 -1.1077464 0.10801044 267 25311040 33 22 71 1113
0.040085774 -1.0720885 0.094597019 273 25311040 32 23 124 1077
-0.102147 -1.4157767 0.11365825 240 25311040 49 24 38 1424
-0.042133633 -1.1813145 0.083342262 184 25311040 26 25 58 1185
0.00095775531 -1.1598483 0.070675246 241 25311040 33 26 101 1162
0.041533284 -1.1287404 0.058147173 286 25311040 37 27 93 1131
-0.11248022 -1.548454 0.067486465 212 25311040 51 28 9 1554
-0.041619908 -1.155587 0.039188009 174 25311040 23 29 32 1157
-0.0001350027 -1.1566483 0.028530467 270 25311040 36 30 36 1157
0.039822605 -1.0931529 0.016343774 319 25311040 38 31 64 1094
-0.098309867 -1.3523985 0.0094665894 84 25311040 15 32 57 1356
-0.042249247 -1.1612281 -0.0029407023 227 25311040 31 33 42 1162
-0.00027398954 -1.1469183 -0.013692621 251 25311040 33 34 69 1147
0.03961255 -1.1070367 -0.023764886 273 25311040 34 35 81 1108
-0.1051309 -1.4365233 -0.0427742 83 25311040 17 36 97 1441
-0.045143213 -1.2162318 -0.04760604 121 25311040 18 37 43 1218
-0.00076079788 -1.1566302 -0.05630561 248 25311040 33 38 107 1158
0.040609885 -1.1343548 -0.066024825 241 25311040 31 39 60 1137
-0.11799749 -1.5951229 -0.10615332 255 25311040 65 40 40 1603
-0.056081966 -1.4926653 -0.11317848 145 25311040 33 41 69 1498
-0.0013556262 -1.446736 -0.12352037 235 25311040 49 42 157 1452
0.048794553 -1.3839188 -0.13141222 317 25311040 61 43 59 1391
-0.12025139 -1.6179152 -0.16748473 145 25311040 39 44 79 1631
-0.062142439 -1.6364602 -0.18450114 73 25311040 20 45 49 1648
-0.0023603346 -1.6159774 -0.19747259 88 25311040 23 46 88 1628
0.051724344 -1.4772643 -0.19518214 253 25311040 56 47 117 1491
-0.17696056 -2.3542213 -0.33133543 362 25311040 206 48 101 2384
-0.061111562 -1.5910051 -0.23889025 115 25311040 30 49 33 1610
-0.0030703016 -1.5473565 -0.24732059 216 25311040 53 50 98 1567
0.050616883 -1.4572715 -0.24746542 276 25311040 60 51 76 1479
-0.1856962 -2.4413619 -0.4363935 400 25311040 248 52 95 2487
-0.060271576 -1.5486985 -0.29125452 283 25311040 70 53 50 1577
-0.0046830112 -2.037523 -0.40299803 209 25311040 90 54 108 2077
0.05283837 -1.5204636 -0.31672481 52 25311040 13 55 67 1554
-0.19024293 -2.4828014 -0.54019415 425 25311040 276 56 108 2548
-0.096204638 -2.4391441 -0.55347085 366 25311040 229 57 50 2503
-0.0059394338 -2.3849587 -0.56510079 371 25311040 223 58 68 2451
0.078926861 -2.2769041 -0.56381524 411 25311040 227 59 82 2347
-0.19564301 -2.5146706 -0.64728034 310 25311040 210 60 45 2604
-0.09905111 -2.4589996 -0.65629184 397 25311040 257 61 38 2547
-0.0063949041 -2.3840594 -0.66098136 348 25311040 213 62 78 2474
0.081424624 -2.3208807 -0.66990477 374 25311040 218 63 44 2417
-0.11562827 -1.4645396 0.45855746 84 25408560 20 0 56 1539
-0.058074828 -1.4259212 0.42834157 87 25408560 19 1 66 1490
-0.0045025074 -1.4312 0.41442302 59 25408560 13 2 35 1490
0.045969468 -1.3312149 0.37207887 90 25408560 17 3 33 1383
-0.1134709 -1.4465455 0.39196882 75 25408560 17 4 66 1503
-0.060871959 -1.4787309 0.38404521 70 25408560 16 5 26 1529
-0.0050077098 -1.4186375 0.35339269 78 25408560 17 6 79 1462
0.047601894 -1.4201677 0.33967504 89 25408560 19 7 62 1461
-0.11653663 -1.4892952 0.34425035 73 25408560 17 8 56 1533
-0.057742663 -1.4159421 0.31172937 85 25408560 18 9 17 1451
-0.0056136302 -1.3789304 0.28948283 92 25408560 18 10 53 1409
0.041910533 -1.2838317 0.25713786 382 25408560 66 11 17 1310
-0.11706004 -1.4990118 0.28848174 66 25408560 16 12 96 1531
-0.05944825 -1.4441454 0.26243344 89 25408560 19 13 34 1469
-0.0047350409 -1.1107316 0.19074059 237 25408560 30 14 71 1127
0.034937546 -1.07831 0.17514558 276 25408560 33 15 52 1093
-0.11390594 -1.4582939 0.22539791 77 25408560 17 16 21 1480
-0.049856413 -1.2044858 0.17393245 153 25408560 23 17 63 1218
-0.0053799776 -1.1198825 0.15077895 243 25408560 31 18 73 1130
0.035783425 -1.125662 0.14081843 289 25408560 37 19 62 1135
-0.12060869 -1.5437597 0.18094382 68 25408560 16 20 39 1559
-0.050688993 -1.2199625 0.13079064 130 25408560 20 21 74 1228
-0.0058436221 -1.1077313 0.10801044 231 25408560 29 22 59 1113
0.034626815 -1.1081576 0.097759031 264 25408560 33 23 111 1113
-0.10989814 -1.4031982 0.11270045 239 25408560 48 24 12 1412
-0.050381377 -1.2049534 0.085030206 171 25408560 25 25 54 1209
-0.0059681474 -1.1238996 0.068485655 248 25408560 31 26 98 1126
0.033137966 -1.0810601 0.055679392 266 25408560 31 27 87 1083
-0.12009539 -1.5238315 0.066444203 250 25408560 58 28 33 1530
-0.050730471 -1.2032397 0.040813789 167 25408560 24 29 46 1205
-0.0069320267 -1.1086411 0.027346836 268 25408560 33 30 28 1109
0.032751162 -1.0813835 0.016164498 323 25408560 38 31 65 1082
-0.12075744 -1.5312083 0.010723216 124 25408560 29 32 40 1536
-0.049883496 -1.172936 -0.0029710708 165 25408560 23 33 56 1174
-0.0070818672 -1.1108984 -0.013262861 297 25408560 37 34 94 1111
0.033530042 -1.1312429 -0.024279648 251 25408560 32 35 66 1132
-0.12438081 -1.5673795 -0.046692446 143 25408560 35 36 89 1573
-0.052605022 -1.2159319 -0.04760604 119 25408560 18 37 35 1218
-0.0078577325 -1.1566037 -0.05630561 261 25408560 35 38 95 1158
0.033648852 -1.1345826 -0.066024825 230 25408560 30 39 53 1137
-0.12299988 -1.534692 -0.10218002 267 25408560 64 40 60 1543
-0.066807576 -1.5281559 -0.11589839 267 25408560 63 41 47 1534
-0.010486307 -1.482569 -0.12658286 218 25408560 48 42 119 1488
0.040302068 -1.3841921 -0.13141222 325 25408560 63 43 66 1391
-0.12826094 -1.5933508 -0.16502023 288 25408560 74 44 56 1607
-0.070079997 -1.5883962 -0.17912731 174 25408560 44 45 34 1600
-0.012004288 -1.5801995 -0.19310589 127 25408560 32 46 96 1592
0.041972384 -1.4537703 -0.1920404 206 25408560 44 47 110 1467
-0.1952562 -2.4004691 -0.33800665 368 25408560 218 48 77 2432
-0.072985604 -1.6380218 -0.24601243 79 25408560 22 49 38 1658
-0.012757084 -1.571007 -0.25110853 158 25408560 40 50 87 1591
0.043703049 -1.5285106 -0.25951242 274 25408560 66 51 70 1551
-0.20067263 -2.4401765 -0.4363935 382 25408560 236 52 80 2487
-0.10162889 -2.2551961 -0.42423064 238 25408560 126 53 96 2297
-0.013114161 -1.554823 -0.3075358 284 25408560 71 54 101 1585
0.049219459 -1.7203957 -0.35830262 51 25408560 16 55 55 1758
-0.20740892 -2.5049617 -0.5452823 497 25408560 329 56 101 2572
-0.11116914 -2.4385078 -0.55347085 346 25408560 216 57 55 2503
-0.020573154 -2.3848774 -0.56510079 361 25408560 217 58 83 2451
0.065286666 -2.2889895 -0.56669801 415 25408560 231 59 77 2359
-0.21106906 -2.513423 -0.64728034 271 25408560 184 60 46 2604
-0.11575063 -2.4930925 -0.66556805 290 25408560 193 61 51 2583
-0.021125069 -2.3955386 -0.66418737 349 25408560 216 62 68 2486
0.067515984 -2.3328617 -0.67323077 370 25408560 218 63 56 2429
-0.1207258 -1.4181479 0.44425547 89 25506500 20 0 43 1491
-0.067361198 -1.4370188 0.43179128 94 25506500 21 1 53 1502
-0.013177115 -1.4196194 0.41108534 41 25506500 9 2 36 1478
0.03812841 -1.343025 0.37530732 86 25506500 17 3 32 1395
-0.12527502 -1.4804525 0.40135729 89 25506500 21 4 43 1539
-0.073237777 -1.5479435 0.40212974 80 25506500 20 5 23 1601
-0.013712212 -1.4185802 0.35339269 72 25506500 15 6 85 1462
0.036331806 -1.3270985 0.31735551 109 25506500 20 7 58 1365
-0.12665632 -1.5002042 0.34694505 78 25506500 19 8 68 1545
-0.071374081 -1.5209233 0.33493182 64 25506500 16 9 23 1559
-0.014913558 -1.4610739 0.30674085 72 25506500 16 10 43 1493
0.034032304 -1.2840647 0.25713786 302 25506500 52 11 27 1310
-0.12526602 -1.4865218 0.28622061 70 25506500 16 12 78 1519
-0.069424234 -1.4673409 0.26672098 65 25506500 14 13 23 1493
-0.011550273 -1.1106817 0.19074059 223 25506500 28 14 93 1127
0.02863143 -1.0903449 0.1770685 289 25506500 35 15 54 1105
-0.12783219 -1.5166582 0.23453568 73 25506500 17 16 29 1540
-0.054426063 -1.1448392 0.16536435 133 25506500 18 17 60 1158
-0.011861039 -1.0841526 0.14597538 255 25506500 31 18 65 1094
0.028265228 -1.1020536 0.13784076 250 25506500 31 19 76 1111
-0.13208126 -1.5667442 0.18372935 136 25506500 34 20 64 1583
-0.0638583 -1.3388104 0.14357148 198 25506500 36 21 42 1348
-0.012776708 -1.1196171 0.10917497 241 25506500 31 22 65 1125
0.027526619 -1.0963994 0.096705034 261 25506500 32 23 118 1101
-0.12454873 -1.474013 0.11844722 236 25506500 52 24 30 1484
-0.06465514 -1.3481001 0.095157869 181 25506500 33 25 50 1353
-0.013138345 -1.1477958 0.069945388 260 25506500 34 26 91 1150
0.025916731 -1.057282 0.054445498 260 25506500 29 27 66 1059
-0.12842795 -1.5111203 0.06592308 218 25506500 50 28 30 1518
-0.059269886 -1.2268641 0.041626677 159 25506500 24 29 26 1229
-0.014031618 -1.1325686 0.027938651 251 25506500 32 30 43 1133
0.02669457 -1.1055543 0.016523046 316 25506500 39 31 67 1106
-0.13218409 -1.5543516 0.010890766 197 25506500 48 32 55 1560
-0.058829866 -1.2085651 -0.003062177 147 25506500 21 33 51 1210
-0.014348421 -1.1468285 -0.013692621 297 25506500 39 34 88 1147
0.025742672 -1.0954455 -0.023507504 259 25506500 31 35 72 1096
-0.13297352 -1.5546358 -0.046336241 244 25506500 60 36 75 1561
-0.060656622 -1.2275624 -0.048075065 138 25506500 21 37 43 1230
-0.015729209 -1.2164577 -0.059222996 216 25506500 32 38 107 1218
0.027813157 -1.1826735 -0.068812154 237 25506500 33 39 66 1185
-0.13756321 -1.5935549 -0.10615332 212 25506500 55 40 59 1603
-0.076778866 -1.5396681 -0.11680502 239 25506500 57 41 60 1546
-0.019425055 -1.4705213 -0.12556204 213 25506500 46 42 139 1476
0.032356877 -1.4082997 -0.13367958 281 25506500 56 43 59 1415
-0.13803515 -1.5925338 -0.16502023 330 25506500 85 44 28 1607
-0.079226211 -1.5760268 -0.17778386 288 25506500 73 45 28 1588
-0.021209281 -1.5443653 -0.18873917 198 25506500 48 46 87 1556
0.034673583 -1.5253624 -0.20146568 72 25506500 17 47 118 1539
-0.21308981 -2.4347405 -0.34301001 398 25506500 243 48 94 2468
-0.082433961 -1.6256911 -0.24423186 117 25506500 32 49 39 1646
-0.021382824 -1.4998088 -0.23974472 202 25506500 47 50 69 1519
0.033526786 -1.4932665 -0.25348893 268 25506500 62 51 89 1515
-0.21772246 -2.462435 -0.44060475 413 25506500 261 52 100 2511
-0.12270314 -2.3958678 -0.45082584 382 25506500 228 53 88 2441
-0.022482617 -1.5429426 -0.30520746 316 25506500 78 54 148 1573
0.051593833 -2.2961779 -0.47814447 297 25506500 163 55 38 2346
-0.2206964 -2.4802797 -0.54019415 313 25506500 203 56 96 2548
-0.12733884 -2.4611547 -0.55877781 350 25506500 224 57 81 2527
-0.035206098 -2.3847063 -0.56510079 357 25506500 215 58 70 2451
0.051240463 -2.2893469 -0.56669801 385 25506500 214 59 84 2359
-0.22961831 -2.5468097 -0.6562289 244 25506500 170 60 48 2640
-0.13043697 -2.4807565 -0.66247594 373 25506500 246 61 42 2571
-0.03582342 -2.3953638 -0.66418737 365 25506500 226 62 66 2486
0.053463373 -2.344759 -0.67655671 373 25506500 222 63 66 2441
-0.13775833 -1.5086404 0.47285947 76 25604400 19 0 43 1587
-0.076785915 -1.4480557 0.43524101 89 25604400 21 1 58 1514
-0.021709781 -1.4079868 0.40774772 51 25604400 11 2 40 1466
0.030915417 -1.3894523 0.38822111 83 25604400 17 3 24 1443
-0.12807086 -1.4104323 0.38258037 72 25604400 15 4 55 1467
-0.078393564 -1.4662738 0.38103113 82 25604400 19 5 20 1517
-0.022232208 -1.4068266 0.35049209 71 25604400 15 6 71 1450
0.028436009 -1.3389651 0.32014546 103 25604400 20 7 59 1377
-0.13691422 -1.5110445 0.34963977 71 25604400 17 8 49 1557
-0.085053392 -1.60238 0.3529782 65 25604400 18 9 15 1643
-0.023302492 -1.4257275 0.29934457 79 25604400 17 10 43 1457
0.026871491 -1.3195417 0.26420423 231 25604400 42 11 10 1346
-0.13332315 -1.4739882 0.28395951 75 25604400 17 12 81 1507
-0.081578121 -1.5258379 0.27743983 75 25604400 18 13 41 1553
-0.018560616 -1.1224152 0.19277154 237 25604400 31 14 77 1139
0.02194066 -1.0905001 0.1770685 306 25604400 37 15 49 1105
-0.13499865 -1.4922217 0.23088057 71 25604400 16 16 36 1516
-0.076732449 -1.4291221 0.20649125 76 25604400 16 17 60 1446
-0.019934528 -1.1672961 0.15718372 246 25604400 34 18 46 1178
0.021502623 -1.1022062 0.13784076 234 25604400 29 19 60 1111
-0.13632162 -1.5065522 0.17676552 202 25604400 47 20 36 1523
-0.076563016 -1.4217948 0.15251808 264 25604400 54 21 35 1432
-0.019855872 -1.1314592 0.11033951 239 25604400 31 22 73 1137
0.021478789 -1.1324021 0.099867053 227 25604400 29 23 114 1137
-0.13791175 -1.5208724 0.1222784 204 25604400 48 24 34 1532
-0.075512871 -1.3954891 0.098533757 241 25604400 47 25 41 1401
-0.019759674 -1.1237416 0.068485655 242 25604400 31 26 82 1126
0.020309513 -1.1053494 0.056913279 265 25604400 32 27 90 1107
-0.14205167 -1.5580605 0.068007603 226 25604400 55 28 16 1566
-0.06549225 -1.2025266 0.040813789 131 25604400 19 29 33 1205
-0.020980664 -1.1324612 0.027938651 257 25604400 33 30 34 1133
0.019694487 -1.0937006 0.016343774 254 25604400 30 31 55 1094
-0.1460795 -1.6013116 0.011225867 187 25604400 48 32 32 1608
-0.066244371 -1.2081815 -0.003062177 123 25604400 18 33 40 1210
-0.02160869 -1.158716 -0.013835874 273 25604400 37 34 71 1159
0.019228915 -1.1075783 -0.023764886 267 25604400 33 35 59 1108
-0.14798772 -1.6135135 -0.048117261 195 25604400 51 36 74 1621
-0.070183396 -1.2630843 -0.049482141 135 25604400 22 37 45 1266
-0.022050448 -1.1564202 -0.05630561 204 25604400 27 38 109 1158
0.020139564 -1.1588659 -0.067418486 242 25604400 33 39 57 1161
-0.15285335 -1.6522945 -0.11012662 61 25604400 17 40 79 1663
-0.091578826 -1.6347438 -0.12405812 121 25604400 33 41 39 1642
-0.030529173 -1.5779629 -0.1347495 217 25604400 54 42 164 1584
0.023916222 -1.4204164 -0.13481326 271 25604400 55 43 63 1427
-0.18643373 -2.0076468 -0.20814934 220 25604400 90 44 96 2027
-0.089566782 -1.5874165 -0.17912731 281 25604400 72 45 29 1600
-0.031868152 -1.6037512 -0.19601703 120 25604400 31 46 99 1616
0.025708234 -1.5493367 -0.20460744 101 25604400 25 47 110 1563
-0.23135123 -2.4688823 -0.3480134 407 25604400 255 48 81 2504
-0.095102221 -1.6725469 -0.25135407 102 25604400 29 49 37 1694
-0.032276414 -1.5825793 -0.25300249 103 25604400 26 50 48 1603
0.025328539 -1.5525903 -0.26352808 290 25604400 72 51 95 1575
-0.23394024 -2.4728138 -0.44271037 379 25604400 241 52 95 2523
-0.1414544 -2.4657147 -0.46412343 385 25604400 243 53 88 2513
-0.032436982 -1.5663146 -0.30986416 329 25604400 84 54 115 1597
0.037695609 -2.3081977 -0.48059016 362 25604400 202 55 58 2358
-0.24035513 -2.5255768 -0.55037051 294 25604400 198 56 105 2596
-0.14311419 -2.4720101 -0.56143129 344 25604400 222 57 62 2539
-0.050569728 -2.4194677 -0.57340091 339 25604400 210 58 70 2487
0.038138296 -2.3478537 -0.58111167 385 25604400 225 59 72 2419
-0.24858512 -2.5800622 -0.66517752 276 25604400 197 60 51 2676
-0.14429647 -2.4567599 -0.65629184 370 25604400 240 61 44 2547
-0.051495876 -2.441344 -0.67701161 381 25604400 245 62 64 2534
0.03984357 -2.391156 -0.68986052 363 25604400 225 63 61 2489
-0.14701259 -1.5077667 0.47285947 84 25701410 21 0 23 1587
-0.08566957 -1.4475573 0.43524101 107 25701410 24 1 46 1514
-0.031342298 -1.4539223 0.42109826 42 25701410 10 2 37 1514
0.022389315 -1.3896159 0.38822111 86 25701410 18 3 31 1443
-0.14790657 -1.5249263 0.41387528 81 25701410 20 4 56 1587
-0.08808025 -1.4773599 0.38404521 86 25701410 20 5 28 1529
-0.031630192 -1.4415878 0.35919395 75 25701410 17 6 94 1486
0.021100771 -1.3974636 0.33409515 77 25701410 16 7 56 1437
-0.14392994 -1.4868978 0.34425035 61 25701410 14 8 76 1533
-0.08864677 -1.4965343 0.32977575 61 25701410 14 9 20 1535
-0.033369996 -1.4842629 0.31167173 72 25701410 16 10 53 1517
0.01977871 -1.3902739 0.278337 98 25701410 20 11 22 1418
-0.14236486 -1.4731424 0.28395951 80 25701410 18 12 91 1507
-0.086722851 -1.4545925 0.26457721 59 25701410 13 13 53 1481
-0.025179176 -1.1104563 0.19074059 219 25701410 28 14 70 1127
0.015249064 -1.0906142 0.1770685 264 25701410 32 15 44 1105
-0.14757535 -1.5267802 0.23636322 81 25701410 19 16 30 1552
-0.089757189 -1.4997592 0.21677297 81 25701410 19 17 62 1518
-0.025716415 -1.1077043 0.14917776 233 25701410 29 18 70 1118
0.014898406 -1.1142236 0.13932958 234 25701410 30 19 63 1123
-0.14785691 -1.5294145 0.17955105 235 25701410 56 20 23 1547
-0.086714908 -1.4451189 0.15507425 213 25701410 45 21 47 1456
-0.026515171 -1.1193761 0.10917497 249 25701410 32 22 60 1125
0.013916688 -1.084702 0.095651031 235 25701410 28 23 116 1089
-0.15070103 -1.5557154 0.12515178 215 25701410 53 24 20 1568
-0.084074005 -1.3949995 0.098533757 254 25701410 50 25 52 1401
-0.027222576 -1.1475482 0.069945388 242 25701410 32 26 89 1150
0.0138201 -1.1294198 0.058147173 269 25701410 34 27 83 1131
-0.15160908 -1.5571595 0.068007603 225 25701410 55 28 7 1566
-0.072869584 -1.2021021 0.040813789 117 25701410 17 29 29 1205
-0.028224727 -1.1443039 0.02823456 231 25701410 30 30 32 1145
0.013410531 -1.1297942 0.016881593 306 25701410 39 31 77 1130
-0.15473877 -1.588442 0.011142092 212 25701410 54 32 30 1596
-0.074386865 -1.2197299 -0.0030925456 117 25701410 18 33 67 1222
-0.027528673 -1.1105797 -0.013262861 267 25701410 33 34 85 1111
0.012297932 -1.0956789 -0.023507504 271 25701410 33 35 70 1096
-0.15905407 -1.6245127 -0.04847347 207 25701410 55 36 87 1633
-0.077193521 -1.2506618 -0.049013115 91 25701410 14 37 57 1254
-0.030655833 -1.2161731 -0.059222996 170 25701410 25 38 101 1218
0.012893856 -1.1469887 -0.066721655 221 25701410 29 39 56 1149
-0.15475602 -1.5679153 -0.104564 88 25701410 22 40 79 1579
-0.099380001 -1.5983231 -0.1213382 141 25701410 36 41 77 1606
-0.037773777 -1.4821248 -0.12658286 250 25701410 55 42 147 1488
0.015839376 -1.4802647 -0.14048165 260 25701410 57 43 56 1487
-0.24346004 -2.4578454 -0.25497523 367 25701410 226 44 105 2483
-0.098560512 -1.5749358 -0.17778386 286 25701410 72 45 50 1588
-0.039539993 -1.5201739 -0.18582802 249 25701410 58 46 123 1532
0.0162012 -1.5494653 -0.20460744 198 25701410 48 47 96 1563
-0.24767692 -2.4792409 -0.34968117 378 25701410 239 48 83 2516
-0.10909484 -1.7311502 -0.2602568 111 25701410 34 49 42 1754
-0.044186488 -1.6652694 -0.26626027 104 25701410 30 50 66 1687
0.015440369 -1.5172257 -0.25750458 271 25701410 64 51 90 1539
-0.24910873 -2.4713318 -0.44271037 424 25701410 270 52 104 2523
-0.15433799 -2.429491 -0.45747465 356 25701410 219 53 82 2477
-0.042047095 -1.5660861 -0.30986416 322 25701410 82 54 141 1597
0.02377158 -2.3318806 -0.48548171 373 25701410 212 55 69 2382
-0.25702989 -2.5357218 -0.55291456 267 25701410 182 56 121 2608
-0.16052368 -2.5061226 -0.56939173 359 25701410 238 57 60 2575
-0.065414354 -2.419112 -0.57340091 344 25701410 213 58 68 2487
0.023613693 -2.3363953 -0.57822889 375 25701410 217 59 81 2407
-0.26559711 -2.5900512 -0.66816038 275 25701410 198 60 53 2688
-0.16086985 -2.4789691 -0.66247594 382 25701410 252 61 46 2571
-0.065530322 -2.4063034 -0.66739345 359 25701410 224 62 73 2498
0.024928255 -2.3682969 -0.68320864 364 25701410 221 63 47 2465
-0.15507974 -1.4954424 0.46928394 93 25799250 23 0 57 1575
-0.095299408 -1.4584733 0.43869072 89 25799250 21 1 51 1526
-0.040901054 -1.4767468 0.42777354 52 25799250 12 2 40 1538
0.013401253 -1.3434992 0.37530732 103 25799250 20 3 39 1395
-0.15131497 -1.4663723 0.39822781 91 25799250 21 4 47 1527
-0.094856277 -1.4420209 0.37500292 87 25799250 19 5 33 1493
-0.039494462 -1.4064479 0.35049209 76 25799250 16 6 92 1450
0.012525699 -1.3975667 0.33409515 73 25799250 15 7 62 1437
-0.15305066 -1.4859867 0.34425035 68 25799250 16 8 63 1533
-0.10012199 -1.5310467 0.3375099 68 25799250 17 9 10 1571
-0.041804623 -1.4605517 0.30674085 87 25799250 19 10 38 1493
0.010867034 -1.3433045 0.26891518 103 25799250 19 11 25 1370
-0.15622355 -1.519134 0.29300401 65 25799250 16 12 81 1555
-0.098746382 -1.501159 0.27315229 71 25799250 17 13 28 1529
-0.032332979 -1.1221029 0.19277154 156 25799250 20 14 80 1139
0.0084639695 -1.0788426 0.17514558 270 25799250 32 15 58 1093
-0.1605811 -1.5612394 0.24184588 86 25799250 22 16 18 1588
-0.10443377 -1.5821388 0.2287683 63 25799250 16 17 48 1602
-0.033210624 -1.1313008 0.15238015 247 25799250 32 18 43 1142
0.0079752374 -1.1023872 0.13784076 232 25799250 29 19 75 1111
-0.15479906 -1.504766 0.17676552 212 25799250 49 20 47 1523
-0.097155854 -1.468371 0.15763041 207 25799250 45 21 33 1480
-0.033739123 -1.1311305 0.11033951 204 25799250 26 22 54 1137
0.0075808559 -1.1325804 0.099867053 207 25799250 27 23 111 1137
-0.16392295 -1.5904576 0.12802516 220 25799250 57 24 15 1604
-0.096599095 -1.4541773 0.10275362 283 25799250 60 25 33 1461
-0.036050934 -1.2072217 0.073594704 214 25799250 31 26 120 1210
0.0065974426 -1.0815477 0.055679392 245 25799250 29 27 82 1083
-0.16116077 -1.5562 0.068007603 236 25799250 58 28 2 1566
-0.083440617 -1.2494981 0.042439565 102 25799250 16 29 32 1253
-0.035245512 -1.1441091 0.02823456 213 25799250 28 30 37 1145
0.0064779911 -1.1298553 0.016881593 316 25799250 40 31 66 1130
-0.16695578 -1.6113343 0.011309642 172 25799250 45 32 46 1620
-0.087497286 -1.3030616 -0.0033051267 109 25799250 19 33 42 1306
-0.035455354 -1.1463702 -0.013692621 236 25799250 31 34 83 1147
0.0055137044 -1.0837367 -0.023250123 288 25799250 34 35 71 1084
-0.16901889 -1.6235062 -0.04847347 202 25799250 54 36 74 1633
-0.097859822 -1.4415774 -0.056517515 93 25799250 19 37 36 1446
-0.039619721 -1.2638818 -0.061556906 129 25799250 21 38 92 1266
0.0059781377 -1.1710055 -0.068115324 228 25799250 31 39 57 1173
-0.17436723 -1.6622027 -0.11092128 49 25799250 14 40 77 1675
-0.10592194 -1.5499319 -0.11771166 115 25799250 28 41 83 1558
-0.04837906 -1.5296673 -0.13066618 187 25799250 44 42 131 1536
0.0070289606 -1.5400649 -0.14615004 182 25799250 44 43 69 1547
-0.26228493 -2.4919183 -0.258672 383 25799250 243 44 96 2519
-0.10740449 -1.562405 -0.1764404 246 25799250 61 45 41 1576
-0.050397936 -1.5675236 -0.1916503 294 25799250 73 46 111 1580
0.0065393844 -1.5138456 -0.1998948 227 25799250 53 47 112 1527
-0.26539224 -2.5013092 -0.35301679 415 25799250 268 48 103 2540
-0.16558063 -2.393425 -0.35996753 276 25799250 162 49 48 2426
-0.050533712 -1.5465342 -0.24732059 257 25799250 63 50 72 1567
0.0061783581 -1.5291228 -0.25951242 177 25799250 43 51 72 1551
-0.26803863 -2.5049973 -0.44902727 438 25799250 287 52 85 2559
-0.17170186 -2.4637933 -0.46412343 379 25799250 240 53 83 2513
-0.052431915 -1.5893296 -0.31452084 268 25799250 70 54 128 1621
0.0094629824 -2.3319826 -0.48548171 366 25799250 208 55 65 2382
-0.27509239 -2.5574172 -0.55800277 276 25799250 191 56 108 2632
-0.17425852 -2.4817421 -0.56408477 363 25799250 236 57 73 2551
-0.079869263 -2.4069946 -0.57063419 349 25799250 214 58 62 2475
0.0093236491 -2.3481448 -0.58111167 394 25799250 231 59 61 2419
-0.28022775 -2.5768175 -0.66517752 269 25799250 192 60 45 2676
-0.17854299 -2.5126324 -0.67175215 393 25799250 267 61 50 2607
-0.081451043 -2.4405282 -0.67701161 390 25799250 250 62 44 2534
0.010497409 -2.3914647 -0.68986052 369 25799250 228 63 54 2489
-0.16800702 -1.5286219 0.48001042 78 25897190 20 0 33 1611
-0.10424664 -1.4578612 0.43869072 96 25897190 22 1 75 1526
-0.047622535 -1.4073486 0.40774772 50 25897190 11 2 30 1466
0.0052905404 -1.3782285 0.38499269 98 25897190 20 3 22 1431
-0.17038801 -1.5575445 0.42326373 81 25897190 21 4 61 1623
-0.10787012 -1.4993385 0.39007339 92 25897190 22 5 24 1553
-0.048521783 -1.4178164 0.35339269 69 25897190 15 6 77 1462
0.0039501558 -1.3976172 0.33409515 94 25897190 19 7 48 1437
-0.16851261 -1.5431417 0.35772392 60 25897190 15 8 53 1593
-0.10616835 -1.4836439 0.3271977 64 25897190 15 9 24 1523
-0.050765611 -1.4602678 0.30674085 65 25897190 14 10 50 1493
0.0027853847 -1.4257115 0.2854034 79 25897190 17 11 19 1454
-0.16298684 -1.4947156 0.28848174 76 25897190 18 12 77 1531
-0.10964999 -1.5240779 0.27743983 71 25897190 17 13 42 1553
-0.038804289 -1.1100637 0.19074059 117 25897190 15 14 79 1127
0.0019048967 -1.1144091 0.18091434 281 25897190 36 15 57 1129
-0.16887183 -1.5484346 0.24001832 158 25897190 39 16 3 1576
-0.11071971 -1.5340832 0.22191381 63 25897190 15 17 54 1554
-0.040573437 -1.1429609 0.15398134 234 25897190 31 18 67 1154
0.0011978872 -1.0905081 0.13635194 212 25897190 26 19 78 1099
-0.16532163 -1.5156363 0.17815828 221 25897190 52 20 37 1535
-0.10616378 -1.4677472 0.15763041 121 25897190 27 21 68 1480
-0.044542935 -1.2383229 0.1208203 149 25897190 23 22 63 1245
0.00063133088 -1.1326056 0.099867053 209 25897190 27 23 117 1137
-0.17367873 -1.5894217 0.12802516 205 25897190 53 24 27 1604
-0.10638663 -1.4654961 0.1035976 228 25897190 49 25 42 1473
-0.042595662 -1.1830378 0.072134979 190 25897190 27 26 140 1186
-3.979644e-05 -1.105536 0.056913279 252 25897190 31 27 92 1107
-0.17463069 -1.5909332 0.069570996 239 25897190 61 28 7 1602
-0.10768374 -1.476228 0.050162006 112 25897190 25 29 18 1481
-0.04270792 -1.1558595 0.028530467 230 25897190 31 30 27 1157
-0.00045479293 -1.1298738 0.016881593 312 25897190 40 31 63 1130
-0.17945944 -1.6341355 0.011477192 195 25897190 53 32 50 1644
-0.093736261 -1.2785645 -0.0032443893 93 25897190 15 33 59 1282
-0.044711277 -1.2060856 -0.014408886 227 25897190 33 34 76 1207
-0.0011863894 -1.131739 -0.024279648 295 25897190 38 35 83 1132
-0.18160777 -1.6462833 -0.049185876 188 25897190 52 36 98 1657
-0.1199859 -1.6203212 -0.063552886 160 25897190 42 37 25 1626
-0.045128796 -1.203728 -0.058639519 157 25897190 23 38 116 1206
-0.0011577323 -1.123101 -0.065327995 227 25897190 29 39 59 1125
-0.2017522 -1.8158071 -0.12125186 82 25897190 28 40 86 1831
-0.12254266 -1.6447138 -0.12496475 59 25897190 16 41 63 1654
-0.057312731 -1.5173936 -0.12964535 71 25897190 17 42 100 1524
-0.0025147239 -1.5998107 -0.15181844 115 25897190 30 43 63 1607
-0.27624786 -2.478399 -0.25743976 413 25897190 260 44 98 2507
-0.11877076 -1.5854989 -0.17912731 110 25897190 28 45 52 1600
-0.060470946 -1.5790876 -0.19310589 258 25897190 65 46 86 1592
-0.0028359499 -1.561444 -0.20617832 180 25897190 45 47 123 1575
-0.28206128 -2.5114427 -0.35468456 414 25897190 270 48 92 2552
-0.18739654 -2.4870329 -0.37421191 341 25897190 217 49 52 2522
-0.061401058 -1.581717 -0.25300249 196 25897190 50 50 73 1603
-0.0032538616 -1.5527935 -0.26352808 77 25897190 19 51 71 1575
-0.28739089 -2.5385218 -0.4553442 305 25897190 206 52 96 2595
-0.18860035 -2.486213 -0.46855599 386 25897190 249 53 90 2537
-0.08059606 -2.0594959 -0.40765473 238 25897190 105 54 120 2101
-0.0048459726 -2.3319967 -0.48548171 374 25897190 212 55 57 2382
-0.2960822 -2.602289 -0.56817907 299 25897190 215 56 119 2680
-0.18948291 -2.4806261 -0.56408477 402 25897190 262 57 60 2551
-0.096013337 -2.4414623 -0.57893431 369 25897190 232 58 44 2511
-0.0051601399 -2.3831036 -0.58975989 376 25897190 227 59 81 2455
-0.30001602 -2.6096914 -0.67412609 296 25897190 218 60 32 2712
-0.19663519 -2.5461705 -0.68102837 323 25897190 226 61 62 2643
-0.096880935 -2.4515371 -0.68021762 322 25897190 209 62 66 2546
-0.0041765403 -2.391484 -0.68986052 364 25897190 226 63 67 2489
-0.1773833 -1.5275623 0.48001042 75 25994000 19 0 48 1611
-0.11318994 -1.4571941 0.43869072 87 25994000 20 1 63 1526
-0.057177957 -1.4300646 0.41442302 46 25994000 10 2 42 1490
-0.0031927617 -1.3897926 0.38822111 84 25994000 17 3 26 1443
-0.18127216 -1.5679779 0.42639324 76 25994000 20 4 32 1635
-0.11616328 -1.4870684 0.3870593 69 25994000 16 5 21 1541
-0.062386706 -1.5454736 0.38529959 56 25994000 14 6 75 1594
-0.0048572966 -1.4676418 0.35083479 79 25994000 18 7 55 1509
-0.17529659 -1.5188459 0.3523345 59 25994000 15 8 73 1569
-0.11436158 -1.47128 0.32461962 62 25994000 14 9 36 1511
-0.061164804 -1.4951314 0.31413716 56 25994000 13 10 45 1529
-0.0057658269 -1.3786359 0.27598155 83 25994000 16 11 28 1406
-0.17215519 -1.4936874 0.28848174 74 25994000 17 12 80 1531
-0.11899949 -1.5233763 0.27743983 70 25994000 17 13 40 1553
-0.054357272 -1.3225091 0.22729778 68 25994000 12 14 79 1343
-0.0048281592 -1.09071 0.1770685 249 25994000 30 15 55 1105
-0.17701153 -1.5355873 0.23819079 252 25994000 62 16 1 1564
-0.12105824 -1.5452158 0.22362745 59 25994000 15 17 63 1566
-0.050059881 -1.2021025 0.1619873 139 25994000 21 18 68 1214
-0.0059132422 -1.1738448 0.14677374 232 25994000 33 19 69 1183
-0.17734846 -1.5382743 0.18094382 222 25994000 54 20 23 1559
-0.12170427 -1.5503343 0.16657701 141 25994000 34 21 44 1564
-0.055658206 -1.3215557 0.12897204 163 25994000 29 22 61 1329
-0.0062515344 -1.1206346 0.098813035 208 25994000 26 23 125 1125
-0.1820557 -1.5764434 0.12706737 183 25994000 46 24 32 1592
-0.11819654 -1.5006156 0.10612951 199 25994000 45 25 31 1509
-0.048340574 -1.1468527 0.069945388 166 25994000 22 26 105 1150
-0.0070451312 -1.1414666 0.058764119 235 25994000 31 27 98 1143
-0.18715157 -1.6136494 0.07061325 248 25994000 66 28 1 1626
-0.12619866 -1.5950971 0.054226451 176 25994000 45 29 1 1601
-0.049799338 -1.1555758 0.028530467 176 25994000 24 30 33 1157
-0.007309108 -1.1178514 0.01670232 269 25994000 34 31 79 1118
-0.18948293 -1.6330036 0.011477192 171 25994000 46 32 40 1644
-0.12154691 -1.5291722 -0.0038821318 127 25994000 30 33 35 1534
-0.049520411 -1.1458488 -0.013692621 166 25994000 22 34 74 1147
-0.0080443965 -1.1197134 -0.024022266 272 25994000 34 35 62 1120
-0.19309407 -1.657052 -0.049542081 153 25994000 43 36 108 1669
-0.12800804 -1.5956496 -0.062614843 271 25994000 70 37 20 1602
-0.053036407 -1.2154027 -0.059222996 134 25994000 20 38 103 1218
-0.0083923507 -1.1709907 -0.068115324 183 25994000 25 39 51 1173
-0.2882328 -2.456708 -0.16416349 320 25994000 197 40 100 2479
-0.13070761 -1.620077 -0.12315148 134 25994000 36 41 94 1630
-0.070818879 -1.6125734 -0.137812 79 25994000 21 42 137 1620
-0.011594296 -1.5041972 -0.14274901 185 25994000 42 43 57 1511
-0.29423991 -2.5003669 -0.2599043 417 25994000 267 44 107 2531
-0.13909797 -1.7154815 -0.19390532 125 25994000 37 45 50 1732
-0.069630072 -1.5667871 -0.1916503 276 25994000 69 46 118 1580
-0.012227531 -1.5376047 -0.20303658 264 25994000 63 47 130 1551
-0.29606718 -2.497864 -0.35301679 381 25994000 246 48 104 2540
-0.20168893 -2.4740083 -0.37243137 358 25994000 225 49 55 2510
-0.072702006 -1.6168234 -0.2586844 246 25994000 66 50 83 1639
-0.013658012 -1.6592182 -0.28159857 139 25994000 40 51 61 1683
-0.30436254 -2.5484412 -0.45744985 286 25994000 195 52 84 2607
-0.20578034 -2.508517 -0.47298852 369 25994000 242 53 80 2561
-0.10973878 -2.4235194 -0.47983348 341 25994000 209 54 94 2473
-0.01925124 -2.3436706 -0.48792744 364 25994000 209 55 69 2394
-0.30785233 -2.5654922 -0.56054682 319 25994000 223 56 92 2644
-0.20855187 -2.5260701 -0.57469869 369 25994000 249 57 76 2599
-0.11205292 -2.4641564 -0.58446777 351 25994000 226 58 63 2535
-0.019589098 -2.3597307 -0.58399445 396 25994000 234 59 59 2431
-0.31042981 -2.5616455 -0.66219461 396 25994000 281 60 69 2664
-0.21225449 -2.5449162 -0.68102837 279 25994000 195 61 51 2643
-0.1129765 -2.4740002 -0.68662977 315 25994000 208 62 67 2570
-0.019122977 -2.426002 -0.69983846 371 25994000 236 63 50 2525
-0.18397075 -1.5037048 0.47285947 81 26090140 20 0 55 1587
-0.12308938 -1.4679254 0.44214049 87 26090140 21 1 67 1538
-0.067013897 -1.4527153 0.42109826 62 26090140 14 2 32 1514
-0.012012707 -1.4244182 0.39790648 71 26090140 15 3 25 1479
-0.18528558 -1.5208372 0.41387528 77 26090140 20 4 59 1587
-0.12138309 -1.4400306 0.37500292 68 26090140 15 5 31 1493
-0.065375879 -1.4054826 0.35049209 65 26090140 14 6 87 1450
-0.013862486 -1.4675844 0.35083479 86 26090140 19 7 45 1509
-0.19308445 -1.5873895 0.3685028 56 26090140 15 8 63 1641
-0.12632677 -1.5055869 0.33235377 53 26090140 13 9 28 1547
-0.06647341 -1.4126108 0.29687914 64 26090140 13 10 38 1445
-0.014953312 -1.4491702 0.29011431 72 26090140 16 11 27 1478
-0.19410753 -1.5978943 0.30883187 69 26090140 19 12 70 1639
-0.12536937 -1.4873219 0.27100852 65 26090140 15 13 39 1517
-0.06916932 -1.4639151 0.25166926 65 26090140 14 14 78 1487
-0.01114521 -1.0551271 0.17129974 228 26090140 26 15 29 1069
-0.18356955 -1.5109254 0.23453568 251 26090140 60 16 1 1540
-0.12953694 -1.5326091 0.22191381 67 26090140 16 17 57 1554
-0.058002625 -1.2136518 0.16358849 111 26090140 17 18 51 1226
-0.012317456 -1.1023473 0.13784076 232 26090140 29 19 66 1111
-0.18678381 -1.5371572 0.18094382 230 26090140 56 20 47 1559
-0.13624845 -1.6090043 0.17296742 197 26090140 52 21 59 1624
-0.068372197 -1.4166251 0.1382883 244 26090140 50 22 71 1425
-0.013407555 -1.1444808 0.10092105 221 26090140 29 23 117 1149
-0.19172515 -1.5752968 0.12706737 233 26090140 59 24 25 1592
-0.13348074 -1.5714262 0.11119334 208 26090140 52 25 49 1581
-0.059421521 -1.2302814 0.075054437 158 26090140 24 26 93 1234
-0.013901412 -1.1294187 0.058147173 229 26090140 29 27 90 1131
-0.19268648 -1.5767702 0.069049858 273 26090140 69 28 18 1590
-0.1329259 -1.5584435 0.053007118 165 26090140 40 29 8 1565
-0.056888878 -1.1552484 0.028530467 156 26090140 21 30 28 1157
-0.01447212 -1.141781 0.017060867 288 26090140 38 31 75 1142
-0.19949928 -1.6318102 0.011477192 204 26090140 55 32 52 1644
-0.13502426 -1.5762222 -0.0040036067 186 26090140 46 33 37 1582
-0.058325175 -1.1814771 -0.014122381 133 26090140 19 34 60 1183
-0.014595078 -1.0956508 -0.023507504 301 26090140 36 35 83 1096
-0.20618075 -1.6796467 -0.05025449 190 26090140 55 36 65 1693
-0.13469979 -1.5589951 -0.061207768 263 26090140 64 37 26 1566
-0.062280953 -1.2509674 -0.060973428 143 26090140 23 38 92 1254
-0.015099182 -1.134981 -0.066024825 199 26090140 26 39 67 1137
-0.30623779 -2.4786596 -0.1657528 432 26090140 271 40 75 2503
-0.14582288 -1.6788486 -0.12768467 195 26090140 56 41 54 1690
-0.082505718 -1.6479331 -0.14087449 85 26090140 23 42 117 1656
-0.021154413 -1.5279882 -0.14501637 108 26090140 25 43 56 1535
-0.31251186 -2.5222063 -0.2623688 422 26090140 276 44 100 2555
-0.17139073 -1.9640634 -0.22211787 180 26090140 71 45 49 1984
-0.081047907 -1.602019 -0.19601703 224 26090140 59 46 114 1616
-0.02132667 -1.5137095 -0.1998948 249 26090140 58 47 124 1527
-0.31285933 -2.5077922 -0.35468456 396 26090140 258 48 98 2552
-0.21790215 -2.4845459 -0.37421191 346 26090140 220 49 55 2522
-0.081411451 -1.5926787 -0.25489646 293 26090140 76 50 88 1615
-0.022308782 -1.5526366 -0.26352808 267 26090140 66 51 85 1575
-0.3229396 -2.5699689 -0.4616611 288 26090140 200 52 76 2631
-0.22220477 -2.5189552 -0.4752048 360 26090140 239 53 74 2573
-0.12460715 -2.4228005 -0.47983348 353 26090140 216 54 103 2473
-0.032282747 -2.2495332 -0.46836144 299 26090140 158 55 74 2298
-0.32799399 -2.5984597 -0.56817907 267 26090140 192 56 120 2680
-0.21887527 -2.4664569 -0.56143129 272 26090140 175 57 53 2539
-0.12777258 -2.4750838 -0.5872345 353 26090140 229 58 45 2547
-0.034404099 -2.3828607 -0.58975989 395 26090140 238 59 81 2455
-0.3202655 -2.513572 -0.65026319 482 26090140 330 60 39 2616
-0.22683123 -2.5320172 -0.67793632 281 26090140 194 61 42 2631
