# .PCD v0.7 - Point Cloud Data file format
VERSION 0.7
FIELDS x y z intensity t reflectivity ring noise range
SIZE 4 4 4 4 4 2 1 2 4
TYPE F F F F U U U U U
COUNT 1 1 1 1 1 1 1 1 1
WIDTH 775
HEIGHT 1
VIEWPOINT 0 0 0 1 0 0 0
POINTS 775
DATA ascii
1.281641 -1.9455296 0.034808949 208 16612160 113 31 59 2330
1.0014226 -1.9543117 0.015330848 329 16612160 159 32 79 2196
1.0881062 -1.9465079 -0.0056435163 326 16612160 162 33 78 2230
1.193445 -1.964774 -0.027444931 127 16612160 67 34 71 2299
1.2879251 -1.9578197 -0.050275173 410 16612160 225 35 74 2344
1.0114359 -1.9762319 -0.065927483 331 16612160 163 36 128 2221
1.0897477 -1.952804 -0.087473169 352 16612160 177 37 69 2238
1.1783417 -1.9417421 -0.11056904 387 16612160 200 38 135 2274
1.2822411 -1.9491051 -0.13570802 382 16612160 209 39 69 2337
0.99994069 -1.957561 -0.14588632 396 16612160 192 40 97 2203
1.1059999 -1.984043 -0.17210986 376 16612160 195 41 98 2278
1.1842198 -1.9526575 -0.19497845 395 16612160 207 42 127 2292
1.3049464 -1.9859583 -0.22550754 352 16612160 201 43 59 2387
1.0142487 -1.9872837 -0.23033002 464 16612160 234 44 94 2243
1.0985024 -1.9724547 -0.2543608 387 16612160 200 45 59 2272
1.201362 -1.9832646 -0.28335136 402 16612160 220 46 86 2336
1.3077533 -1.9912902 -0.31456923 321 16612160 185 47 127 2403
1.0175236 -1.9978322 -0.31465748 423 16612160 217 48 87 2264
1.1202447 -2.013561 -0.34572315 390 16612160 212 49 63 2330
1.2058527 -1.9930321 -0.37232247 295 16612160 164 50 48 2359
1.3324142 -2.030076 -0.41210771 328 16612160 199 51 63 2463
1.0075555 -1.9826223 -0.39638633 415 16612160 212 52 103 2259
1.1194443 -2.0145218 -0.43309566 395 16612160 217 53 69 2345
1.2247374 -2.0256813 -0.46819174 302 16612160 176 54 77 2413
1.3376385 -2.0379581 -0.50749344 350 16612160 217 55 53 2490
1.015434 -2.0008914 -0.48676834 425 16612160 224 56 110 2296
1.110743 -2.0013306 -0.51897568 398 16612160 219 57 49 2347
1.2275275 -2.0311766 -0.56233406 326 16612160 194 58 49 2439
1.3394452 -2.0410993 -0.60417354 366 16612160 232 59 70 2515
1.0181165 -2.0120037 -0.57867461 460 16612160 249 60 56 2328
1.1531242 -2.0818012 -0.63464731 338 16612160 205 61 35 2463
1.2446691 -2.0604343 -0.66739345 325 16612160 203 62 58 2498
1.3445741 -2.047045 -0.70649034 329 16612160 213 63 47 2549
0.91466027 -1.8126992 0.63375682 363 16710420 164 0 49 2127
1.0025475 -1.8118632 0.62152648 397 16710420 186 1 74 2162
1.1086857 -1.8372505 0.62135637 348 16710420 173 2 49 2234
1.1047043 -1.6838762 0.5625574 178 16710420 78 3 30 2091
0.93117607 -1.8431106 0.55783188 399 16710420 182 4 54 2139
0.996925 -1.8035589 0.53474969 404 16710420 183 5 47 2129
1.0992489 -1.8231943 0.53033078 251 16710420 121 6 90 2194
1.1809601 -1.8040905 0.51544112 97 16710420 48 7 66 2217
0.93236428 -1.8445824 0.47629157 371 16710420 167 8 75 2121
1.0321234 -1.865545 0.4689905 217 16710420 103 9 50 2183
1.0809218 -1.794993 0.4398742 58 16710420 26 10 46 2141
1.2174489 -1.8633792 0.44557479 228 16710420 117 11 43 2270
0.9497034 -1.8781532 0.40379909 403 16710420 185 12 87 2143
1.0362217 -1.8746514 0.38891599 259 16710420 123 13 73 2177
1.1278481 -1.8737334 0.37555754 249 16710420 123 14 82 2219
1.2245603 -1.8752639 0.36359134 370 16710420 190 15 52 2269
0.94902253 -1.876888 0.32408565 253 16710420 114 16 36 2128
0.99073076 -1.7933137 0.29559949 50 16710420 22 17 74 2070
1.1162533 -1.8567433 0.29168388 227 16710420 109 18 68 2186
1.239611 -1.9008478 0.28374603 374 16710420 196 19 82 2287
0.96221644 -1.9030643 0.24918947 249 16710420 115 20 60 2147
1.040197 -1.8835511 0.23048122 67 16710420 31 21 88 2164
1.1544614 -1.9223486 0.21864107 350 16710420 178 22 72 2253
1.2379657 -1.9005715 0.1999976 363 16710420 188 23 120 2277
1.0287007 -2.0355268 0.18261944 87 16710420 45 24 52 2288
1.0570405 -1.9152353 0.15423593 343 16710420 165 25 92 2193
1.1582354 -1.9287853 0.13709295 332 16710420 169 26 114 2254
1.2367269 -1.9011354 0.11675707 361 16710420 186 27 88 2271
0.95889336 -1.899702 0.092500754 193 16710420 87 28 54 2130
1.0680389 -1.9367611 0.074955113 51 16710420 25 29 39 2213
1.1248097 -1.8771284 0.053978559 57 16710420 27 30 34 2189
1.2108272 -1.862815 0.033195488 125 16710420 62 31 60 2222
0.98400569 -1.9497068 0.015247073 316 16710420 151 32 87 2184
1.0761422 -1.9531478 -0.0056435163 339 16710420 169 33 84 2230
1.2245313 -2.0441144 -0.028447704 95 16710420 54 34 68 2383
1.2628242 -1.945559 -0.049760412 392 16710420 211 35 66 2320
0.99929094 -1.9824009 -0.065927483 338 16710420 167 36 118 2221
1.077745 -1.9594537 -0.087473169 360 16710420 181 37 70 2238
1.1664052 -1.9489356 -0.11056904 364 16710420 188 38 135 2274
1.27678 -1.9669846 -0.13640486 376 16710420 208 39 66 2349
0.9932918 -1.9743561 -0.14668098 390 16710420 191 40 104 2215
1.0938053 -1.990792 -0.17210986 388 16710420 201 41 87 2278
1.1844908 -1.9804095 -0.19702011 382 16710420 205 42 124 2316
1.2732396 -1.9638562 -0.2221065 336 16710420 186 43 74 2351
0.99667513 -1.9828048 -0.22909777 431 16710420 215 44 105 2231
1.0863791 -1.9791578 -0.2543608 386 16710420 199 45 62 2272
1.2013878 -2.01105 -0.28626248 401 16710420 223 46 114 2360
1.2955104 -1.999277 -0.31456923 333 16710420 192 47 126 2403
0.98926151 -1.9721715 -0.30965412 412 16710420 205 48 102 2228
1.0907513 -1.9891804 -0.3403815 363 16710420 191 49 48 2294
1.1814575 -1.9800419 -0.36853451 415 16710420 226 50 30 2335
1.3135021 -2.0282831 -0.41009989 347 16710420 209 51 74 2451
0.99537134 -1.9887671 -0.39638633 427 16710420 218 52 99 2259
1.0844018 -1.9799775 -0.42423064 418 16710420 221 53 95 2297
1.2183138 -2.0432689 -0.47052011 312 16710420 184 54 81 2425
1.3251086 -2.0461276 -0.50749344 321 16710420 199 55 73 2490
1.0031377 -2.0070844 -0.48676834 436 16710420 230 56 106 2296
1.1040585 -2.0183756 -0.52162915 423 16710420 236 57 62 2359
1.2210194 -2.0487008 -0.56510079 334 16710420 201 58 71 2451
1.320565 -2.0395017 -0.60129082 361 16710420 226 59 58 2503
1.0161204 -2.0390191 -0.58464026 468 16710420 259 60 24 2352
1.1236614 -2.0583065 -0.6253711 356 16710420 209 61 42 2427
1.2260847 -2.0580981 -0.66418737 337 16710420 209 62 62 2486
1.3508003 -2.0842834 -0.71646827 291 16710420 194 63 46 2585
0.90352052 -1.8182774 0.63375682 373 16807720 169 0 43 2127
0.96940029 -1.7776183 0.60772753 381 16807720 170 1 71 2114
1.109181 -1.8638289 0.62803161 343 16807720 175 2 53 2258
1.1006317 -1.7003251 0.56578588 215 16807720 95 3 34 2103
0.90952843 -1.8280455 0.55157286 391 16807720 175 4 71 2115
0.98583984 -1.8096421 0.53474969 405 16807720 183 5 36 2129
1.0880412 -1.8299048 0.53033078 249 16807720 120 6 92 2194
1.1825327 -1.8309112 0.52102107 70 16807720 35 7 60 2241
0.91581774 -1.8398005 0.47359687 399 16807720 178 8 65 2109
1.0430996 -1.9130013 0.47930273 239 16807720 119 9 65 2231
1.1238567 -1.8924706 0.4620631 56 16807720 28 10 42 2249
1.174116 -1.8213652 0.43379745 277 16807720 135 11 35 2210
0.90664124 -1.8206487 0.39023232 346 16807720 149 12 86 2071
1.0246996 -1.8809743 0.38891599 239 16807720 113 13 51 2177
1.104256 -1.8602782 0.37149563 108 16807720 52 14 101 2195
1.1873696 -1.8429136 0.35589969 388 16807720 191 15 55 2221
0.92691517 -1.8614427 0.32043055 296 16807720 131 16 44 2104
1.0308238 -1.8932387 0.3110221 164 16807720 78 17 70 2178
1.0987744 -1.8533275 0.29008269 260 16807720 123 18 52 2174
1.2085954 -1.8783774 0.27927953 365 16807720 185 19 69 2251
0.95583403 -1.9196019 0.25058225 263 16807720 123 20 76 2159
1.0628442 -1.9527783 0.23814973 41 16807720 21 21 63 2236
1.1243864 -1.8985667 0.21514747 329 16807720 162 22 56 2217
1.2004302 -1.8679075 0.19578157 354 16807720 176 23 120 2229
0.94690591 -1.9025869 0.17016812 359 16807720 163 24 66 2132
1.0223902 -1.8796238 0.15086004 345 16807720 159 25 76 2145
1.1463789 -1.9358559 0.13709295 334 16807720 170 26 112 2254
1.2185653 -1.8986025 0.11614011 341 16807720 174 27 82 2259
0.93120962 -1.8733433 0.090937361 161 16807720 70 28 45 2094
1.0504084 -1.9327407 0.074548669 130 16807720 63 29 29 2201
1.1254765 -1.9046507 0.054570373 66 16807720 32 30 36 2213
1.2123289 -1.8904097 0.033554032 84 16807720 43 31 76 2246
0.96668327 -1.9449623 0.015163299 319 16807720 151 32 76 2172
1.0584114 -1.9491687 -0.0056131477 339 16807720 167 33 88 2218
1.1631414 -1.9689405 -0.027301678 252 16807720 132 34 70 2287
1.2443926 -1.9431677 -0.049503028 329 16807720 175 35 73 2308
0.96577501 -1.9455198 -0.064502664 347 16807720 164 36 134 2173
1.0714158 -1.9765713 -0.08794219 332 16807720 168 37 75 2250
1.1666087 -1.9767002 -0.11173599 363 16807720 192 38 128 2298
1.2453046 -1.9445169 -0.13431436 403 16807720 216 39 65 2313
0.97584313 -1.9696845 -0.14588632 424 16807720 206 40 98 2203
1.064477 -1.9658993 -0.16938995 379 16807720 191 41 102 2242
1.1662427 -1.9773413 -0.19599928 381 16807720 202 42 123 2304
1.2611656 -1.9716316 -0.2221065 413 16807720 229 43 58 2351
0.97389936 -1.9674873 -0.22663324 408 16807720 199 44 113 2207
1.0742147 -1.9857864 -0.2543608 381 16807720 197 45 60 2272
1.1769339 -1.9978578 -0.28335136 403 16807720 220 46 84 2336
1.2896268 -2.0172119 -0.31614012 326 16807720 190 47 118 2415
0.98240465 -1.9888589 -0.31132188 437 16807720 219 48 105 2240
1.0841671 -2.0062759 -0.34216201 355 16807720 189 49 68 2306
1.1692859 -1.9872539 -0.36853451 390 16807720 212 50 47 2335
1.2946621 -2.0263348 -0.40809205 321 16807720 191 51 72 2439
0.98314977 -1.9948373 -0.39638633 441 16807720 225 52 103 2259
1.0890372 -2.017729 -0.43087944 419 16807720 228 53 74 2333
1.2057536 -2.0507059 -0.47052011 310 16807720 182 54 85 2425
1.3062035 -2.0443199 -0.50504774 325 16807720 199 55 56 2478
0.99598199 -2.0237236 -0.48931244 427 16807720 227 56 111 2308
1.0916531 -2.0251119 -0.52162915 410 16807720 228 57 59 2359
1.1965929 -2.0360203 -0.55956733 317 16807720 186 58 52 2427
1.314297 -2.0573826 -0.60417354 346 16807720 219 59 74 2515
0.9882291 -2.0139115 -0.57569176 439 16807720 235 60 35 2316
1.0890378 -2.0243187 -0.6130029 340 16807720 192 61 52 2379
1.2075762 -2.0556118 -0.66098136 313 16807720 191 62 49 2474
1.3255637 -2.0731049 -0.70981634 324 16807720 212 63 48 2561
0.88227803 -1.8032084 0.62660581 382 16904950 169 0 43 2103
0.96935618 -1.8037812 0.614627 409 16904950 187 1 76 2138
1.0743887 -1.8308349 0.61468107 352 16904950 172 2 45 2210
1.0839573 -1.6973058 0.5625574 169 16904950 74 3 30 2091
0.89319801 -1.8231887 0.54844344 411 16904950 182 4 84 2103
0.9747175 -1.815657 0.53474969 389 16904950 176 5 38 2129
1.0826821 -1.8465915 0.53323144 246 16904950 120 6 96 2206
1.2277231 -1.9267173 0.54613048 51 16904950 28 7 60 2349
0.90451169 -1.8453852 0.47359687 378 16904950 168 8 76 2109
0.99251062 -1.8470989 0.46125636 419 16904950 193 9 71 2147
1.1181581 -1.9094652 0.46452856 140 16904950 71 10 44 2261
1.1692327 -1.838464 0.43615291 282 16904950 139 11 26 2222
0.90582991 -1.8473402 0.39475456 375 16904950 165 12 102 2095
1.0075543 -1.8768238 0.38677222 288 16904950 135 13 59 2165
1.0330765 -1.7649494 0.35118607 36 16904950 16 14 73 2075
1.1760393 -1.8501645 0.35589969 326 16904950 161 15 59 2221
0.91547614 -1.8670951 0.32043055 271 16904950 120 16 24 2104
1.0023416 -1.8681308 0.30588123 346 16904950 159 17 62 2142
1.0993862 -1.8805687 0.2932851 234 16904950 113 18 75 2198
1.2161914 -1.9159167 0.28374603 371 16904950 194 19 76 2287
0.93354332 -1.904027 0.24779668 277 16904950 126 20 64 2135
1.0339234 -1.9277186 0.23431547 42 16904950 21 21 59 2200
1.1127158 -1.9054301 0.21514747 334 16904950 164 22 66 2217
1.2081487 -1.9055245 0.19894359 372 16904950 191 23 121 2265
0.93521404 -1.9083612 0.17016812 354 16904950 161 24 49 2132
1.0051829 -1.8753113 0.15001607 304 16904950 138 25 69 2133
1.1223993 -1.9221663 0.13563322 363 16904950 180 26 122 2230
1.2133039 -1.9161688 0.11675707 391 16904950 202 27 78 2271
0.91969746 -1.8790219 0.090937361 172 16904950 75 28 43 2094
1.0385295 -1.9391495 0.074548669 298 16904950 144 29 52 2201
1.1077292 -1.9011555 0.05427447 73 16904950 35 30 23 2201
1.1942917 -1.8876733 0.033374764 96 16904950 48 31 74 2234
0.96000564 -1.9616352 0.015247073 322 16904950 154 32 86 2184
1.0294471 -1.9238849 -0.0055220416 327 16904950 156 33 70 2182
1.1329197 -1.9449352 -0.02687192 333 16904950 169 34 73 2251
1.2068146 -1.9101959 -0.0484735 125 16904950 64 35 63 2260
0.95381933 -1.9514091 -0.064502664 353 16904950 167 36 121 2173
1.0479689 -1.9619552 -0.08700414 339 16904950 168 37 71 2226
1.1544579 -1.9838212 -0.11173599 384 16904950 203 38 145 2298
1.2461472 -1.9723768 -0.13570802 379 16904950 207 39 67 2337
0.96373898 -1.9756351 -0.14588632 390 16904950 189 40 103 2203
1.0580273 -1.9829509 -0.17029659 370 16904950 188 41 97 2254
1.1240337 -1.9327815 -0.19089514 391 16904950 197 42 115 2244
1.2490442 -1.9793329 -0.2221065 419 16904950 231 43 50 2351
0.96703839 -1.9841561 -0.2278655 422 16904950 208 44 104 2219
1.0564007 -1.9818174 -0.25301731 380 16904950 194 45 72 2260
1.1526873 -1.9844418 -0.28044018 390 16904950 209 46 119 2312
1.2645322 -2.0049617 -0.31299832 305 16904950 174 47 111 2391
0.95978796 -1.9734761 -0.30798629 403 16904950 198 48 88 2216
1.0774142 -2.0233653 -0.34394258 370 16904950 199 49 55 2318
1.1630168 -2.0046406 -0.37042847 402 16904950 222 50 63 2347
1.2695874 -2.0142233 -0.4040764 346 16904950 202 51 58 2415
0.96573383 -1.9902037 -0.39428073 435 16904950 220 52 96 2247
1.0655606 -2.0035481 -0.42644686 394 16904950 210 53 73 2309
1.169531 -2.0173287 -0.4612067 299 16904950 169 54 70 2377
1.2873706 -2.0423577 -0.50260192 342 16904950 208 55 52 2466
0.9733184 -2.0086899 -0.48422426 421 16904950 220 56 99 2284
1.0846965 -2.0421073 -0.52428263 399 16904950 225 57 69 2371
1.1957867 -2.0635302 -0.56510079 336 16904950 202 58 56 2451
1.2892271 -2.0456986 -0.5984081 328 16904950 204 59 74 2491
0.98596579 -2.040869 -0.58165747 443 16904950 242 60 54 2340
1.0820267 -2.0412071 -0.61609489 391 16904950 223 61 40 2391
1.2007364 -2.072989 -0.66418737 339 16904950 209 62 52 2486
1.3128184 -2.0811992 -0.70981634 322 16904950 211 63 52 2561
0.87616825 -1.8189079 0.63018125 376 17003760 168 0 44 2115
0.95289171 -1.7995379 0.61117727 386 17003760 175 1 78 2126
1.0746802 -1.8573464 0.62135637 356 17003760 177 2 55 2234
1.1720954 -1.8603828 0.61421257 129 17003760 67 3 28 2283
0.88702703 -1.8390691 0.55157286 391 17003760 175 4 60 2115
0.9635585 -1.8216035 0.53474969 394 17003760 178 5 43 2129
1.077159 -1.8632809 0.53613204 219 17003760 108 6 90 2218
1.1351299 -1.8057605 0.50986129 24 17003760 11 7 52 2193
0.88300741 -1.8298374 0.46820739 368 17003760 160 8 56 2085
0.96470672 -1.8220812 0.45352221 385 17003760 172 9 81 2111
1.0770599 -1.8654377 0.4522014 292 17003760 141 10 46 2201
1.1454233 -1.8256692 0.43144202 268 17003760 129 11 40 2198
0.89447778 -1.8528636 0.39475456 379 17003760 167 12 76 2095
1.0015399 -1.8934073 0.38891599 276 17003760 131 13 44 2177
1.0399626 -1.8019853 0.35727894 51 17003760 23 14 80 2111
1.1709573 -1.8673809 0.3578226 276 17003760 138 15 59 2233
0.91947031 -1.9047192 0.32591322 283 17003760 130 16 34 2140
0.97975796 -1.8532459 0.30245396 325 17003760 146 17 80 2118
1.0700096 -1.8563682 0.2884815 215 17003760 101 18 65 2162
1.1791341 -1.8829755 0.2777907 364 17003760 183 19 78 2239
0.91666162 -1.8989855 0.24640393 258 17003760 117 20 61 2123
1.0388005 -1.965674 0.23814973 35 17003760 18 21 60 2236
1.095044 -1.9018716 0.21398295 330 17003760 161 22 69 2205
1.1837565 -1.8926326 0.19683559 390 17003760 196 23 121 2241
0.93388265 -1.9356103 0.17208371 334 17003760 155 24 77 2156
1.0104278 -1.913198 0.15254799 51 17003760 24 25 69 2169
1.0926553 -1.897876 0.13344362 320 17003760 154 26 121 2194
1.1951748 -1.9134132 0.11614011 350 17003760 179 27 104 2259
0.90815067 -1.8846297 0.090937361 213 17003760 93 28 30 2094
1.0210143 -1.9348783 0.074142225 332 17003760 159 29 51 2189
1.0960431 -1.9079167 0.05427447 74 17003760 36 30 35 2201
1.1318638 -1.8135347 0.031940572 86 17003760 39 31 69 2138
0.93753421 -1.9458681 0.015079523 297 17003760 139 32 101 2160
1.0232193 -1.94078 -0.0055524101 314 17003760 151 33 59 2194
1.1149886 -1.9414448 -0.026728665 333 17003760 167 34 72 2239
1.2141078 -1.9481101 -0.049245644 106 17003760 56 35 85 2296
0.94702888 -1.9680334 -0.064858869 335 17003760 160 36 133 2185
1.0359107 -1.9683484 -0.08700414 348 17003760 173 37 68 2226
1.1243693 -1.9596789 -0.10998556 375 17003760 192 38 144 2262
1.2150121 -1.9494854 -0.13361752 372 17003760 197 39 76 2301
0.95159858 -1.9815112 -0.14588632 380 17003760 185 40 87 2203
1.0235685 -1.9470401 -0.16667004 342 17003760 166 41 102 2206
1.1181005 -1.9500144 -0.19191596 400 17003760 203 42 134 2256
1.2116227 -1.9463923 -0.21757179 441 17003760 234 43 43 2303
0.96000934 -2.0008144 -0.22909777 421 17003760 210 44 93 2231
1.0331315 -1.9671477 -0.25033042 362 17003760 181 45 82 2236
1.1464089 -2.0018137 -0.28189576 393 17003760 212 46 94 2324
1.2459216 -2.0025818 -0.31142747 362 17003760 205 47 107 2379
0.94766092 -1.979328 -0.30798629 416 17003760 204 48 96 2216
1.0539522 -2.0089207 -0.3403815 372 17003760 196 49 50 2294
1.1506946 -2.011739 -0.37042847 418 17003760 231 50 59 2347
1.2696984 -2.0420697 -0.40809205 304 17003760 181 51 65 2439
0.95350397 -1.996092 -0.39428073 410 17003760 207 52 98 2247
1.0587207 -2.0204949 -0.42866313 413 17003760 223 53 60 2321
1.139606 -1.993806 -0.45422167 437 17003760 240 54 79 2341
1.2624078 -2.0302649 -0.49771047 329 17003760 196 55 63 2442
0.96097499 -2.0146241 -0.48422426 407 17003760 212 56 99 2284
1.0395881 -1.986511 -0.50836176 391 17003760 207 57 64 2299
1.1831026 -2.0708287 -0.56510079 322 17003760 193 58 41 2451
1.2705005 -2.0436778 -0.59552532 340 17003760 209 59 71 2479
0.9634409 -2.0258868 -0.57569176 445 17003760 239 60 37 2316
1.0587467 -2.0272527 -0.60991079 444 17003760 249 61 51 2367
1.1593218 -2.0301089 -0.64815712 321 17003760 189 62 57 2426
1.2817492 -2.0598471 -0.69983846 305 17003760 194 63 50 2525
0.86008346 -1.8138995 0.62660581 394 17100070 174 0 52 2103
0.93651587 -1.7951607 0.60772753 406 17100070 182 1 94 2114
1.0518407 -1.8438814 0.61468107 381 17100070 186 2 48 2210
1.1484569 -1.8479072 0.60775572 285 17100070 145 3 36 2259
0.87075746 -1.8340123 0.54844344 399 17100070 176 4 54 2103
0.95236319 -1.8274815 0.53474969 420 17100070 190 5 32 2129
1.0599401 -1.8597386 0.53323144 337 17100070 164 6 78 2206
1.1670831 -1.8821244 0.52939087 39 17100070 20 7 34 2277
0.88179785 -1.856346 0.47359687 360 17100070 160 8 45 2109
0.95350844 -1.8279662 0.45352221 389 17100070 174 9 72 2111
1.0655935 -1.8720113 0.4522014 277 17100070 134 10 53 2201
1.1341996 -1.8326631 0.43144202 257 17100070 124 11 46 2198
0.88815033 -1.8689615 0.39701572 387 17100070 172 12 70 2107
0.9953599 -1.9099876 0.39105976 287 17100070 137 13 51 2189
1.1049196 -1.9419658 0.38368139 41 17100070 21 14 97 2267
1.1594772 -1.8745306 0.3578226 284 17100070 142 15 60 2233
0.8823145 -1.8567647 0.31677547 361 17100070 156 16 18 2080
0.9903143 -1.901358 0.30930847 257 17100070 121 17 94 2166
1.040972 -1.831879 0.28367794 59 17100070 26 18 56 2126
1.1675582 -1.890175 0.2777907 347 17100070 174 19 83 2239
0.9049924 -1.9045744 0.24640393 286 17100070 129 20 53 2123
1.0101894 -1.9402612 0.23431547 179 17100070 87 21 81 2200
1.0715621 -1.8877813 0.21165387 198 17100070 94 22 66 2181
1.184674 -1.9202069 0.19894359 343 17100070 176 23 131 2265
0.91172504 -1.9196941 0.17016812 341 17100070 155 24 60 2132
0.95999354 -1.8450296 0.14664018 43 17100070 19 25 72 2085
1.0928146 -1.9253784 0.13490336 338 17100070 166 26 123 2218
1.1834118 -1.9207107 0.11614011 362 17100070 185 27 97 2259
0.86574209 -1.8251752 0.087810576 360 17100070 147 28 32 2022
1.0146549 -1.9517479 0.074548669 298 17100070 144 29 41 2201
1.1197861 -1.9772371 0.056049913 227 17100070 117 30 42 2273
1.1773273 -1.9124044 0.033554032 93 17100070 47 31 50 2246
0.93071908 -1.9624263 0.015163299 306 17100070 144 32 94 2172
1.0223542 -1.9683204 -0.0056131477 342 17100070 168 33 87 2218
1.1030551 -1.9482496 -0.026728665 323 17100070 162 34 80 2239
1.1581511 -1.8839797 -0.047443978 113 17100070 55 35 79 2212
0.92466605 -1.9521267 -0.064146452 337 17100070 157 36 100 2161
1.0182945 -1.9640224 -0.086535111 322 17100070 158 37 68 2214
1.1300265 -1.9978387 -0.11173599 365 17100070 193 38 130 2298
1.1967535 -1.9466983 -0.13292068 365 17100070 192 39 65 2289
0.93430525 -1.9764879 -0.14509167 400 17100070 192 40 86 2191
1.022608 -1.9745344 -0.1684833 339 17100070 169 41 102 2230
1.1296488 -1.998473 -0.19599928 405 17100070 215 42 130 2304
1.2121588 -1.9741508 -0.21983916 415 17100070 224 43 50 2327
0.93751937 -1.9850804 -0.22663324 405 17100070 197 44 111 2207
1.0210419 -1.9734498 -0.25033042 365 17100070 183 45 60 2236
1.1223925 -1.9880652 -0.27898464 386 17100070 204 46 97 2300
1.2211655 -1.9899095 -0.30828568 407 17100070 226 47 112 2355
0.93549812 -1.9851055 -0.30798629 416 17100070 204 48 83 2216
1.0416058 -2.0153496 -0.3403815 365 17100070 192 49 49 2294
1.1266888 -1.9981183 -0.36664057 401 17100070 216 50 52 2323
1.2324038 -2.009481 -0.40006071 327 17100070 187 51 44 2391
0.93621153 -1.9912138 -0.39217508 403 17100070 201 52 108 2235
1.0463033 -2.026953 -0.42866313 422 17100070 227 53 79 2321
1.1446872 -2.0315287 -0.4612067 448 17100070 253 54 79 2377
1.2499264 -2.0379727 -0.49771047 333 17100070 198 55 54 2442
0.9436115 -2.0098672 -0.48168015 429 17100070 222 56 94 2272
1.0434673 -2.0240583 -0.5163222 392 17100070 214 57 72 2335
1.1474535 -2.0373528 -0.55403394 307 17100070 177 58 53 2403
1.2457584 -2.0315745 -0.58975989 334 17100070 202 59 70 2455
0.9559195 -2.0422873 -0.57867461 483 17100070 262 60 27 2328
1.0462878 -2.033711 -0.60991079 428 17100070 240 61 42 2367
1.18088 -2.0976446 -0.66739345 317 17100070 198 62 74 2498
1.2811487 -2.0873263 -0.70649034 358 17100070 233 63 60 2549
0.84893739 -1.8191427 0.62660581 401 17198560 177 0 56 2103
0.92548335 -1.8008732 0.60772753 399 17198560 178 1 91 2114
1.0235575 -1.82016 0.60466814 356 17198560 168 2 51 2174
1.1189758 -1.8253587 0.59807038 241 17198560 119 3 51 2223
0.85948777 -1.8393207 0.54844344 401 17198560 177 4 52 2103
0.93052268 -1.8126241 0.52872145 381 17198560 169 5 44 2105
1.0199912 -1.8154491 0.51872832 397 17198560 183 6 82 2146
1.1067953 -1.8095977 0.50707132 49 17198560 23 7 47 2181
0.87039095 -1.8617216 0.47359687 370 17198560 165 8 68 2109
0.9476307 -1.8442067 0.45610026 369 17198560 166 9 79 2123
1.0253521 -1.8273053 0.4398742 255 17198560 117 10 53 2141
1.0984106 -1.7994148 0.42202014 78 17198560 36 11 33 2150
0.87666583 -1.8743759 0.39701572 387 17198560 172 12 89 2107
0.98901391 -1.9265628 0.39320356 187 17198560 91 13 64 2201
1.0640554 -1.8971329 0.37352657 160 17198560 78 14 66 2207
1.1356155 -1.8613864 0.35397676 246 17198560 120 15 65 2209
0.87090504 -1.8621435 0.31677547 374 17198560 162 16 30 2080
0.98405093 -1.9179661 0.3110221 212 17198560 101 17 87 2178
0.98321533 -1.7552261 0.27086839 49 17198560 20 18 63 2030
1.1559384 -1.8973035 0.2777907 349 17198560 175 19 82 2239
0.89328915 -1.9100914 0.24640393 316 17198560 143 20 73 2123
0.9928202 -1.9358064 0.23303741 229 17198560 110 21 83 2188
1.0599587 -1.8943207 0.21165387 291 17198560 138 22 52 2181
1.1480139 -1.8865932 0.19472755 365 17198560 179 23 126 2217
0.91512471 -1.957761 0.17304151 346 17198560 163 24 61 2168
0.9595744 -1.8721906 0.14832813 69 17198560 31 25 59 2109
1.0692831 -1.9111416 0.13344362 343 17198560 165 26 109 2194
1.1716043 -1.9279357 0.11614011 343 17198560 175 27 109 2259
0.82409847 -1.7652735 0.084683791 315 17198560 120 28 1 1950
0.96439409 -1.8832133 0.071703561 300 17198560 134 29 38 2117
1.0842426 -1.9421723 0.054866284 326 17198560 161 30 28 2225
1.1780258 -1.9401047 0.033912584 93 17198560 48 31 56 2270
0.91358483 -1.9572265 0.015079523 307 17198560 143 32 88 2160
0.99932599 -1.9531904 -0.0055524101 317 17198560 153 33 74 2194
1.0852324 -1.9445033 -0.026585411 317 17198560 157 34 95 2227
1.1714498 -1.9320859 -0.0484735 165 17198560 84 35 63 2260
0.9228068 -1.9795067 -0.064858869 329 17198560 157 36 125 2185
0.99531668 -1.9488761 -0.085597068 347 17198560 167 37 82 2190
1.1002363 -1.9733291 -0.10998556 355 17198560 181 38 149 2262
1.1847862 -1.9540049 -0.13292068 376 17198560 197 39 70 2289
0.90700829 -1.9496144 -0.14270768 406 17198560 189 40 96 2155
1.0050359 -1.9701132 -0.16757669 356 17198560 175 41 78 2218
1.1057259 -1.9844776 -0.19395763 400 17198560 208 42 157 2280
1.1938344 -1.9713327 -0.21870546 403 17198560 216 43 65 2315
0.91525912 -1.9691466 -0.22416872 418 17198560 199 44 108 2183
1.0143284 -1.9903022 -0.25167388 364 17198560 184 45 57 2248
1.115965 -2.0053229 -0.28044018 404 17198560 216 46 77 2312
1.1842921 -1.9566544 -0.30200216 396 17198560 211 47 110 2307
0.91830027 -1.9800277 -0.30631849 425 17198560 207 48 94 2204
1.0076847 -1.9794004 -0.33325928 381 17198560 192 49 49 2246
1.1086507 -1.9946365 -0.36474657 408 17198560 218 50 62 2311
1.2078042 -1.9967591 -0.39604506 339 17198560 190 51 68 2367
0.91901511 -1.986199 -0.39006943 431 17198560 213 52 83 2223
1.0285013 -2.0228221 -0.42644686 398 17198560 212 53 86 2309
1.1093372 -1.9973493 -0.4518933 409 17198560 222 54 88 2329
1.2373983 -2.0456038 -0.49771047 337 17198560 201 55 55 2442
0.92634279 -2.0049732 -0.47913608 403 17198560 206 56 96 2260
1.020431 -2.0095537 -0.51101524 372 17198560 199 57 69 2311
1.1292634 -2.0341461 -0.55126721 332 17198560 189 58 55 2391
1.2392976 -2.0491474 -0.59264261 334 17198560 203 59 76 2467
0.94337028 -2.0481143 -0.57867461 422 17198560 229 60 43 2328
1.0337895 -2.0400925 -0.60991079 421 17198560 236 61 33 2367
1.1399328 -2.0542941 -0.65136319 336 17198560 199 62 53 2438
1.2563752 -2.0754211 -0.69983846 298 17198560 190 63 60 2525
0.83775938 -1.8243175 0.62660581 369 17296950 163 0 49 2103
0.91441596 -1.806518 0.60772753 389 17296950 174 1 72 2114
1.0179582 -1.8364875 0.60800582 343 17296950 164 2 60 2186
1.1197141 -1.8519711 0.60452729 235 17296950 118 3 46 2247
0.84334582 -1.8340343 0.54531389 382 17296950 167 4 59 2091
0.92462432 -1.8286653 0.5317356 383 17296950 171 5 45 2117
1.0088326 -1.8216735 0.51872832 392 17296950 181 6 83 2146
1.1077279 -1.8363423 0.51265121 349 17296950 169 7 55 2205
0.85406387 -1.8564039 0.47090214 360 17296950 158 8 66 2097
0.93629706 -1.8499864 0.45610026 384 17296950 173 9 78 2123
1.0368567 -1.8746699 0.44973594 258 17296950 123 10 53 2189
1.075211 -1.7859594 0.41730922 45 17296950 20 11 24 2126
0.85529387 -1.8583087 0.39249349 370 17296950 161 12 81 2083
0.96651882 -1.9115217 0.38891599 363 17296950 172 13 66 2177
1.018062 -1.8415232 0.36134085 248 17296950 113 14 75 2135
1.1119592 -1.8480208 0.35013095 259 17296950 123 15 46 2185
0.85946274 -1.8674523 0.31677547 363 17296950 157 16 17 2080
0.96155024 -1.9027672 0.30759484 273 17296950 127 17 80 2154
1.0299102 -1.8653377 0.28688031 32 17296950 15 18 65 2150
1.1320094 -1.8839475 0.27481306 337 17296950 166 19 73 2215
0.86660361 -1.8830546 0.24222563 335 17296950 146 20 61 2087
0.96478409 -1.9099116 0.22920315 236 17296950 109 21 69 2152
1.0367796 -1.8798724 0.20932481 216 17296950 101 22 60 2157
1.1487187 -1.914101 0.19683559 353 17296950 177 23 148 2241
0.87310278 -1.8981361 0.16729474 347 17296950 153 24 58 2096
1.0343795 -2.0490172 0.16183168 43 17296950 23 25 55 2301
1.0517524 -1.9071782 0.13271376 326 17296950 155 26 97 2182
1.1474313 -1.9145297 0.11490622 335 17296950 167 27 120 2235
0.90833938 -1.9772855 0.094585285 143 17296950 68 28 58 2178
0.98522657 -1.9533441 0.074142225 290 17296950 139 29 40 2189
1.0723053 -1.9487885 0.054866284 323 17296950 160 30 50 2225
1.1969213 -1.9987667 0.034808949 117 17296950 64 31 75 2330
0.90155834 -1.9627954 0.015079523 323 17296950 151 32 99 2160
0.98732263 -1.9592854 -0.0055524101 346 17296950 167 33 64 2194
1.1079804 -2.0142064 -0.027444931 336 17296950 178 34 91 2299
1.1718868 -1.9598311 -0.048988268 116 17296950 61 35 74 2284
0.90564209 -1.9742292 -0.064502664 355 17296950 168 36 108 2173
0.98333991 -1.9549465 -0.085597068 328 17296950 158 37 60 2190
1.0881075 -1.9800428 -0.10998556 383 17296950 196 38 137 2262
1.1666262 -1.9509562 -0.13222386 361 17296950 187 39 67 2277
0.90001243 -1.96603 -0.14350232 393 17296950 185 40 92 2167
0.98218441 -1.9548587 -0.16576339 354 17296950 170 41 88 2194
1.0762624 -1.9597845 -0.19089514 382 17296950 192 42 131 2244
1.1633395 -1.9478518 -0.21530442 417 17296950 217 43 65 2279
0.89323014 -1.9530153 -0.22170421 406 17296950 189 44 87 2159
1.0074463 -2.0071459 -0.25301731 352 17296950 180 45 73 2260
1.0921831 -1.9912454 -0.27752906 412 17296950 216 46 106 2288
1.1966543 -2.0047452 -0.30828568 393 17296950 218 47 128 2355
0.91600102 -2.0072472 -0.30965412 405 17296950 201 48 82 2228
1.0114771 -2.0173714 -0.33860093 355 17296950 185 49 48 2282
1.096391 -2.0014017 -0.36474657 374 17296950 199 50 53 2311
1.1894685 -1.9939721 -0.39403719 347 17296950 193 51 62 2355
0.91660088 -2.0133047 -0.39428073 431 17296950 218 52 94 2247
1.0002284 -1.9974588 -0.41979805 390 17296950 202 53 87 2273
1.1027135 -2.0144446 -0.45422167 400 17296950 219 54 91 2341
1.2127858 -2.0329795 -0.49281898 356 17296950 208 55 61 2418
0.91887629 -2.0212953 -0.48168015 430 17296950 222 56 94 2272
1.023785 -2.047178 -0.51897568 406 17296950 224 57 64 2347
1.1055512 -2.0205495 -0.54573381 406 17296950 227 58 45 2367
1.2267009 -2.0567131 -0.59264261 360 17296950 219 59 81 2467
0.92118984 -2.0326905 -0.5727089 443 17296950 235 60 27 2304
1.0108974 -2.0256481 -0.60372669 439 17296950 241 61 47 2343
1.1439525 -2.0916867 -0.66098136 308 17296950 189 62 62 2474
1.2377067 -2.0731912 -0.69651246 277 17296950 175 63 61 2513
0.81711692 -1.8085455 0.6194548 372 17394450 161 0 60 2079
0.90844184 -1.822381 0.61117727 372 17394450 168 1 82 2126
1.0121967 -1.8528147 0.61134344 350 17394450 169 2 50 2198
1.0905726 -1.8290261 0.59484196 452 17394450 221 3 37 2211
0.82730132 -1.8286196 0.54218441 380 17394450 164 4 54 2079
0.9185639 -1.8447019 0.53474969 376 17394450 170 5 34 2129
0.99205738 -1.8176084 0.51582766 379 17394450 173 6 92 2134
1.0785384 -1.8130132 0.5042814 353 17394450 166 7 83 2169
0.83783501 -1.8509563 0.46820739 377 17394450 164 8 51 2085
0.909244 -1.8242294 0.44836611 354 17394450 154 9 67 2087
1.0478177 -1.9222428 0.45959765 220 17394450 110 10 42 2237
1.0882602 -1.8329939 0.42673105 36 17394450 17 11 32 2174
0.83901387 -1.8527859 0.39023232 401 17394450 172 12 79 2071
0.92319453 -1.8540013 0.37605333 396 17394450 176 13 59 2105
1.023719 -1.8788915 0.3674337 261 17394450 123 14 90 2171
1.0824655 -1.824249 0.3443622 255 17394450 118 15 40 2149
0.84309584 -1.8618866 0.3149479 382 17394450 163 16 21 2068
0.93398196 -1.8767321 0.30245396 274 17394450 123 17 75 2118
1.0639201 -1.9551921 0.29968983 54 17394450 27 18 52 2246
1.1204284 -1.8908579 0.27481306 218 17394450 107 19 81 2215
0.86486572 -1.9100518 0.24501115 337 17394450 150 20 74 2111
0.95304692 -1.9157954 0.22920315 246 17394450 114 21 79 2152
1.019522 -1.8757052 0.2081603 47 17394450 22 22 59 2145
1.1247761 -1.900539 0.19472755 356 17394450 175 23 143 2217
0.87130338 -1.9252529 0.16921031 335 17394450 151 24 62 2120
0.9684999 -1.9481375 0.15339194 129 17394450 62 25 77 2181
1.04575 -1.9241195 0.13344362 344 17394450 165 26 120 2194
1.1417599 -1.9318511 0.11552317 346 17394450 175 27 95 2247
0.90606523 -2.0046711 0.095627546 113 17394450 55 28 42 2202
0.96788734 -1.9486114 0.073735781 297 17394450 141 29 29 2177
1.0660461 -1.9658768 0.055162188 301 17394450 151 30 60 2237
1.1419268 -1.9337512 0.033554032 342 17394450 173 31 71 2246
0.88455617 -1.9573553 0.014995747 320 17394450 148 32 75 2148
0.96994787 -1.9545575 -0.0055220416 315 17394450 150 33 86 2182
1.0670073 -1.9682232 -0.026728665 323 17394450 162 34 91 2239
1.1537457 -1.9566504 -0.048730884 280 17394450 145 35 74 2272
0.89351141 -1.979749 -0.064502664 349 17394450 165 36 127 2173
0.97132605 -1.9609435 -0.085597068 326 17394450 157 37 61 2190
1.0645219 -1.9656032 -0.10881861 370 17394450 185 38 130 2238
1.1607183 -1.9683969 -0.13292068 359 17394450 188 39 58 2289
0.88301522 -1.960598 -0.14270768 387 17394450 180 40 91 2155
0.98078382 -1.9822981 -0.16757669 349 17394450 172 41 95 2218
1.069908 -1.9768666 -0.19191596 374 17394450 190 42 154 2256
1.1574284 -1.965247 -0.21643811 402 17394450 211 43 58 2291
0.88612777 -1.9693445 -0.22293645 394 17394450 186 44 96 2171
0.97926044 -1.9812196 -0.24898697 342 17394450 169 45 55 2224
1.0742804 -1.9874308 -0.27607349 372 17394450 193 46 114 2276
1.1541569 -1.9607877 -0.30043128 403 17394450 212 47 105 2295
0.88906604 -1.9803066 -0.30465072 405 17394450 195 48 78 2192
0.98331857 -1.9916172 -0.33325928 368 17394450 185 49 51 2246
1.0784607 -1.9976641 -0.3628526 403 17394450 213 50 51 2299
1.1652143 -1.9808383 -0.39002153 400 17394450 218 51 63 2331
0.88491422 -1.9757636 -0.38585815 411 17394450 199 52 89 2199
0.97752184 -1.9824035 -0.41536555 378 17394450 191 53 75 2249
1.0903323 -2.0211728 -0.45422167 415 17394450 228 54 86 2341
1.2122023 -2.0606346 -0.49771047 334 17394450 199 55 49 2442
0.90166891 -2.0161898 -0.47913608 409 17394450 209 56 108 2260
0.98535347 -2.0009267 -0.50570834 421 17394450 220 57 56 2287
1.0820489 -2.0067396 -0.54020041 390 17394450 214 58 65 2343
1.2022473 -2.0441198 -0.58687711 363 17394450 217 59 70 2443
0.90870011 -2.0383046 -0.5727089 458 17394450 243 60 40 2304
0.99844921 -2.0318127 -0.60372669 367 17394450 201 61 42 2343
1.1146376 -2.0681281 -0.65136319 335 17394450 199 62 49 2438
1.2132638 -2.0608747 -0.68986052 311 17394450 192 63 55 2489
0.81065679 -1.823993 0.6230303 360 17493550 158 0 67 2091
0.88204962 -1.7969682 0.60082811 383 17493550 168 1 75 2090
0.99534494 -1.8488412 0.60800582 352 17493550 168 2 39 2186
1.0558975 -1.7958312 0.58192813 415 17493550 194 3 60 2163
0.81135523 -1.8230777 0.53905493 398 17493550 170 4 49 2067
0.91234118 -1.8607323 0.53776377 385 17493550 176 5 31 2141
0.99743336 -1.854426 0.52452952 387 17493550 182 6 93 2170
1.0732989 -1.8296636 0.50707132 307 17493550 146 7 78 2181
0.8312186 -1.8667449 0.47090214 365 17493550 161 8 67 2097
0.90319723 -1.8402951 0.45094419 373 17493550 165 9 70 2099
1.0360034 -1.9286358 0.45959765 207 17493550 104 10 63 2237
1.1126612 -1.9005631 0.44086382 48 17493550 24 11 20 2246
0.82283401 -1.8471339 0.38797119 418 17493550 177 12 73 2059
0.9066034 -1.8490299 0.37390959 376 17493550 165 13 41 2093
1.0009817 -1.8642976 0.36337182 272 17493550 125 14 91 2147
1.0712517 -1.8308567 0.3443622 64 17493550 30 15 61 2149
0.83165562 -1.8670247 0.3149479 380 17493550 163 16 18 2068
0.93812799 -1.9144236 0.30759484 293 17493550 136 17 82 2154
1.0125623 -1.8883169 0.2884815 210 17493550 98 18 57 2162
1.0967911 -1.8771353 0.27183539 301 17493550 145 19 81 2191
0.8434304 -1.8935473 0.24222563 350 17493550 153 20 72 2087
0.92027891 -1.878746 0.2240908 305 17493550 135 21 78 2104
0.99107623 -1.8503408 0.20466669 30 17493550 13 22 46 2109
1.1010438 -1.8867564 0.19261955 344 17493550 166 23 106 2193
0.86920369 -1.9524182 0.1711259 344 17493550 158 24 53 2144
0.96705395 -1.9755461 0.1550799 160 17493550 78 25 82 2205
1.0169591 -1.8988235 0.13125402 325 17493550 151 26 112 2158
1.1178164 -1.9181119 0.11428927 346 17493550 171 27 100 2223
0.8499127 -1.9116002 0.090937361 364 17493550 160 28 38 2094
0.95591265 -1.9545135 0.073735781 277 17493550 131 29 40 2177
1.0483099 -1.9618006 0.054866284 324 17493550 160 30 38 2225
1.1240025 -1.9303527 0.033374764 395 17493550 197 31 62 2234
0.86765498 -1.951781 0.014911973 295 17493550 135 32 104 2136
0.94740015 -1.9389087 -0.005461304 311 17493550 145 33 72 2158
1.0605643 -1.9853169 -0.02687192 312 17493550 158 34 79 2251
1.1296579 -1.9429495 -0.048216123 374 17493550 189 35 78 2248
0.88134706 -1.9851942 -0.064502664 324 17493550 153 36 134 2173
0.96453202 -1.9776438 -0.086066097 317 17493550 154 37 64 2202
1.0411549 -1.9509494 -0.10765164 341 17493550 167 38 123 2214
1.1365755 -1.9547691 -0.13152702 356 17493550 183 39 64 2265
0.88551843 -1.9988215 -0.14509167 407 17493550 195 40 82 2191
0.9581213 -1.9667643 -0.16576339 360 17493550 173 41 92 2194
1.0633844 -1.9939442 -0.19293679 377 17493550 194 42 142 2268
1.1393489 -1.9619811 -0.21530442 406 17493550 211 43 69 2279
0.8836897 -1.9965752 -0.225401 401 17493550 193 44 96 2195
0.96708548 -1.987191 -0.24898697 364 17493550 180 45 72 2224
1.0620656 -1.9939851 -0.27607349 390 17493550 202 46 91 2276
1.1600193 -1.9987005 -0.30514392 383 17493550 208 47 115 2331
0.87689841 -1.9857244 -0.30465072 406 17493550 195 48 110 2192
0.9814564 -2.0189593 -0.33682039 369 17493550 190 49 54 2270
1.066183 -2.0042439 -0.3628526 411 17493550 217 50 57 2299
1.1589741 -1.9981847 -0.3920294 414 17493550 227 51 77 2343
0.86801171 -1.9703449 -0.3837525 415 17493550 199 52 99 2187
0.96018887 -1.9777548 -0.41314927 406 17493550 203 53 67 2237
1.0834355 -2.0382197 -0.45655003 408 17493550 226 54 87 2353
1.1877466 -2.047709 -0.49281898 345 17493550 202 55 66 2418
0.88455904 -2.0109501 -0.476592 428 17493550 216 56 120 2248
0.97816306 -2.0174654 -0.50836176 384 17493550 203 57 60 2299
1.075194 -2.0236526 -0.54296708 418 17493550 232 58 63 2355
1.1779947 -2.0313048 -0.58111167 370 17493550 217 59 73 2419
0.89617622 -2.0438418 -0.5727089 473 17493550 251 60 42 2304
0.99606293 -2.0587757 -0.60991079 245 17493550 137 61 52 2367
1.1019268 -2.0749285 -0.65136319 288 17493550 171 62 65 2438
1.2063841 -2.0782521 -0.69318652 306 17493550 191 63 51 2501
0.80403769 -1.8394288 0.62660581 382 17590680 169 0 43 2103
0.88100898 -1.8230432 0.60772753 382 17590680 171 1 49 2114
0.96777731 -1.8243662 0.5979929 353 17590680 163 2 52 2150
1.0448586 -1.8022763 0.58192813 399 17590680 187 3 59 2163
0.81408972 -1.8598595 0.54844344 373 17590680 165 4 61 2103
0.89585739 -1.8558352 0.53474969 375 17590680 170 5 52 2129
0.97513062 -1.8399342 0.51872832 387 17590680 178 6 102 2146
1.0678957 -1.8463179 0.50986129 314 17590680 151 7 70 2193
0.81036693 -1.8503873 0.46551272 370 17590680 159 8 46 2073
0.89188838 -1.8458023 0.45094419 372 17590680 164 9 61 2099
0.9911868 -1.872678 0.44480512 365 17590680 171 10 49 2165
1.0774493 -1.8665919 0.43144202 259 17590680 125 11 30 2198
0.80675542 -1.8413537 0.38571009 398 17590680 167 12 61 2047
0.90550637 -1.8758237 0.37819713 354 17590680 159 13 51 2117
0.98952377 -1.8704045 0.36337182 259 17590680 119 14 93 2147
1.0067265 -1.7450552 0.32705593 54 17590680 22 15 50 2041
0.8154248 -1.8612292 0.31312034 362 17590680 153 16 12 2056
0.91604209 -1.8987495 0.3041676 240 17590680 109 17 78 2130
1.0120682 -1.9155247 0.29168388 225 17590680 108 18 60 2186
1.0852526 -1.8838297 0.27183539 228 17590680 110 19 60 2191
0.83179593 -1.8986869 0.24222563 351 17590680 153 20 74 2087
0.93464822 -1.9380937 0.23048122 246 17590680 115 21 91 2164
0.98527849 -1.8669497 0.20583121 52 17590680 24 22 70 2121
1.1013689 -1.9141988 0.19472755 356 17590680 175 23 114 2217
0.84761196 -1.9358002 0.16921031 352 17590680 158 24 64 2120
0.92373317 -1.9167424 0.15001607 314 17590680 143 25 72 2133
1.0164694 -1.9262143 0.13271376 138 17590680 66 26 105 2182
1.1060261 -1.9249346 0.11428927 311 17590680 154 27 88 2223
0.83816731 -1.9167792 0.090937361 405 17590680 177 28 57 2094
0.91268426 -1.8955077 0.071297109 148 17590680 65 29 31 2105
1.0418415 -1.9788109 0.055162188 310 17590680 155 30 46 2237
1.0882412 -1.8955898 0.032657668 346 17590680 166 31 64 2186
0.86046982 -1.9680628 0.014995747 319 17590680 147 32 79 2148
0.94588941 -1.9663131 -0.0055220416 318 17590680 152 33 76 2182
1.037185 -1.9705505 -0.026585411 313 17590680 155 34 97 2227
1.1177149 -1.9498445 -0.048216123 378 17590680 191 35 89 2248
0.84995061 -1.9465945 -0.063077837 330 17590680 149 36 124 2125
0.95237923 -1.9835249 -0.086066097 334 17590680 162 37 77 2202
1.0403208 -1.9785186 -0.10881861 347 17590680 174 38 131 2238
1.1186019 -1.951313 -0.1308302 353 17590680 179 39 86 2253
0.84932375 -1.9493322 -0.14111835 392 17590680 178 40 76 2131
0.93568689 -1.9510281 -0.16395013 339 17590680 160 41 94 2170
1.0288836 -1.9580942 -0.18885347 386 17590680 190 42 118 2220
1.1450959 -2.0000372 -0.21870546 393 17590680 211 43 62 2315
0.86665821 -1.9910152 -0.22416872 412 17590680 196 44 102 2183
0.9548741 -1.9930875 -0.24898697 345 17590680 171 45 74 2224
1.0442758 -1.989917 -0.27461791 388 17590680 199 46 100 2264
1.1477337 -2.0057807 -0.30514392 405 17590680 220 47 108 2331
0.85523027 -1.9692677 -0.30131513 392 17590680 184 48 110 2168
0.96392709 -2.0142386 -0.33503985 370 17590680 188 49 42 2258
1.0483643 -2.0002527 -0.36095867 407 17590680 213 50 42 2287
1.1408187 -1.9949881 -0.39002153 409 17590680 222 51 68 2331
0.86999452 -2.0081546 -0.39006943 412 17590680 204 52 99 2223
0.95820671 -2.0048907 -0.41758183 386 17590680 197 53 78 2261
1.0490627 -2.0031157 -0.44723663 401 17590680 213 54 69 2305
1.1576636 -2.0243635 -0.48548171 380 17590680 215 55 56 2382
0.87220341 -2.0163398 -0.476592 397 17590680 201 56 114 2248
0.96072483 -2.0128677 -0.50570834 411 17590680 215 57 66 2287
1.0573416 -2.0198669 -0.54020041 405 17590680 223 58 65 2343
1.1770722 -2.0587194 -0.58687711 352 17590680 210 59 72 2443
0.88822079 -2.0599756 -0.57569176 445 17590680 239 60 41 2316
0.98341179 -2.0648487 -0.60991079 289 17590680 162 61 42 2367
1.0730915 -2.0509126 -0.64174503 359 17590680 207 62 53 2402
1.1707011 -2.0455873 -0.67988265 320 17590680 192 63 41 2453
0.77464217 -1.8022317 0.61230379 389 17688970 164 0 41 2055
0.864869 -1.8180357 0.60427779 403 17688970 178 1 46 2102
0.97258186 -1.8609164 0.60800582 345 17688970 165 2 50 2186
1.0280451 -1.7986193 0.57869965 420 17688970 194 3 48 2151
0.78892219 -1.8328969 0.53905493 387 17688970 165 4 44 2067
0.87946814 -1.8508059 0.5317356 377 17688970 169 5 29 2117
0.95304364 -1.8252393 0.51292706 370 17688970 167 6 101 2122
1.0623282 -1.8629743 0.51265121 252 17688970 123 7 60 2205
0.80362302 -1.8660645 0.46820739 387 17688970 168 8 72 2085
0.87551183 -1.8406565 0.44836611 364 17688970 159 9 58 2087
0.96881735 -1.857898 0.4398742 386 17688970 177 10 53 2141
1.0368773 -1.822035 0.41966468 371 17688970 169 11 41 2138
0.80476797 -1.8679156 0.39023232 385 17688970 165 12 73 2071
0.88891202 -1.8706802 0.37605333 358 17688970 159 13 40 2105
0.97256213 -1.865953 0.36134085 266 17688970 121 14 86 2135
1.0311358 -1.8129762 0.33859345 51 17688970 23 15 47 2113
0.81337428 -1.887982 0.31677547 374 17688970 162 16 27 2080
0.91456443 -1.9257916 0.30759484 262 17688970 122 17 86 2154
0.97833127 -1.8795021 0.2852791 293 17688970 134 18 47 2138
1.0795536 -1.900807 0.27332422 131 17688970 64 19 74 2203
0.81069887 -1.8818623 0.2394401 357 17688970 152 20 42 2063
0.90227139 -1.9006767 0.2253689 303 17688970 136 21 64 2116
1.001352 -1.9259434 0.21165387 56 17688970 26 22 46 2181
1.0778074 -1.9001259 0.19261955 351 17688970 169 23 129 2193
0.83571815 -1.9409646 0.16921031 346 17688970 155 24 50 2120
0.92221594 -1.9440044 0.15170401 340 17688970 158 25 78 2157
0.98805612 -1.9005328 0.13052417 47 17688970 22 26 100 2146
1.0882876 -1.9212575 0.11367233 326 17688970 159 27 82 2211
0.83112621 -1.9328997 0.091458499 367 17688970 163 28 44 2106
0.9215827 -1.944422 0.072922893 116 17688970 54 29 40 2153
1.0186331 -1.9638681 0.054570373 266 17688970 130 30 40 2213
1.0884094 -1.923116 0.033016212 368 17688970 180 31 85 2210
0.82941967 -1.9292094 0.014660648 319 17688970 141 32 94 2100
0.93380654 -1.97208 -0.0055220416 336 17688970 160 33 60 2182
1.0140274 -1.9555731 -0.026298905 305 17688970 148 34 95 2203
1.1116321 -1.9671106 -0.0484735 364 17688970 186 35 87 2260
0.85691935 -1.9958602 -0.064502664 326 17688970 154 36 121 2173
0.92994332 -1.9676492 -0.085128047 336 17688970 160 37 59 2178
1.0226483 -1.9742218 -0.10823513 352 17688970 174 38 126 2226
1.1183959 -1.978999 -0.13222386 355 17688970 184 39 73 2277
0.84206218 -1.9655131 -0.14191301 402 17688970 185 40 103 2143
0.939022 -1.9891946 -0.16667004 344 17688970 167 41 98 2206
1.033339 -1.9962251 -0.19191596 373 17688970 190 42 124 2256
1.1210585 -1.9862185 -0.21643811 390 17688970 205 43 72 2291
0.84972841 -1.9853216 -0.22293645 387 17688970 183 44 103 2171
0.93754059 -1.9881234 -0.24764352 346 17688970 170 45 58 2212
1.0320462 -1.9962872 -0.27461791 382 17688970 196 46 110 2264
1.1295598 -2.0024233 -0.30357304 394 17688970 212 47 112 2319
0.84779769 -1.985407 -0.3029829 385 17688970 183 48 75 2180
0.95154977 -2.0201154 -0.33503985 363 17688970 185 49 64 2258
1.0306349 -1.9961187 -0.35906467 376 17688970 195 50 64 2275
1.1169366 -1.9813384 -0.38600591 410 17688970 218 51 60 2307
0.83913749 -1.9699796 -0.3816469 412 17688970 195 52 97 2175
0.93584645 -1.9893888 -0.41314927 414 17688970 207 53 66 2237
1.0313548 -1.9990532 -0.44490829 404 17688970 213 54 95 2293
1.122143 -1.9904929 -0.47569868 414 17688970 226 55 63 2334
0.85063547 -2.0000701 -0.47150385 398 17688970 197 56 110 2224
0.94835603 -2.0187247 -0.50570834 388 17688970 203 57 73 2287
1.0395762 -2.0159385 -0.53743368 391 17688970 213 58 64 2331
1.164418 -2.0659029 -0.58687711 346 17688970 207 59 70 2443
0.86195445 -2.0332825 -0.5667432 439 17688970 228 60 44 2280
0.96580225 -2.0603452 -0.60681868 268 17688970 148 61 33 2355
1.0339971 -2.0060647 -0.62571472 401 17688970 220 62 50 2342
1.1751243 -2.0828578 -0.68986052 309 17688970 191 63 48 2489
0.78586328 -1.8597084 0.63018125 375 17787460 168 0 42 2115
0.84395021 -1.8024904 0.59737831 388 17787460 168 1 60 2078
0.95586896 -1.8566009 0.60466814 340 17787460 160 2 44 2174
1.0226632 -1.8149625 0.58192813 417 17787460 195 3 36 2163
0.77766091 -1.8377031 0.53905493 397 17787460 169 4 45 2067
0.85333312 -1.8246028 0.52269334 406 17787460 176 5 30 2081
0.94182622 -1.8310528 0.51292706 360 17787460 162 6 100 2122
1.0565962 -1.8796313 0.51544112 358 17787460 176 7 71 2217
0.78303957 -1.8494242 0.46281797 368 17787460 156 8 32 2061
0.86420131 -1.8459939 0.44836611 376 17787460 164 9 59 2087
0.94666713 -1.8429148 0.43494335 368 17787460 165 10 60 2117
1.0429485 -1.8591491 0.42673105 278 17787460 131 11 25 2174
0.78869492 -1.8619666 0.38797119 380 17787460 161 12 53 2059
0.88241893 -1.8867944 0.37819713 372 17787460 167 13 46 2117
0.96649653 -1.8824066 0.36337182 271 17787460 125 14 73 2147
1.0952969 -1.9535832 0.36359134 59 17787460 30 15 57 2269
0.79714888 -1.8820164 0.3149479 354 17787460 151 16 17 2068
0.87758505 -1.8775686 0.29902673 392 17787460 172 17 80 2094
0.96135426 -1.8748871 0.28367794 278 17787460 126 18 63 2126
1.0155188 -1.8138869 0.25992474 28 17787460 12 19 82 2095
0.80843347 -1.9087514 0.24222563 326 17787460 142 20 54 2087
0.88554138 -1.895367 0.2240908 290 17787460 129 21 76 2104
0.98407149 -1.9214212 0.21048935 239 17787460 112 22 46 2169
1.0719621 -1.9171368 0.19367357 210 17787460 102 23 106 2205
0.81446695 -1.9240252 0.16729474 330 17787460 145 24 49 2096
0.90014219 -1.9279338 0.15001607 322 17787460 147 25 70 2133
0.95453721 -1.8639152 0.12760471 39 17787460 17 26 88 2098
1.0764785 -1.927899 0.11367233 302 17787460 148 27 77 2211
0.80991423 -1.9158778 0.09041623 387 17787460 168 28 41 2082
0.89949477 -1.9283026 0.072110005 193 17787460 87 29 20 2129
1.012022 -1.9807643 0.054866284 299 17787460 148 30 49 2225
1.076589 -1.9297581 0.033016212 354 17787460 173 31 82 2210
0.83158213 -1.9674211 0.014911973 342 17787460 156 32 75 2136
0.9166196 -1.9668957 -0.005491673 309 17787460 146 33 76 2170
1.0020092 -1.9617583 -0.026298905 293 17787460 142 34 101 2203
1.0878648 -1.9529328 -0.047958739 364 17787460 182 35 69 2236
0.83532792 -1.9789795 -0.063790254 347 17787460 160 36 104 2149
0.92290956 -1.9841903 -0.085597068 321 17787460 154 37 78 2190
