# .PCD v0.7 - Point Cloud Data file format
VERSION 0.7
FIELDS x y z intensity t reflectivity ring noise range
SIZE 4 4 4 4 4 2 1 2 4
TYPE F F F F U U U U U
COUNT 1 1 1 1 1 1 1 1 1
WIDTH 766
HEIGHT 1
VIEWPOINT 0 0 0 1 0 0 0
POINTS 766
DATA ascii
0.15358901 -1.3017545 0.1278075 340 23482520 59 22 87 1317
0.20117882 -1.296393 0.11567713 274 23482520 48 23 118 1317
0.050439995 -1.1312518 0.090671189 194 23482520 25 24 65 1136
0.09072271 -1.118541 0.079122394 288 23482520 36 25 62 1125
0.1555061 -1.3183984 0.080893353 325 23482520 57 26 119 1330
0.20000564 -1.2938995 0.067401372 311 23482520 53 27 95 1311
0.047798924 -1.0839221 0.047162358 219 23482520 26 28 52 1086
0.08921738 -1.1047672 0.037562232 265 23482520 33 29 20 1109
0.12464759 -1.065407 0.026459111 299 23482520 34 30 46 1073
0.19779234 -1.2826949 0.019391423 343 23482520 58 31 73 1298
0.047522075 -1.0789276 0.0075397613 215 23482520 25 32 67 1080
0.089263804 -1.1104144 -0.0028192275 294 23482520 36 33 51 1114
0.12895721 -1.1034107 -0.013262861 299 23482520 37 34 89 1111
0.1608298 -1.0474813 -0.022735361 261 23482520 29 35 88 1060
0.04701874 -1.0795002 -0.032088071 209 23482520 24 36 127 1081
0.089969255 -1.1295562 -0.044322867 244 23482520 31 37 31 1134
0.12685029 -1.0893406 -0.053388216 292 23482520 35 38 109 1098
0.16500776 -1.0745672 -0.063237503 224 23482520 27 39 71 1089
0.049415477 -1.1553997 -0.076750904 215 23482520 29 40 68 1159
0.088639431 -1.1192774 -0.085072741 277 23482520 35 41 104 1126
0.12416722 -1.0688974 -0.091874659 291 23482520 34 42 137 1080
0.19137082 -1.2507598 -0.12007544 334 23482520 54 43 60 1271
0.054593712 -1.2869967 -0.13298145 288 23482520 48 44 59 1295
0.10521451 -1.3353871 -0.15091476 340 23482520 62 45 32 1348
0.14868161 -1.2858038 -0.15817215 366 23482520 62 46 94 1304
0.19266726 -1.2612946 -0.16847715 320 23482520 53 47 126 1287
0.055129118 -1.3258494 -0.1862372 297 23482520 53 48 63 1340
0.10304678 -1.3152028 -0.19793762 291 23482520 52 49 49 1334
0.1484825 -1.2900009 -0.20754728 326 23482520 56 50 73 1315
0.19838254 -1.3011436 -0.22337142 436 23482520 78 51 104 1335
0.052471723 -1.2895926 -0.23004095 326 23482520 56 52 36 1311
0.10014439 -1.2865207 -0.24249665 317 23482520 55 53 49 1313
0.16120237 -1.4043936 -0.27959567 171 23482520 36 54 92 1441
0.29840496 -1.9569377 -0.41210914 337 23482520 138 55 53 2022
0.050470844 -1.2577091 -0.27306518 276 23482520 46 56 74 1288
0.10787801 -1.3953139 -0.3173115 226 23482520 46 57 37 1435
0.2263187 -1.9750334 -0.47103256 356 23482520 149 58 60 2043
0.29585403 -1.9413453 -0.48598135 356 23482520 146 59 81 2023
0.05520251 -1.4169755 -0.36390877 126 23482520 27 60 36 1464
0.15140092 -1.9798269 -0.52951694 382 23482520 161 61 31 2055
0.22627378 -1.9779987 -0.55197549 350 23482520 150 62 69 2066
0.295095 -1.9309337 -0.56347388 339 23482520 140 63 57 2033
0.053345732 -1.4108142 0.44067997 108 23581130 24 0 39 1479
0.1003393 -1.3198537 0.39729398 217 23581130 41 1 40 1382
0.14895605 -1.3074845 0.38104665 357 23581130 67 2 48 1370
0.19528338 -1.2825539 0.36239353 374 23581130 68 3 14 1347
0.053341586 -1.3920438 0.37632138 141 23581130 29 4 53 1443
0.1019154 -1.3483689 0.35089022 402 23581130 78 5 1 1397
0.14953147 -1.3170317 0.33018771 390 23581130 73 6 78 1366
0.19501933 -1.2895908 0.31177565 404 23581130 73 7 48 1341
0.055687211 -1.4460016 0.33347145 106 23581130 23 8 40 1485
0.11090093 -1.4597915 0.32204157 117 23581130 26 9 16 1499
0.14954558 -1.3235443 0.27962112 435 23581130 81 10 41 1361
0.1944581 -1.2935137 0.26184878 467 23581130 83 11 17 1334
0.05445461 -1.4082427 0.27039275 151 23581130 31 12 90 1435
0.10092737 -1.335297 0.24313948 399 23581130 74 13 27 1361
0.15233347 -1.3505423 0.23339066 415 23581130 79 14 60 1379
0.19704671 -1.312915 0.21552682 494 23581130 89 15 48 1345
0.047332827 -1.2246209 0.1888469 282 23581130 43 16 32 1240
0.10397327 -1.3797605 0.19963677 459 23581130 90 17 20 1398
0.15145138 -1.3492761 0.18280281 485 23581130 91 18 69 1370
0.19463755 -1.3022822 0.16463968 400 23581130 71 19 79 1327
0.043673616 -1.1304591 0.13219693 229 23581130 30 20 78 1139
0.093348898 -1.2413738 0.13334681 326 23581130 51 21 43 1252
0.14559871 -1.3026724 0.1278075 318 23581130 55 22 56 1317
0.19322051 -1.297603 0.11567713 297 23581130 52 23 113 1317
0.042578846 -1.1076343 0.088755608 220 23581130 27 24 55 1112
0.08296328 -1.1071398 0.078278422 294 23581130 36 25 57 1113
0.13677326 -1.2240981 0.075054437 326 23581130 50 26 138 1234
0.19557866 -1.3188113 0.068635255 353 23581130 63 27 98 1335
0.042056531 -1.108155 0.048204619 253 23581130 31 28 52 1110
0.083328985 -1.1172537 0.037968677 277 23581130 35 29 14 1121
0.12207066 -1.101922 0.027346836 286 23581130 35 30 39 1109
0.18640655 -1.2601454 0.019032877 310 23581130 50 31 71 1274
0.042264372 -1.1151723 0.007791087 239 23581130 30 32 83 1116
0.083336882 -1.1229082 -0.0028495961 286 23581130 36 33 68 1126
0.12218437 -1.1041813 -0.013262861 314 23581130 39 34 87 1111
0.15439954 -1.0484484 -0.022735361 266 23581130 30 35 77 1060
0.043533027 -1.1636727 -0.034581501 210 23581130 28 36 121 1165
0.080400646 -1.0942112 -0.042915791 274 23581130 33 37 52 1098
0.12279037 -1.1139257 -0.054555174 288 23581130 36 38 109 1122
0.15666564 -1.0637075 -0.062540665 254 23581130 30 39 65 1077
0.041010477 -1.1197842 -0.07436692 253 23581130 32 40 89 1123
0.081770003 -1.1198002 -0.085072741 245 23581130 31 41 93 1126
0.12021973 -1.0934089 -0.093916327 276 23581130 34 42 159 1104
0.18195838 -1.2400908 -0.11894176 349 23581130 55 43 83 1259
0.047561225 -1.3111649 -0.13544597 256 23581130 44 44 53 1319
0.095291413 -1.3122212 -0.14822786 332 23581130 58 45 47 1324
0.1459717 -1.3340548 -0.16399445 340 23581130 62 46 116 1352
0.18837295 -1.2859952 -0.17161892 309 23581130 53 47 115 1311
0.045309499 -1.2786584 -0.17956603 351 23581130 59 48 61 1292
0.094974905 -1.3158103 -0.19793762 304 23581130 54 49 34 1334
0.14441256 -1.3262275 -0.21322918 295 23581130 54 50 95 1351
0.18697232 -1.2789236 -0.21935576 449 23581130 77 51 107 1311
0.044557944 -1.2898903 -0.23004095 348 23581130 60 52 58 1311
0.091405474 -1.2753477 -0.24028039 318 23581130 54 53 51 1301
0.14495832 -1.3351372 -0.26562557 289 23581130 54 54 116 1369
0.28129286 -1.9238582 -0.40477189 271 23581130 107 55 80 1986
0.045939274 -1.3517587 -0.29341784 292 23581130 56 56 87 1384
0.098483987 -1.3842762 -0.31465805 212 23581130 43 57 37 1423
0.21293776 -1.9647764 -0.46826589 357 23581130 147 58 67 2031
0.28562084 -1.9546504 -0.48886409 385 23581130 160 59 84 2035
0.046888277 -1.4289045 -0.36689162 96 23581130 21 60 28 1476
0.14087635 -2.0038512 -0.5357011 360 23581130 155 61 34 2079
0.21413276 -1.97935 -0.55197549 345 23581130 147 62 48 2066
0.28491333 -1.9441161 -0.56679988 327 23581130 137 63 44 2045
0.044688135 -1.4111149 0.44067997 110 23678450 24 0 46 1479
0.098646276 -1.4121685 0.4248918 143 23678450 31 1 63 1478
0.14093067 -1.3083739 0.38104665 362 23678450 68 2 55 1370
0.18574052 -1.2722917 0.35916507 379 23678450 68 3 20 1335
0.044426613 -1.3807663 0.37319189 107 23678450 22 4 51 1431
0.09203133 -1.3257939 0.34486204 362 23678450 68 5 1 1373
0.13896233 -1.294769 0.32438645 378 23678450 68 6 45 1342
0.18710288 -1.2907633 0.31177565 428 23678450 77 7 42 1341
0.044165619 -1.3645043 0.31460842 102 23678450 20 8 62 1401
0.094597027 -1.3552223 0.29883912 127 23678450 25 9 30 1391
0.14266858 -1.3361145 0.28208655 444 23678450 84 10 43 1373
0.18819539 -1.3063288 0.26420423 451 23678450 82 11 11 1346
0.046195868 -1.4203291 0.27265388 123 23678450 26 12 61 1447
0.092732243 -1.3358911 0.24313948 407 23678450 75 13 27 1361
0.14279038 -1.3396913 0.23135971 395 23678450 74 14 75 1367
0.18730099 -1.3023751 0.2136039 629 23678450 112 15 51 1333
0.035964467 -1.1063508 0.17057139 219 23678450 27 16 34 1120
0.093045898 -1.3448265 0.1944959 450 23678450 83 17 41 1362
0.14066143 -1.3265271 0.17960042 532 23678450 96 18 89 1346
0.19170666 -1.3388132 0.16910617 446 23678450 83 19 78 1363
0.037510507 -1.154531 0.13498247 232 23678450 31 20 73 1163
0.082443431 -1.1943096 0.12823448 242 23678450 35 21 71 1204
0.14011049 -1.327296 0.13013656 344 23678450 62 22 79 1341
0.19031885 -1.3342657 0.11883915 330 23678450 60 23 127 1353
0.036167864 -1.1198301 0.089713395 179 23678450 23 24 71 1124
0.075347222 -1.0956861 0.077434458 286 23678450 35 25 72 1101
0.12046088 -1.1415328 0.069945388 298 23678450 39 26 106 1150
0.18411243 -1.2962565 0.067401372 332 23678450 57 27 91 1311
0.034112781 -1.0724443 0.046641223 254 23678450 29 28 47 1074
0.074834846 -1.0938137 0.037155788 269 23678450 32 29 27 1097
0.1140594 -1.0907189 0.027050925 283 23678450 34 30 47 1097
0.16689044 -1.1781051 0.017777961 344 23678450 49 31 77 1190
0.035801876 -1.1274042 0.0078748614 219 23678450 28 32 51 1128
0.074815892 -1.0994538 -0.0027888587 307 23678450 37 33 75 1102
0.11291391 -1.0810417 -0.012976355 294 23678450 35 34 59 1087
0.14963853 -1.0612557 -0.022992741 293 23678450 34 35 84 1072
0.035642337 -1.1399401 -0.033869091 189 23678450 25 36 124 1141
0.075295791 -1.1186115 -0.043853842 293 23678450 37 37 46 1122
0.11471299 -1.1027366 -0.053971693 284 23678450 35 38 94 1110
0.15348156 -1.0883735 -0.063934334 291 23678450 35 39 53 1101
0.034138836 -1.1200148 -0.07436692 236 23678450 30 40 77 1123
0.074897498 -1.1202809 -0.085072741 208 23678450 26 41 75 1126
0.11227464 -1.0822333 -0.092895485 303 23678450 36 42 142 1092
0.17268415 -1.2293538 -0.11780809 332 23678450 52 43 60 1247
0.040234175 -1.3352944 -0.13791049 266 23678450 48 44 55 1343
0.087237976 -1.3127811 -0.14822786 382 23678450 67 45 26 1324
0.13533749 -1.3112285 -0.1610833 317 23678450 56 46 124 1328
0.17717473 -1.2635639 -0.16847715 305 23678450 50 47 133 1287
0.039202712 -1.3383046 -0.187905 335 23678450 61 48 44 1352
0.086899459 -1.3163683 -0.19793762 300 23678450 53 49 30 1334
0.13385142 -1.3035134 -0.20944123 317 23678450 56 50 99 1327
0.17584234 -1.2566134 -0.21534008 269 23678450 45 51 87 1287
0.036642488 -1.2901394 -0.23004095 318 23678450 55 52 66 1311
0.08434926 -1.2876529 -0.24249665 325 23678450 56 53 45 1313
0.13676335 -1.3360015 -0.26562557 273 23678450 51 54 119 1369
0.26785469 -1.9139132 -0.40232614 205 23678450 80 55 64 1974
0.037644174 -1.3520151 -0.29341784 237 23678450 45 56 69 1384
0.088470645 -1.3614978 -0.30935106 357 23678450 70 57 46 1399
0.20443873 -2.0008945 -0.47656602 352 23678450 150 58 77 2067
0.27039498 -1.9332936 -0.48309863 381 23678450 154 59 73 2011
0.039049555 -1.4640231 -0.37584022 96 23678450 22 60 28 1512
0.12932046 -2.0162489 -0.53879315 373 23678450 163 61 29 2091
0.20315684 -1.9921308 -0.55518156 349 23678450 151 62 67 2078
0.27458096 -1.9572459 -0.57012582 317 23678450 134 63 53 2057
0.035736535 -1.3999114 0.43710449 103 23775730 22 0 47 1467
0.085596211 -1.343926 0.40419343 126 23775730 25 1 64 1406
0.13522816 -1.3321491 0.3877219 351 23775730 68 2 36 1394
0.17952977 -1.2848538 0.36239353 387 23775730 70 3 29 1347
0.035953555 -1.3810128 0.37319189 116 23775730 24 4 57 1431
0.08536116 -1.3495179 0.35089022 304 23775730 59 5 8 1397
0.13452972 -1.3303525 0.33308834 368 23775730 70 6 77 1378
0.17917939 -1.2918869 0.31177565 449 23775730 81 7 65 1341
0.038244929 -1.4582657 0.3361662 107 23775730 24 8 35 1497
0.089257061 -1.4025618 0.30915132 126 23775730 26 9 16 1439
0.13446765 -1.3369647 0.28208655 411 23775730 77 10 53 1373
0.18017636 -1.3074589 0.26420423 446 23775730 81 11 12 1346
0.037169203 -1.4088049 0.27039275 114 23775730 24 12 90 1435
0.084533624 -1.336435 0.24313948 403 23775730 75 13 26 1361
0.13574877 -1.3523099 0.23339066 402 23775730 76 14 88 1379
0.17769209 -1.2917655 0.21168099 521 23775730 91 15 36 1321
0.030113129 -1.1421183 0.17605405 279 23775730 37 16 17 1156
0.084045373 -1.3335184 0.19278227 440 23775730 80 17 22 1350
0.13370082 -1.3391991 0.18120161 486 23775730 90 18 87 1358
0.1851037 -1.3517616 0.17059501 459 23775730 87 19 79 1375
0.031053603 -1.178569 0.137768 236 23775730 33 20 67 1187
0.070621885 -1.1233435 0.12056597 246 23775730 31 21 56 1132
0.1331446 -1.3400155 0.13130111 330 23775730 60 22 83 1353
0.17889772 -1.3117205 0.11673114 341 23775730 60 23 105 1329
0.030234341 -1.1559039 0.092586778 193 23775730 26 24 55 1160
0.065631069 -1.0483402 0.07405857 302 23775730 34 25 61 1053
0.10871881 -1.0945737 0.067025922 276 23775730 33 26 118 1102
0.17776769 -1.3092369 0.068018317 310 23775730 54 27 89 1323
0.027839363 -1.0846183 0.047162358 242 23775730 29 28 41 1086
0.068121925 -1.0942522 0.037155788 280 23775730 34 29 32 1097
0.10853919 -1.103337 0.027346836 279 23775730 34 30 32 1109
0.15160856 -1.1196561 0.016881593 274 23775730 35 31 55 1130
0.028269039 -1.1036112 0.0077073122 219 23775730 27 32 66 1104
0.068068355 -1.0998923 -0.0027888587 314 23775730 38 33 54 1102
0.10862517 -1.1055975 -0.013262861 268 23775730 33 34 81 1111
0.14632824 -1.0859336 -0.023507504 285 23775730 34 35 74 1096
0.029249694 -1.1641194 -0.034581501 234 23775730 32 36 101 1165
0.069894455 -1.1429893 -0.044791888 255 23775730 33 37 49 1146
0.11144547 -1.1392063 -0.055722129 303 23775730 40 38 118 1146
0.14680053 -1.0892948 -0.063934334 279 23775730 34 39 68 1101
0.027557269 -1.1321734 -0.075161584 207 23775730 27 40 99 1135
0.074546508 -1.2282128 -0.093232475 224 23775730 34 41 99 1234
0.10795365 -1.1067019 -0.094937153 261 23775730 32 42 142 1116
0.16990514 -1.2659107 -0.12120912 277 23775730 46 43 55 1283
0.031467631 -1.3116498 -0.13544597 293 23775730 51 44 62 1319
0.080616571 -1.3370975 -0.15091476 338 23775730 61 45 45 1348
0.12728938 -1.3120342 -0.1610833 299 23775730 53 46 119 1328
0.17099796 -1.2764186 -0.17004803 295 23775730 50 47 103 1299
0.030165106 -1.3028789 -0.18290162 354 23775730 61 48 64 1316
0.07952977 -1.3287226 -0.19971818 319 23775730 58 49 23 1346
0.12471265 -1.2925154 -0.20754728 306 23775730 53 50 92 1315
0.17283151 -1.2928482 -0.22136359 261 23775730 46 51 86 1323
0.028199779 -1.2667181 -0.22582968 347 23775730 58 52 61 1287
0.076446787 -1.2881461 -0.24249665 328 23775730 57 53 85 1313
0.1274363 -1.3250977 -0.26329723 233 23775730 43 54 121 1357
0.24520797 -1.8340093 -0.38520589 78 23775730 28 55 60 1890
0.031383332 -1.4460163 -0.31377053 150 23775730 33 56 79 1480
0.078740612 -1.3386495 -0.30404413 433 23775730 82 57 15 1375
0.19215763 -2.0021114 -0.47656602 344 23775730 147 58 75 2067
0.26161277 -1.9580082 -0.48886409 370 23775730 153 59 72 2035
0.031736061 -1.5455815 -0.3967202 122 23775730 31 60 37 1596
0.11694656 -2.0170045 -0.53879315 376 23775730 164 61 35 2091
0.18982695 -1.9818287 -0.55197549 369 23775730 158 62 59 2066
0.26409805 -1.9703214 -0.57345176 358 23775730 153 63 54 2069
0.027590273 -1.4230099 0.44425547 104 23874070 23 0 55 1491
0.078008585 -1.3559004 0.40764317 121 23874070 24 1 54 1418
0.1270517 -1.3329538 0.3877219 357 23874070 69 2 32 1394
0.16858445 -1.2630192 0.35593662 367 23874070 64 3 13 1323
0.029553039 -1.4854494 0.40135729 129 23874070 31 4 62 1539
0.079727456 -1.396402 0.36294657 117 23874070 24 5 25 1445
0.12746473 -1.3427451 0.33598897 383 23874070 74 6 84 1390
0.16818428 -1.2698218 0.30619577 440 23874070 76 7 53 1317
0.029061615 -1.4467816 0.33347145 112 23874070 25 8 51 1485
0.077959239 -1.3562812 0.29883912 129 23874070 25 9 25 1391
0.12957223 -1.3728408 0.28948283 248 23874070 49 10 32 1409
0.17061579 -1.2968738 0.26184878 418 23874070 74 11 9 1334
0.029001299 -1.4325718 0.27491501 118 23874070 25 12 75 1459
0.076331817 -1.3369285 0.24313948 410 23874070 76 13 10 1361
0.12412143 -1.3177931 0.22729778 416 23874070 75 14 108 1343
0.17593113 -1.3398079 0.21937266 353 23874070 66 15 39 1369
0.023344498 -1.1541393 0.17788161 271 23874070 37 16 26 1168
0.075187154 -1.3221512 0.19106865 403 23874070 72 17 38 1338
0.12658995 -1.3518353 0.18280281 476 23874070 89 18 66 1370
0.1737199 -1.3292581 0.16761735 421 23874070 77 19 80 1351
0.022858161 -1.1310714 0.13219693 226 23874070 29 20 74 1139
0.063727848 -1.1237557 0.12056597 270 23874070 35 21 67 1132
0.12270405 -1.3170236 0.12897204 353 23874070 62 22 87 1329
0.17084578 -1.3127935 0.11673114 318 23874070 56 23 132 1329
0.022662492 -1.132149 0.090671189 218 23874070 28 24 59 1136
0.061895791 -1.0965282 0.077434458 274 23874070 33 25 68 1101
0.1031113 -1.1071465 0.067755789 305 23874070 38 26 131 1114
0.16665199 -1.2865334 0.066784419 314 23874070 53 27 95 1299
0.021651894 -1.1087414 0.048204619 251 23874070 31 28 45 1110
0.058719557 -1.0467525 0.035530008 269 23874070 30 29 26 1049
0.098463655 -1.0681452 0.026459111 299 23874070 34 30 36 1073
0.13705055 -1.0610663 0.015985226 284 23874070 33 31 72 1070
0.021730537 -1.1157613 0.007791087 233 23874070 29 32 89 1116
0.061985981 -1.1122706 -0.0028192275 288 23874070 36 33 62 1114
0.099639356 -1.0823458 -0.012976355 294 23874070 35 34 70 1087
0.13813318 -1.0749116 -0.023250123 257 23874070 30 35 79 1084
0.021650832 -1.1402917 -0.033869091 221 23874070 29 36 121 1141
0.06287989 -1.1433966 -0.044791888 269 23874070 35 37 51 1146
0.098984577 -1.0801897 -0.052804742 289 23874070 34 38 129 1086
0.13705972 -1.066411 -0.062540665 265 23874070 31 39 68 1077
0.02017406 -1.1083778 -0.073572263 197 23874070 24 40 85 1111
0.064402424 -1.1808554 -0.089605927 237 23874070 33 41 88 1186
0.10007328 -1.0954366 -0.093916327 266 23874070 32 42 139 1104
0.15455216 -1.2076808 -0.11554073 209 23874070 31 43 76 1223
0.023418907 -1.3118182 -0.13544597 305 23874070 53 44 62 1319
0.071766168 -1.32566 -0.14957131 331 23874070 59 45 44 1336
0.11708162 -1.2890654 -0.15817215 341 23874070 58 46 132 1304
0.16467008 -1.2892448 -0.17161892 282 23874070 48 47 115 1311
0.022372384 -1.3149213 -0.1845694 337 23874070 59 48 57 1328
0.070739053 -1.3173356 -0.19793762 299 23874070 53 49 26 1334
0.1157139 -1.2814547 -0.20565331 289 23874070 49 50 82 1303
0.16040853 -1.2586766 -0.21534008 292 23874070 48 51 86 1287
0.020998191 -1.3023041 -0.23214659 329 23874070 58 52 63 1323
0.069794282 -1.3121448 -0.24692917 316 23874070 57 53 59 1337
0.11824824 -1.3141301 -0.26096886 330 23874070 60 54 127 1345
0.21761072 -1.7072871 -0.35830262 67 23874070 21 55 55 1758
0.022145122 -1.4227301 -0.30868238 198 23874070 42 56 80 1456
0.069909833 -1.3274206 -0.30139065 465 23874070 86 57 15 1363
0.17569233 -1.956733 -0.46549916 205 23874070 84 58 77 2019
0.25106555 -1.9711319 -0.49174684 366 23874070 153 59 79 2047
0.022084646 -1.534125 -0.39373738 109 23874070 27 60 22 1584
0.10456825 -2.017684 -0.53879315 370 23874070 162 61 35 2091
0.17972697 -2.0059915 -0.55838764 354 23874070 154 62 54 2090
0.25200343 -1.9719048 -0.57345176 333 23874070 142 63 46 2069
0.019465439 -1.4689682 0.45855746 99 23971400 23 0 35 1539
0.073225901 -1.4252235 0.42834157 131 23971400 29 1 56 1490
0.12194028 -1.3681512 0.39773482 331 23971400 68 2 32 1430
0.16520791 -1.2984253 0.36562198 425 23971400 79 3 4 1359
0.019641135 -1.4276847 0.38570985 124 23971400 27 4 48 1479
0.071748719 -1.4084651 0.36596066 122 23971400 26 5 15 1457
0.11922339 -1.3435019 0.33598897 370 23971400 72 6 63 1390
0.16623527 -1.317147 0.31735551 422 23971400 79 7 42 1365
0.019531379 -1.4001633 0.32269257 118 23971400 24 8 55 1437
0.072639495 -1.415256 0.31172937 121 23971400 25 9 11 1451
0.11701914 -1.3268156 0.27962112 369 23971400 68 10 44 1361
0.16704461 -1.332922 0.26891518 458 23971400 86 11 8 1370
0.020210659 -1.4327228 0.27491501 108 23971400 23 12 87 1459
0.068727821 -1.3491633 0.24528325 379 23971400 71 13 2 1373
0.11707006 -1.3303112 0.22932874 400 23971400 73 14 97 1355
0.16329679 -1.3056021 0.2136039 373 23971400 66 15 47 1333
0.015594075 -1.1068254 0.17057139 260 23971400 33 16 28 1120
0.064666957 -1.2751406 0.18421417 355 23971400 59 17 41 1290
0.11932901 -1.364434 0.184404 475 23971400 91 18 76 1382
0.16556045 -1.330299 0.16761735 439 23971400 80 19 70 1351
0.015749907 -1.1192727 0.13080417 234 23971400 30 20 65 1127
0.058036316 -1.1479585 0.12312213 264 23971400 35 21 67 1156
0.10944588 -1.2582595 0.12314937 305 23971400 49 22 78 1269
0.16278742 -1.3138171 0.11673114 316 23971400 56 23 130 1329
0.01521731 -1.096385 0.087797806 207 23971400 25 24 61 1100
0.056970265 -1.1327528 0.079966374 270 23971400 35 25 51 1137
0.095278516 -1.0958256 0.067025922 316 23971400 38 26 125 1102
0.15435515 -1.2518495 0.064933583 314 23971400 50 27 89 1263
0.014848377 -1.1088535 0.048204619 228 23971400 28 28 43 1110
0.056483343 -1.1309403 0.038375121 258 23971400 33 29 36 1133
0.094991371 -1.1045859 0.027346836 305 23971400 37 30 43 1109
0.13492931 -1.0976143 0.016523046 305 23971400 37 31 71 1106
0.014883945 -1.1158736 0.007791087 236 23971400 29 32 51 1116
0.055160049 -1.11263 -0.0028192275 291 23971400 36 33 53 1114
0.095049612 -1.1068473 -0.013262861 318 23971400 39 34 82 1111
0.13444725 -1.099556 -0.023764886 271 23971400 33 35 73 1108
0.014345499 -1.1164157 -0.033156686 224 23971400 28 36 135 1117
0.055862952 -1.1437609 -0.044791888 254 23971400 33 37 50 1146
0.096436776 -1.1285459 -0.055138651 302 23971400 39 38 129 1134
0.13196796 -1.0791231 -0.063237503 271 23971400 32 39 86 1089
0.013950566 -1.1563718 -0.076750904 218 23971400 29 40 75 1159
0.060047135 -1.2409868 -0.094139107 203 23971400 31 41 47 1246
0.095379263 -1.1198566 -0.09595798 238 23971400 30 42 147 1128
0.13992047 -1.1493126 -0.10987234 206 23971400 28 43 64 1163
0.015229476 -1.3000015 -0.1342137 331 23971400 57 44 79 1307
0.064202257 -1.3379861 -0.15091476 342 23971400 62 45 32 1348
0.11117913 -1.3134974 -0.1610833 357 23971400 63 46 147 1328
0.15532146 -1.2784209 -0.17004803 292 23971400 49 47 130 1299
0.014562259 -1.3387995 -0.187905 329 23971400 60 48 68 1352
0.062654704 -1.3177449 -0.19793762 303 23971400 54 49 29 1334
0.10983533 -1.3057563 -0.20944123 330 23971400 58 50 100 1327
0.15837686 -1.3066167 -0.22337142 292 23971400 52 51 78 1335
0.013242963 -1.326035 -0.23635787 291 23971400 53 52 48 1347
0.061741795 -1.3125483 -0.24692917 347 23971400 62 53 71 1337
0.10821658 -1.2913692 -0.25631219 312 23971400 54 54 122 1321
0.17319818 -1.4286846 -0.29960456 154 23971400 33 55 68 1470
0.012972745 -1.3759325 -0.29850602 321 23971400 64 56 77 1408
0.062307395 -1.339515 -0.30404413 387 23971400 73 57 40 1375
0.13546997 -1.6203272 -0.38526455 102 23971400 29 58 66 1671
0.23616441 -1.949507 -0.48598135 376 23971400 154 59 64 2023
0.012191053 -1.4761168 -0.37882304 116 23971400 27 60 26 1524
0.091656961 -2.0067048 -0.5357011 318 23971400 137 61 49 2079
0.16645382 -1.9955328 -0.55518156 356 23971400 154 62 47 2078
0.24268211 -1.9963052 -0.58010375 340 23971400 149 63 46 2093
0.010207171 -1.4346958 0.44783095 120 24069020 27 0 48 1503
0.064479522 -1.4256459 0.42834157 125 24069020 28 1 65 1490
0.11354316 -1.3688737 0.39773482 333 24069020 68 2 46 1430
0.1572378 -1.2994145 0.36562198 385 24069020 71 3 29 1359
0.011057219 -1.450947 0.39196882 137 24069020 31 4 57 1503
0.063105188 -1.4088788 0.36596066 111 24069020 24 5 16 1457
0.10810333 -1.3093941 0.32728711 370 24069020 68 6 56 1354
0.15536961 -1.2949662 0.31177565 413 24069020 74 7 55 1341
0.011305191 -1.4470294 0.33347145 133 24069020 29 8 52 1485
0.066069923 -1.4625065 0.32204157 126 24069020 28 9 8 1499
0.10791579 -1.315804 0.2771557 402 24069020 73 10 37 1349
0.1588628 -1.3339219 0.26891518 479 24069020 90 11 22 1370
0.01094965 -1.3738964 0.26360938 120 24069020 24 12 69 1399
0.060976539 -1.3613548 0.24742703 368 24069020 71 13 18 1385
0.10890521 -1.3310045 0.22932874 399 24069020 73 14 91 1355
0.1538848 -1.2948173 0.21168099 401 24069020 70 15 46 1321
0.0090853637 -1.1424791 0.17605405 276 24069020 37 16 35 1156
0.055255346 -1.2399176 0.17907332 279 24069020 44 17 45 1254
0.10806447 -1.3295796 0.17960042 385 24069020 70 18 76 1346
0.16019084 -1.3549397 0.17059501 460 24069020 87 19 69 1375
0.009071026 -1.1431853 0.13358968 202 24069020 27 20 47 1151
0.049932837 -1.1244531 0.12056597 271 24069020 35 21 69 1132
0.097875603 -1.2112892 0.11849124 351 24069020 52 22 72 1221
0.15472293 -1.3147912 0.11673114 324 24069020 57 23 102 1329
0.0084897317 -1.0964577 0.087797806 209 24069020 25 24 75 1100
0.048962947 -1.1091638 0.078278422 253 24069020 31 25 70 1113
0.089517146 -1.1083285 0.067755789 303 24069020 38 26 103 1114
0.13830976 -1.1813561 0.061231907 278 24069020 39 27 98 1191
0.0083051967 -1.1448888 0.049768012 230 24069020 30 28 49 1146
0.048493512 -1.1073024 0.037562232 301 24069020 37 29 28 1109
0.08725746 -1.0931896 0.027050925 314 24069020 38 30 46 1097
0.12541018 -1.074586 0.016164498 327 24069020 38 31 63 1082
0.0082960445 -1.1519421 0.0080424128 215 24069020 29 32 66 1152
0.049373306 -1.1369249 -0.0028799647 293 24069020 38 33 50 1138
0.088256337 -1.1074096 -0.013262861 314 24069020 39 34 81 1111
0.12493196 -1.0765257 -0.023250123 286 24069020 34 35 88 1084
0.0075755501 -1.1284771 -0.033512887 247 24069020 31 36 115 1129
0.048843917 -1.1440822 -0.044791888 244 24069020 32 37 58 1146
0.089510329 -1.1291164 -0.055138651 302 24069020 39 38 111 1134
0.12948769 -1.115612 -0.065327995 284 24069020 36 39 55 1125
0.0069968877 -1.1803826 -0.078340225 210 24069020 29 40 87 1183
0.04788683 -1.1337365 -0.085979372 211 24069020 27 41 76 1138
0.095097035 -1.2038563 -0.10310379 215 24069020 32 42 144 1212
0.12875301 -1.1145474 -0.10647131 255 24069020 32 43 56 1127
0.007319117 -1.3120068 -0.13544597 352 24069020 61 44 75 1319
0.054495998 -1.3026124 -0.1468844 339 24069020 58 45 46 1312
0.10218579 -1.3022801 -0.15962774 362 24069020 63 46 131 1316
0.15156135 -1.3148053 -0.17476067 291 24069020 52 47 130 1335
0.006347266 -1.3388636 -0.187905 354 24069020 65 48 60 1352
0.056040592 -1.3536755 -0.20327927 331 24069020 62 49 37 1370
0.10366283 -1.3300333 -0.21322918 333 24069020 61 50 90 1351
0.15035664 -1.3075638 -0.22337142 300 24069020 54 51 85 1335
0.0053792587 -1.3969736 -0.24899168 299 24069020 60 52 44 1419
0.053686988 -1.3129025 -0.24692917 344 24069020 61 53 56 1337
0.10302399 -1.3272189 -0.26329723 313 24069020 58 54 126 1357
0.15637504 -1.3596934 -0.28493008 284 24069020 56 55 84 1398
0.0046071527 -1.3994404 -0.3035942 356 24069020 73 56 76 1432
0.053615078 -1.3281785 -0.30139065 337 24069020 63 57 24 1363
0.10749651 -1.388291 -0.32993034 170 24069020 35 58 79 1431
0.22419801 -1.9509194 -0.48598135 383 24069020 157 59 81 2023
0.0030348471 -1.4296705 -0.36689162 93 24069020 20 60 21 1476
0.078426398 -1.984058 -0.52951694 165 24069020 70 61 29 2055
0.15242532 -1.9734577 -0.54876947 358 24069020 151 62 39 2054
0.22646503 -1.963395 -0.57012582 325 24069020 137 63 56 2057
0.0014150582 -1.4461865 0.45140648 113 24166810 26 0 33 1515
0.054833028 -1.4030453 0.42144209 119 24166810 25 1 50 1466
0.10161254 -1.3235739 0.38438427 300 24166810 57 2 41 1382
0.14794381 -1.2888727 0.36239353 411 24166810 75 3 12 1347
0.0021885657 -1.4741571 0.39822781 112 24166810 26 4 43 1527
0.05535635 -1.4324528 0.37198886 121 24166810 27 5 13 1481
0.10006701 -1.3100328 0.32728711 306 24166810 56 6 97 1354
0.14742093 -1.2958951 0.31177565 434 24166810 78 7 50 1341
0.0023869616 -1.4236846 0.32808203 103 24166810 22 8 55 1461
0.057094913 -1.4628843 0.32204157 105 24166810 24 9 14 1499
0.10072826 -1.3281517 0.27962112 391 24166810 72 10 34 1361
0.14671567 -1.2997946 0.26184878 618 24166810 110 11 11 1334
0.0026922547 -1.468218 0.28169838 120 24166810 27 12 83 1495
0.051710404 -1.338107 0.24313948 299 24166810 55 13 7 1361
0.10073628 -1.3316478 0.22932874 407 24166810 75 14 68 1355
0.14858843 -1.3192781 0.21552682 442 24166810 80 15 47 1345
0.0020966136 -1.1543734 0.17788161 228 24166810 31 16 28 1168
0.044454694 -1.1571555 0.16707797 255 24166810 35 17 77 1170
0.10168564 -1.3539363 0.18280281 355 24166810 67 18 76 1370
0.14789772 -1.3203973 0.16612852 402 24166810 72 19 52 1339
0.0020564024 -1.1432194 0.13358968 237 24166810 31 20 65 1151
0.042120032 -1.1008922 0.11800979 242 24166810 30 21 78 1108
0.085108273 -1.1404054 0.11150404 264 24166810 35 22 68 1149
0.14400424 -1.2919557 0.11462313 294 24166810 50 23 117 1305
0.0018194935 -1.1323743 0.090671189 210 24166810 27 24 51 1136
0.043065358 -1.1333666 0.079966374 277 24166810 36 25 67 1137
0.080932871 -1.0849676 0.066296056 287 24166810 34 26 109 1090
0.12445605 -1.1226267 0.058147173 269 24166810 34 27 85 1131
0.0012131126 -1.0849749 0.047162358 223 24166810 26 28 54 1086
0.041247115 -1.0955944 0.037155788 278 24166810 33 29 33 1097
0.081429251 -1.1056684 0.027346836 285 24166810 35 30 36 1109
0.12144973 -1.0991875 0.016523046 294 24166810 36 31 57 1106
0.0011893385 -1.1159723 0.007791087 246 24166810 31 32 70 1116
0.04105515 -1.1012315 -0.0027888587 311 24166810 38 33 69 1102
0.078820176 -1.0720297 -0.012833102 299 24166810 35 34 85 1075
0.12094389 -1.101123 -0.023764886 247 24166810 30 35 74 1108
0.00065812329 -1.1404971 -0.033869091 248 24166810 32 36 133 1141
0.040509228 -1.1084118 -0.043384813 282 24166810 35 37 53 1110
0.080832779 -1.1057365 -0.053971693 291 24166810 36 38 115 1110
0.11871552 -1.0806613 -0.063237503 269 24166810 32 39 63 1089
-0.00023096729 -1.1085613 -0.073572263 226 24166810 28 40 84 1111
0.041792642 -1.1579249 -0.08779265 227 24166810 31 41 82 1162
0.093787327 -1.2878916 -0.11024959 260 24166810 44 42 166 1296
0.12191185 -1.1153164 -0.10647131 215 24166810 27 43 37 1127
-0.00072468939 -1.3000904 -0.1342137 316 24166810 54 44 67 1307
0.046076968 -1.2910054 -0.14554094 327 24166810 55 45 41 1300
0.095052123 -1.3147628 -0.1610833 356 24166810 63 46 125 1328
0.13704199 -1.2565775 -0.16690627 283 24166810 46 47 138 1275
-0.0018679661 -1.3388773 -0.187905 342 24166810 62 48 34 1352
0.047315434 -1.342134 -0.20149872 334 24166810 62 49 25 1358
0.096348204 -1.3424635 -0.21512315 314 24166810 58 50 111 1363
0.14233074 -1.3084618 -0.22337142 265 24166810 47 51 74 1335
-0.0033005036 -1.4442356 -0.25741425 340 24166810 73 52 36 1467
0.046858799 -1.3485665 -0.25357798 331 24166810 62 53 64 1373
0.091522336 -1.2808579 -0.25398383 326 24166810 56 54 123 1309
0.15057044 -1.3839856 -0.28982157 256 24166810 52 55 73 1422
-0.0039797388 -1.3994423 -0.3035942 379 24166810 78 56 68 1432
0.047465894 -1.3869631 -0.31465805 216 24166810 44 57 23 1423
0.098146103 -1.3772771 -0.32716361 208 24166810 42 58 82 1419
0.21474092 -1.9754192 -0.49174684 387 24166810 162 59 77 2047
-0.0059240884 -1.4761552 -0.37882304 108 24166810 25 60 24 1524
0.048841957 -1.463027 -0.39037383 101 24166810 23 61 51 1515
0.14195302 -1.9974251 -0.55518156 363 24166810 157 62 57 2078
0.2181661 -1.999133 -0.58010375 344 24166810 151 63 41 2093
-0.0075176801 -1.4576228 0.45498195 112 24266020 26 0 34 1527
0.046979796 -1.4263299 0.42834157 128 24266020 29 1 62 1490
0.091865778 -1.3011767 0.377709 269 24266020 50 2 40 1358
0.14252765 -1.3127363 0.36885041 383 24266020 72 3 17 1371
-0.006856733 -1.4741428 0.39822781 120 24266020 28 4 37 1527
0.046565942 -1.4327655 0.37198886 112 24266020 25 5 8 1481
0.096104912 -1.3686999 0.3417902 236 24266020 47 6 68 1414
0.13697064 -1.2735667 0.30619577 408 24266020 71 7 51 1317
-0.0064529371 -1.4470592 0.33347145 110 24266020 24 8 67 1485
0.047347348 -1.4397801 0.31688547 111 24266020 24 9 26 1475
0.092576981 -1.3287448 0.27962112 320 24266020 59 10 53 1361
0.14248157 -1.335771 0.26891518 413 24266020 77 11 8 1370
-0.0059109968 -1.3739274 0.26360938 100 24266020 20 12 103 1399
0.04464956 -1.3738014 0.2495708 202 24266020 39 13 17 1397
0.09174379 -1.3204423 0.22729778 423 24266020 76 14 86 1343
0.14299761 -1.3437219 0.21937266 452 24266020 85 15 47 1369
-0.0048328335 -1.1187848 0.17239895 261 24266020 33 16 19 1132
0.035438109 -1.0980523 0.15850987 288 24266020 35 17 53 1110
0.094194025 -1.3663993 0.184404 282 24266020 54 18 56 1382
0.14355157 -1.3568034 0.17059501 313 24266020 59 19 51 1375
-0.005009993 -1.1551294 0.13498247 223 24266020 30 20 57 1163
0.03727933 -1.160758 0.12440022 251 24266020 34 21 68 1168
0.07566198 -1.1051598 0.10801044 280 24266020 35 22 54 1113
0.1373255 -1.3047029 0.11567713 329 24266020 57 23 119 1317
-0.0051286588 -1.1323642 0.090671189 213 24266020 27 24 49 1136
0.035729226 -1.1216452 0.079122394 267 24266020 34 25 69 1125
0.07590951 -1.1093435 0.067755789 305 24266020 38 26 143 1114
0.11756539 -1.1233692 0.058147173 283 24266020 36 27 92 1131
-0.0056848177 -1.132916 0.049246881 231 24266020 30 28 44 1134
0.034901556 -1.1078141 0.037562232 275 24266020 34 29 32 1109
0.074643463 -1.1061473 0.027346836 280 24266020 34 30 40 1109
0.11096941 -1.0641102 0.015985226 300 24266020 34 31 71 1070
-0.0052931178 -1.0439612 0.0072884359 226 24266020 25 32 95 1044
0.033550404 -1.0774744 -0.0027281214 306 24266020 36 33 63 1078
0.07466007 -1.1084093 -0.013262861 303 24266020 37 34 77 1111
0.11542191 -1.1137776 -0.024022266 289 24266020 36 35 65 1120
-0.0060064639 -1.080507 -0.032088071 242 24266020 28 36 106 1081
0.034800593 -1.1445954 -0.044791888 288 24266020 38 37 50 1146
0.074046589 -1.1062117 -0.053971693 328 24266020 40 38 114 1110
0.11578768 -1.117117 -0.065327995 272 24266020 35 39 63 1125
-0.0072608585 -1.1444592 -0.07595624 208 24266020 27 40 75 1147
0.03468696 -1.1581595 -0.08779265 238 24266020 32 41 80 1162
0.087473646 -1.3123029 -0.11229125 320 24266020 56 42 174 1320
0.12119207 -1.17546 -0.11213969 240 24266020 34 43 67 1187
-0.0090214601 -1.3478067 -0.13914275 340 24266020 62 44 51 1355
0.039563429 -1.3389412 -0.15091476 382 24266020 69 45 40 1348
0.086197108 -1.3034359 -0.15962774 346 24266020 60 46 125 1316
0.13419804 -1.304732 -0.1731898 283 24266020 50 47 120 1323
-0.010083128 -1.3388407 -0.187905 303 24266020 55 48 58 1352
0.039424691 -1.3542613 -0.20327927 325 24266020 61 49 24 1370
0.088109188 -1.3430294 -0.21512315 318 24266020 59 50 99 1363
0.1330923 -1.2975415 -0.22136359 286 24266020 50 51 93 1323
-0.011664676 -1.3851211 -0.24688604 361 24266020 71 52 52 1407
0.036897182 -1.2898849 -0.24249665 331 24266020 57 53 66 1313
0.082894467 -1.2696484 -0.25165549 305 24266020 51 54 127 1297
0.14327458 -1.3965702 -0.29226729 246 24266020 51 55 74 1434
-0.012671787 -1.4111184 -0.30613831 355 24266020 74 56 56 1444
0.041582759 -1.4808149 -0.33588582 100 24266020 23 57 64 1519
0.091210462 -1.4011576 -0.33269703 197 24266020 41 58 86 1443
0.20617928 -2.0114634 -0.50039506 386 24266020 168 59 75 2083
-0.016279105 -1.6039416 -0.41163453 95 24266020 26 60 26 1656
0.040495582 -1.4864801 -0.39655796 97 24266020 23 61 30 1539
0.1311923 -2.0213375 -0.56159365 351 24266020 155 62 58 2102
0.20353456 -1.9774953 -0.57345176 372 24266020 159 63 63 2069
-0.015943896 -1.4117323 0.44067997 125 24363550 27 0 41 1479
0.037611376 -1.4036125 0.42144209 122 24363550 26 1 46 1466
0.089068644 -1.3822343 0.40107244 114 24363550 24 2 37 1442
0.13211621 -1.2905911 0.36239353 401 24363550 73 3 26 1347
-0.015151985 -1.4045684 0.37945086 131 24363550 28 4 65 1455
0.037773781 -1.4330243 0.37198886 125 24363550 27 5 23 1481
0.092170797 -1.4389859 0.35919395 113 24363550 25 6 78 1486
0.13268399 -1.3092183 0.31456557 408 24363550 75 7 37 1353
-0.015331804 -1.4469923 0.33347145 105 24363550 23 8 66 1485
0.038825452 -1.4517592 0.31946355 120 24363550 27 9 15 1487
0.085166566 -1.3410082 0.28208655 222 24363550 42 10 49 1373
0.13310654 -1.3249123 0.26655969 340 24363550 63 11 49 1358
-0.015202229 -1.456356 0.27943724 104 24363550 23 12 92 1483
0.036530349 -1.3858522 0.25171456 133 24363550 26 13 20 1409
0.085882008 -1.3563901 0.23339066 369 24363550 70 14 100 1379
0.13474999 -1.344574 0.21937266 423 24363550 79 15 49 1369
-0.012069481 -1.1543123 0.17788161 237 24363550 32 16 13 1168
0.030871807 -1.1813598 0.17050521 288 24363550 41 17 74 1194
0.082827874 -1.3194742 0.17799923 263 24363550 47 18 73 1334
0.13286342 -1.3339614 0.16761735 278 24363550 51 19 75 1351
-0.012347288 -1.1789134 0.137768 214 24363550 30 20 64 1187
0.031085826 -1.196748 0.12823448 293 24363550 42 21 33 1204
0.068879426 -1.1056032 0.10801044 323 24363550 40 22 80 1113
0.12696083 -1.2817302 0.11356913 297 24363550 50 23 111 1293
-0.011949048 -1.1203504 0.089713395 189 24363550 24 24 74 1124
0.028538574 -1.1098771 0.078278422 268 24363550 33 25 69 1113
0.069101274 -1.1097884 0.067755789 311 24363550 39 26 137 1114
0.10714766 -1.08829 0.056296334 299 24363550 36 27 84 1095
-0.011967572 -1.07292 0.046641223 217 24363550 25 28 27 1074
0.027799381 -1.0960181 0.037155788 257 24363550 31 29 20 1097
0.069323316 -1.130532 0.027938651 308 24363550 40 30 36 1133
0.1067806 -1.0886538 0.016343774 302 24363550 36 31 74 1094
-0.012505447 -1.1159028 0.007791087 229 24363550 29 32 68 1116
0.028737746 -1.1496373 -0.0029103337 297 24363550 39 33 67 1150
0.067857593 -1.1088465 -0.013262861 304 24363550 38 34 85 1111
0.10974915 -1.1264057 -0.024279648 275 24363550 35 35 62 1132
-0.013197307 -1.1284254 -0.033512887 253 24363550 32 36 117 1129
0.028067689 -1.1567748 -0.045260917 278 24363550 37 37 55 1158
0.067984723 -1.118609 -0.054555174 324 24363550 41 38 121 1122
0.10776906 -1.1058832 -0.064631164 280 24363550 35 39 75 1113
-0.013984132 -1.1204478 -0.07436692 237 24363550 30 40 71 1123
0.027010337 -1.1344259 -0.085979372 244 24363550 32 41 89 1138
0.07869786 -1.3008804 -0.11127043 307 24363550 52 42 135 1308
0.11628181 -1.1999629 -0.11440706 276 24363550 40 43 53 1211
-0.017597543 -1.3715972 -0.14160727 352 24363550 67 44 63 1379
0.031626146 -1.3510801 -0.15225822 335 24363550 62 45 26 1360
0.078910805 -1.3158303 -0.1610833 346 24363550 61 46 124 1328
0.12161152 -1.2581646 -0.16690627 305 24363550 50 47 123 1275
-0.018460317 -1.350636 -0.1895728 286 24363550 53 48 43 1364
0.031659428 -1.3782057 -0.20684037 331 24363550 64 49 24 1394
0.0791637 -1.3317161 -0.21322918 365 24363550 67 50 92 1351
0.12626319 -1.3101099 -0.22337142 288 24363550 51 51 90 1335
-0.020335369 -1.3968359 -0.24899168 304 24363550 61 52 56 1419
0.028981902 -1.2900871 -0.24249665 320 24363550 55 53 62 1313
0.077881917 -1.3171388 -0.26096886 332 24363550 60 54 106 1345
0.12568495 -1.3038718 -0.27270129 309 24363550 55 55 67 1338
-0.020266462 -1.3406588 -0.29087377 276 24363550 52 56 85 1372
0.031725723 -1.4459417 -0.32792541 102 24363550 22 57 54 1483
0.083985403 -1.4250039 -0.33823046 183 24363550 39 58 71 1467
0.19159997 -1.9895005 -0.49462953 352 24363550 149 59 56 2059
-0.025741842 -1.5805677 -0.4056688 90 24363550 24 60 13 1632
0.030150793 -1.4287395 -0.38109761 120 24363550 26 61 25 1479
0.11878713 -2.0221045 -0.56159365 371 24363550 164 62 59 2102
0.1947273 -2.0131359 -0.58342963 353 24363550 156 63 38 2105
-0.024805462 -1.4230611 0.44425547 110 24461240 24 0 33 1491
0.029235629 -1.4153079 0.4248918 114 24461240 25 1 46 1478
0.080585741 -1.3827548 0.40107244 86 24461240 18 2 42 1442
0.12419481 -1.2913775 0.36239353 407 24461240 74 3 19 1347
-0.024946216 -1.4739476 0.39822781 117 24461240 27 4 57 1527
0.029684646 -1.4680679 0.38103113 116 24461240 27 5 13 1517
0.080647625 -1.3930256 0.34759146 122 24461240 25 6 90 1438
0.12354276 -1.2983891 0.31177565 417 24461240 75 7 64 1341
-0.02577519 -1.5404062 0.35502923 96 24461240 24 8 43 1581
0.030399747 -1.4754047 0.32461962 104 24461240 24 9 19 1511
0.079626396 -1.3884045 0.29194829 134 24461240 27 10 41 1421
0.12166151 -1.2905602 0.25949332 387 24461240 68 11 30 1322
-0.023552023 -1.420885 0.27265388 109 24461240 23 12 93 1447
0.028980993 -1.4332684 0.26028964 121 24461240 26 13 22 1457
0.077557735 -1.3568916 0.23339066 368 24461240 70 14 91 1379
0.12427967 -1.3217896 0.21552682 418 24461240 76 15 39 1345
-0.018955212 -1.1423579 0.17605405 281 24461240 38 16 17 1156
0.02267289 -1.1340284 0.16365074 289 24461240 38 17 68 1146
0.07002452 -1.2368417 0.16679087 288 24461240 45 18 72 1250
0.12356848 -1.3228959 0.16612852 298 24461240 54 19 71 1339
-0.01918483 -1.1549809 0.13498247 243 24461240 33 20 57 1163
0.022085704 -1.1134104 0.11928788 257 24461240 32 21 87 1120
0.064102717 -1.1417788 0.11150404 309 24461240 41 22 78 1149
0.11467277 -1.2348753 0.1093531 278 24461240 43 23 112 1245
-0.019024123 -1.132216 0.090671189 192 24461240 25 24 54 1136
0.022196487 -1.1339673 0.079966374 256 24461240 33 25 67 1137
0.061619446 -1.0982325 0.067025922 296 24461240 36 26 109 1102
0.10377108 -1.1247274 0.058147173 275 24461240 35 27 75 1131
-0.019379742 -1.120774 0.048725754 226 24461240 28 28 48 1122
0.021534868 -1.1201499 0.037968677 296 24461240 37 29 26 1121
0.061724454 -1.118958 0.027642744 307 24461240 39 30 41 1121
0.099000752 -1.07734 0.016164498 317 24461240 37 31 62 1082
-0.019352263 -1.115805 0.007791087 215 24461240 27 32 65 1116
0.021456903 -1.137794 -0.0028799647 294 24461240 38 33 50 1138
0.061052565 -1.109242 -0.013262861 340 24461240 42 34 78 1111
0.099565201 -1.091215 -0.023507504 265 24461240 32 35 58 1096
-0.020548671 -1.1523087 -0.034225293 231 24461240 31 36 112 1153
0.020534726 -1.1329474 -0.044322867 269 24461240 35 37 48 1134
0.060466092 -1.1070371 -0.053971693 303 24461240 37 38 111 1110
0.098803975 -1.0826634 -0.063237503 300 24461240 36 39 75 1089
-0.021973258 -1.1801988 -0.078340225 220 24461240 31 40 77 1183
0.019837709 -1.1226064 -0.085072741 220 24461240 28 41 75 1126
0.071363077 -1.3132776 -0.11229125 331 24461240 58 42 139 1320
0.11647171 -1.283936 -0.1223428 296 24461240 50 43 63 1295
-0.025560442 -1.3475945 -0.13914275 323 24461240 59 44 53 1355
0.023953184 -1.387017 -0.15628858 309 24461240 60 45 27 1396
0.070195459 -1.3043956 -0.15962774 362 24461240 63 46 139 1316
0.11388928 -1.2588872 -0.16690627 344 24461240 56 47 112 1275
-0.027923884 -1.4099033 -0.19791177 283 24461240 57 48 54 1424
0.023202319 -1.378374 -0.20684037 315 24461240 61 49 20 1394
0.070990957 -1.3321767 -0.21322918 342 24461240 62 50 92 1351
0.11609679 -1.287294 -0.21935576 307 24461240 53 51 89 1311
-0.030372491 -1.4675527 -0.26162553 268 24461240 59 52 47 1491
0.022028159 -1.3492005 -0.25357798 299 24461240 56 53 54 1373
0.068553165 -1.2940811 -0.25631219 314 24461240 55 54 127 1321
0.11768217 -1.3046184 -0.27270129 315 24461240 56 55 77 1338
-0.030735033 -1.4460303 -0.31377053 154 24461240 34 56 90 1480
0.023407754 -1.4812137 -0.33588582 112 24461240 26 57 47 1519
0.070931926 -1.343869 -0.31886345 320 24461240 61 58 99 1383
0.17834353 -1.9790372 -0.49174684 378 24461240 159 59 78 2047
-0.0343972 -1.5338984 -0.39373738 108 24461240 27 60 39 1584
0.022251135 -1.486865 -0.39655796 106 24461240 25 61 17 1539
0.10577022 -2.0112474 -0.55838764 381 24461240 167 62 58 2090
0.18445057 -2.0372589 -0.59008163 335 24461240 152 63 35 2129
-0.033806648 -1.4343338 0.44783095 89 24558670 20 0 52 1503
0.020717768 -1.426953 0.42834157 114 24558670 25 1 58 1490
0.078699782 -1.509843 0.43778646 72 24558670 18 2 35 1574
0.11730453 -1.3036263 0.36562198 385 24558670 71 3 28 1359
-0.032921281 -1.4274402 0.38570985 134 24558670 29 4 52 1479
0.020512635 -1.4566083 0.37801704 94 24558670 21 5 23 1505
0.072700314 -1.4051228 0.35049209 94 24558670 20 6 88 1450
0.11660788 -1.310748 0.31456557 337 24558670 62 7 43 1353
-0.034691714 -1.5168381 0.34963977 85 24558670 21 8 49 1557
0.02049863 -1.4169706 0.31172937 109 24558670 23 9 18 1451
0.074108161 -1.4475101 0.30427542 99 24558670 22 10 37 1481
0.11477293 -1.3030037 0.26184878 442 24558670 79 11 25 1334
-0.032537583 -1.4324958 0.27491501 120 24558670 26 12 80 1459
0.019687315 -1.398002 0.25385836 112 24558670 23 13 37 1421
0.069230549 -1.3573419 0.23339066 365 24558670 69 14 97 1379
0.11823986 -1.3461263 0.21937266 404 24558670 76 15 41 1369
-0.025155658 -1.1066493 0.17057139 250 24558670 31 16 36 1120
0.016043289 -1.1578979 0.16707797 272 24558670 37 17 66 1170
0.056440409 -1.1184722 0.15077895 249 24558670 32 18 79 1130
0.11648365 -1.3354914 0.16761735 300 24558670 55 19 72 1351
-0.026813438 -1.178673 0.137768 230 24558670 32 20 58 1187
0.016397547 -1.1970394 0.12823448 251 24558670 36 21 44 1204
0.056499388 -1.1302222 0.11033951 282 24558670 37 22 73 1137
0.10399688 -1.1998289 0.10619108 291 24558670 43 23 109 1209
-0.02569657 -1.1201193 0.089713395 206 24558670 26 24 66 1124
0.01507735 -1.1221129 0.079122394 251 24558670 32 25 56 1125
0.056074861 -1.1225157 0.068485655 272 24558670 34 26 112 1126
0.093784593 -1.089523 0.056296334 348 24558670 42 27 80 1095
-0.025975499 -1.1086485 0.048204619 217 24558670 27 28 52 1110
0.014504407 -1.1082689 0.037562232 268 24558670 33 29 33 1109
0.05427026 -1.1073338 0.027346836 306 24558670 38 30 45 1109
0.096487015 -1.1257465 0.016881593 335 24558670 43 31 59 1130
-0.026761755 -1.1396582 0.0079586376 227 24558670 30 32 70 1140
0.014169851 -1.1139064 -0.0028192275 290 24558670 36 33 47 1114
0.053659327 -1.097611 -0.013119609 317 24558670 38 34 68 1099
0.09388455 -1.1037595 -0.023764886 300 24558670 37 35 66 1108
-0.027618717 -1.1521609 -0.034225293 236 24558670 31 36 106 1153
0.013582705 -1.1330521 -0.044322867 278 24558670 36 37 51 1134
0.053672303 -1.1073872 -0.053971693 290 24558670 36 38 133 1110
0.097236641 -1.1429323 -0.066721655 285 24558670 38 39 62 1149
-0.028918065 -1.1680716 -0.077545561 199 24558670 27 40 84 1171
0.012673148 -1.0987772 -0.083259463 273 24558670 33 41 92 1102
0.062728129 -1.3017482 -0.11127043 230 24558670 39 42 145 1308
0.1116102 -1.3203381 -0.12574384 303 24558670 54 43 58 1331
-0.033828646 -1.3474123 -0.13914275 321 24558670 59 44 68 1355
0.015176676 -1.3632903 -0.15360168 351 24558670 66 45 20 1372
0.063891776 -1.3404955 -0.16399445 328 24558670 60 46 101 1352
0.11215782 -1.3306905 -0.17633156 367 24558670 67 47 139 1347
-0.037807208 -1.4572237 -0.20458296 298 24558670 65 48 29 1472
0.014744339 -1.3784904 -0.20684037 321 24558670 62 49 34 1394
0.063373484 -1.3444237 -0.21512315 351 24558670 65 50 88 1363
0.11017661 -1.3115606 -0.22337142 309 24558670 55 51 104 1335
-0.038425907 -1.4319099 -0.2553086 301 24558670 64 52 56 1455
0.013869375 -1.3611033 -0.25579426 271 24558670 52 53 57 1385
0.06281393 -1.3415136 -0.26562557 314 24558670 59 54 107 1369
0.11262586 -1.3404365 -0.28003857 254 24558670 48 55 66 1374
-0.040891688 -1.4927058 -0.32394689 134 24558670 31 56 93 1528
0.014318756 -1.4813294 -0.33588582 105 24558670 24 57 54 1519
0.063228667 -1.355943 -0.32163018 312 24558670 61 58 80 1395
0.1671713 -1.9917018 -0.49462953 377 24558670 160 59 75 2059
-0.058079287 -2.0332592 -0.52200031 162 24558670 71 60 27 2100
0.013536918 -1.5333511 -0.40892625 95 24558670 24 61 36 1587
0.093963854 -2.0234098 -0.56159365 349 24558670 154 62 56 2102
0.1690392 -2.003885 -0.58010375 348 24558670 152 63 52 2093
-0.044988144 -1.5142488 0.47285947 95 24655010 24 0 53 1587
0.012250768 -1.4615322 0.43869072 115 24655010 27 1 77 1526
0.065199211 -1.4181826 0.41108534 62 24655010 13 2 39 1478
0.10833827 -1.2928044 0.36239353 387 24655010 70 3 13 1347
-0.042355604 -1.4503708 0.39196882 113 24655010 26 4 61 1503
0.011205509 -1.4102468 0.36596066 114 24655010 24 5 30 1457
0.067259043 -1.4753349 0.36789584 102 24655010 24 6 100 1522
0.10856309 -1.3114388 0.31456557 324 24655010 59 7 49 1353
-0.043998204 -1.5165967 0.34963977 83 24655010 20 8 62 1557
0.011511015 -1.3819116 0.30399522 98 24655010 20 9 18 1415
0.060468562 -1.3423486 0.28208655 98 24655010 18 10 43 1373
0.10677569 -1.3036834 0.26184878 391 24655010 70 11 34 1334
-0.043026116 -1.4911699 0.28622061 92 24655010 21 12 100 1519
0.011484215 -1.4453229 0.26243344 104 24655010 22 13 53 1469
0.059840839 -1.3341111 0.22932874 363 24655010 67 14 84 1355
0.10997795 -1.3468266 0.21937266 417 24655010 78 15 58 1369
-0.033314548 -1.1538945 0.17788161 218 24655010 30 16 10 1168
0.0086632343 -1.1223446 0.16193712 257 24655010 33 17 73 1134
0.050629485 -1.1425596 0.15398134 286 24655010 38 18 69 1154
0.1073252 -1.3243126 0.16612852 310 24655010 56 19 59 1339
