# .PCD v0.7 - Point Cloud Data file format
VERSION 0.7
FIELDS x y z intensity t reflectivity ring noise range
SIZE 4 4 4 4 4 2 1 2 4
TYPE F F F F U U U U U
COUNT 1 1 1 1 1 1 1 1 1
WIDTH 773
HEIGHT 1
VIEWPOINT 0 0 0 1 0 0 0
POINTS 773
DATA ascii
0.94740677 -1.8216637 0.64090776 521 16492360 241 0 77 2151
1.0076437 -1.7694613 0.61117727 462 16492360 209 1 61 2126
1.0643121 -1.7157614 0.58464235 347 16492360 153 2 53 2102
1.0219588 -1.5168324 0.51090223 350 16492360 126 3 29 1899
0.94837326 -1.8212696 0.5547024 457 16492360 207 4 74 2127
1.0304693 -1.8113812 0.54077786 432 16492360 200 5 43 2153
1.0417947 -1.6809019 0.49262267 339 16492360 141 6 93 2038
1.0662675 -1.5860596 0.45685247 406 16492360 157 7 73 1965
0.94952726 -1.8226316 0.47359687 406 16492360 181 8 77 2109
1.0375417 -1.8221852 0.46125636 546 16492360 252 9 89 2147
1.0966864 -1.7716079 0.4374088 499 16492360 226 10 63 2129
1.1353238 -1.6919669 0.40788737 399 16492360 172 11 40 2078
0.9508931 -1.8245537 0.39475456 444 16492360 195 12 97 2095
1.0474721 -1.8412693 0.38462844 488 16492360 226 13 69 2153
1.1009719 -1.7792939 0.35930991 414 16492360 187 14 108 2123
1.1881027 -1.7715585 0.34628507 457 16492360 214 15 65 2161
0.94457787 -1.8125134 0.3149479 431 16492360 184 16 8 2068
1.0420154 -1.8326447 0.3041676 429 16492360 195 17 81 2130
1.1139451 -1.8024389 0.2852791 402 16492360 184 18 87 2138
1.1899558 -1.7766668 0.26736891 382 16492360 177 19 99 2155
0.95244867 -1.8276943 0.24083285 371 16492360 160 20 79 2075
1.0219613 -1.7980318 0.22153464 377 16492360 163 21 89 2080
1.1026754 -1.7860852 0.20466669 367 16492360 163 22 82 2109
1.1880827 -1.7759476 0.18840355 372 16492360 171 23 144 2145
0.95413637 -1.8317908 0.16537914 364 16492360 156 24 29 2072
1.0331657 -1.818853 0.14748415 396 16492360 174 25 91 2097
1.1188989 -1.8125051 0.1297943 347 16492360 158 26 115 2134
1.2000446 -1.7961336 0.11120454 363 16492360 170 27 114 2163
0.95446771 -1.8346146 0.089895107 395 16492360 169 28 54 2070
1.0325269 -1.8192066 0.070890673 339 16492360 148 29 39 2093
1.1100084 -1.8019005 0.052203111 318 16492360 142 30 52 2117
1.2002853 -1.7979201 0.03229912 382 16492360 179 31 81 2162
0.95801848 -1.8416752 0.014493098 330 16492360 142 32 64 2076
1.0230765 -1.8040962 -0.0052487236 350 16492360 151 33 81 2074
1.1236798 -1.8245928 -0.02558264 321 16492360 148 34 97 2143
1.1867814 -1.7801808 -0.045899689 381 16492360 175 35 80 2140
0.9516505 -1.8316193 -0.061296821 325 16492360 139 36 99 2065
1.0190073 -1.7999941 -0.080906816 344 16492360 148 37 59 2070
1.1148628 -1.8119755 -0.10356731 388 16492360 176 38 143 2130
1.1745605 -1.7617829 -0.12316504 372 16492360 168 39 79 2121
0.93476355 -1.8025764 -0.13476108 406 16492360 168 40 75 2035
1.0239102 -1.8105706 -0.15760368 369 16492360 161 41 100 2086
1.0897126 -1.7722077 -0.17762434 390 16492360 170 42 153 2088
1.1979221 -1.7989322 -0.20510131 287 16492360 135 43 67 2171
0.94954467 -1.8326451 -0.21307838 393 16492360 169 44 94 2075
1.022598 -1.8099457 -0.23420896 402 16492360 176 45 72 2092
1.1075343 -1.8033068 -0.25860664 282 16492360 128 46 134 2132
1.1287937 -1.6960194 -0.26901361 47 16492360 20 47 118 2055
0.93697512 -1.8121004 -0.28630495 421 16492360 179 48 66 2060
1.0159181 -1.799956 -0.31011218 301 16492360 132 49 70 2090
1.0817437 -1.7633839 -0.33065516 45 16492360 20 50 49 2095
1.1679353 -1.7558928 -0.35789624 289 16492360 132 51 56 2139
0.93303382 -1.8084217 -0.36269614 427 16492360 183 52 75 2067
1.0043679 -1.7815979 -0.38433778 127 16492360 55 53 84 2081
1.0956386 -1.7872938 -0.41463977 297 16492360 136 54 94 2137
1.1614269 -1.7460418 -0.43656668 416 16492360 191 55 65 2142
0.89341182 -1.7340018 -0.42316622 269 16492360 107 56 110 1996
0.9622314 -1.7089452 -0.44467837 91 16492360 37 57 64 2011
1.0874499 -1.7747004 -0.4931663 403 16492360 185 58 65 2139
1.1584252 -1.7418588 -0.51769149 425 16492360 197 59 87 2155
0.9135884 -1.7782662 -0.51305169 422 16492360 180 60 32 2064
1.0068285 -1.79166 -0.54806936 425 16492360 192 61 45 2127
1.0881735 -1.7766467 -0.57762396 273 16492360 128 62 83 2162
1.1718311 -1.760417 -0.61003745 126 16492360 61 63 66 2201
0.93098855 -1.8172479 0.63733232 404 16590090 185 0 79 2139
0.99676758 -1.7756107 0.61117727 414 16590090 187 1 85 2126
1.0718117 -1.751756 0.59465522 326 16590090 149 2 49 2138
1.0318292 -1.5519478 0.52058756 347 16590090 130 3 51 1935
0.94246763 -1.8373623 0.55783188 445 16590090 204 4 83 2139
1.0250168 -1.827801 0.54379195 458 16590090 214 5 51 2165
1.0314612 -1.6872625 0.49262267 359 16590090 149 6 98 2038
1.0823236 -1.6314746 0.46801218 395 16590090 160 7 82 2013
0.93832594 -1.8284234 0.47359687 401 16590090 179 8 68 2109
1.0148687 -1.8080773 0.45610026 420 16590090 189 9 83 2123
1.0857954 -1.7783036 0.4374088 446 16590090 202 10 72 2129
1.137913 -1.7185228 0.41259828 391 16590090 173 11 47 2102
0.93429756 -1.81987 0.39249349 442 16590090 192 12 70 2083
1.0015038 -1.7858728 0.37176579 468 16590090 203 13 88 2081
1.1023562 -1.8062062 0.36337182 421 16590090 194 14 114 2147
1.1641363 -1.7590598 0.34243926 413 16590090 188 15 53 2137
0.92260581 -1.7971733 0.31129283 418 16590090 175 16 23 2044
1.0191368 -1.8182827 0.30074036 403 16590090 179 17 97 2106
1.0904845 -1.7889305 0.28207672 400 16590090 179 18 74 2114
1.1921628 -1.8038023 0.27034655 397 16590090 189 19 87 2179
0.94665945 -1.8441074 0.24222563 397 16590090 173 20 53 2087
1.0342381 -1.8459054 0.22664696 368 16590090 167 21 83 2128
1.0916954 -1.7928175 0.20466669 371 16590090 165 22 87 2109
1.1969197 -1.8131318 0.19156554 363 16590090 173 23 125 2181
0.94833946 -1.8482534 0.16633694 366 16590090 159 24 45 2084
1.0102895 -1.8042694 0.14579621 365 16590090 157 25 76 2073
1.0952982 -1.7988753 0.12833457 344 16590090 153 26 103 2110
1.1758084 -1.7834525 0.10997066 345 16590090 158 27 96 2139
0.93225712 -1.8190981 0.088852838 427 16590090 179 28 21 2046
1.0330565 -1.8464404 0.071703561 319 16590090 143 29 45 2117
1.1051605 -1.8189299 0.052499022 333 16590090 151 30 56 2129
1.1826301 -1.7952311 0.032119848 390 16590090 180 31 77 2150
0.94122779 -1.8368394 0.014409322 319 16590090 136 32 79 2064
1.0236981 -1.8312887 -0.0053094607 353 16590090 156 33 95 2098
1.093775 -1.8006868 -0.025152879 328 16590090 146 34 110 2107
1.1824296 -1.7974523 -0.046157073 341 16590090 158 35 73 2152
0.94585878 -1.8481016 -0.061653029 349 16590090 150 36 144 2077
1.0021003 -1.7957419 -0.080437794 337 16590090 143 37 50 2058
1.109942 -1.8290287 -0.10415079 368 16590090 169 38 158 2142
1.1834805 -1.7989814 -0.12525554 351 16590090 163 39 89 2157
0.9291324 -1.8189412 -0.13555574 395 16590090 165 40 57 2047
1.0127814 -1.8168191 -0.15760368 349 16590090 152 41 98 2086
1.0788181 -1.7788607 -0.17762434 391 16590090 170 42 142 2088
1.1999822 -1.8262165 -0.20736869 260 16590090 125 43 76 2195
0.9274295 -1.817173 -0.21061386 417 16590090 176 44 87 2051
0.99986929 -1.7953504 -0.23152205 384 16590090 164 45 63 2068
1.0779344 -1.7795045 -0.25423992 291 16590090 128 46 118 2096
1.1379577 -1.7327456 -0.27372628 24 16590090 11 47 109 2091
0.91505206 -1.7966369 -0.28296936 413 16590090 171 48 69 2036
0.97023767 -1.743934 -0.29942888 326 16590090 133 49 49 2018
1.1322441 -1.8713719 -0.34959486 38 16590090 18 50 48 2215
1.1311727 -1.7234629 -0.3498649 296 16590090 130 51 72 2091
0.90586334 -1.7825171 -0.35637924 405 16590090 167 52 91 2031
0.96477485 -1.7361828 -0.37325647 296 16590090 121 53 77 2021
1.0602885 -1.7536875 -0.40532637 310 16590090 135 54 91 2089
1.1571379 -1.7629567 -0.43901241 423 16590090 196 55 67 2154
0.84029824 -1.65579 -0.40281352 449 16590090 162 56 81 1900
0.94036913 -1.6943518 -0.43937141 96 16590090 38 57 63 1987
1.0584216 -1.751359 -0.48486617 370 16590090 164 58 73 2103
1.1541065 -1.7586728 -0.52057415 446 16590090 210 59 67 2167
0.90790802 -1.7942096 -0.5160346 428 16590090 184 60 40 2076
0.98457998 -1.7775186 -0.54188526 414 16590090 183 61 35 2103
1.0712725 -1.7733922 -0.57441789 394 16590090 182 62 57 2150
1.123028 -1.7097524 -0.59008163 67 16590090 30 63 50 2129
0.93014109 -1.8433796 0.64448327 410 16687460 192 0 68 2163
1.0025475 -1.8118632 0.62152648 411 16687460 192 1 63 2162
1.0610429 -1.7582995 0.59465522 379 16687460 173 2 52 2138
1.003268 -1.5292591 0.51090223 335 16687460 121 3 26 1899
0.9155041 -1.8120904 0.54844344 434 16687460 192 4 52 2103
1.0137824 -1.834056 0.54379195 452 16687460 212 5 44 2165
1.0331136 -1.7135035 0.4984239 326 16687460 139 6 98 2062
1.0786848 -1.64785 0.47080213 406 16687460 167 7 80 2025
0.91653913 -1.8132741 0.46820739 397 16687460 173 8 72 2085
0.9980818 -1.8040154 0.45352221 405 16687460 181 9 91 2111
1.0869802 -1.8050537 0.44233966 412 16687460 191 10 63 2153
1.1144753 -1.7057717 0.40788737 435 16687460 188 11 32 2078
0.91779548 -1.8150514 0.39023232 422 16687460 181 12 72 2071
1.0133744 -1.833318 0.3803409 419 16687460 190 13 74 2129
1.0790544 -1.7926706 0.35930991 484 16687460 218 14 107 2123
1.1662735 -1.786005 0.34628507 365 16687460 171 15 59 2161
0.9222644 -1.8239683 0.3149479 392 16687460 168 16 3 2068
1.0079609 -1.8245019 0.30074036 417 16687460 185 17 76 2106
1.0733596 -1.7853954 0.28047553 383 16687460 169 18 83 2102
1.1745679 -1.8011093 0.26885772 345 16687460 162 19 87 2167
0.92457038 -1.8286082 0.2394401 398 16687460 170 20 66 2063
0.9998197 -1.8104374 0.22153464 364 16687460 158 21 73 2080
1.0991212 -1.8301989 0.2081603 386 16687460 178 22 87 2145
1.1596754 -1.7803771 0.18734953 369 16687460 168 23 131 2133
0.93158561 -1.8433616 0.16537914 372 16687460 160 24 31 2072
1.0107678 -1.8313947 0.14748415 351 16687460 155 25 63 2097
1.0719074 -1.785025 0.12687485 331 16687460 144 26 122 2086
1.177913 -1.8107247 0.11120454 354 16687460 166 27 104 2163
0.91567564 -1.8140817 0.088331714 404 16687460 167 28 30 2034
0.99854165 -1.8107359 0.070077777 338 16687460 145 29 32 2069
1.0939789 -1.8256768 0.052499022 335 16687460 152 30 49 2129
1.1781317 -1.8125141 0.03229912 376 16687460 176 31 81 2162
0.94615936 -1.8747182 0.014660648 346 16687460 153 32 64 2100
1.0008605 -1.8165151 -0.0052487236 345 16687460 149 33 62 2074
1.0950383 -1.8279511 -0.025439385 344 16687460 156 34 94 2131
1.1583146 -1.7845471 -0.045642305 358 16687460 162 35 73 2128
0.93990028 -1.8645812 -0.062009227 335 16687460 146 36 128 2089
1.0026206 -1.8228698 -0.081375837 389 16687460 169 37 63 2082
1.0740776 -1.7946663 -0.10181687 352 16687460 154 38 146 2094
1.1528523 -1.7760639 -0.12316504 369 16687460 166 39 90 2121
0.90719151 -1.8032154 -0.13396642 388 16687460 159 40 74 2023
0.99585259 -1.8125122 -0.15669703 359 16687460 154 41 108 2074
1.0678828 -1.7854468 -0.17762434 387 16687460 168 42 163 2088
1.1627586 -1.7934493 -0.20283397 242 16687460 112 43 74 2147
0.91626209 -1.8228294 -0.21061386 403 16687460 170 44 66 2051
0.98309648 -1.7909983 -0.23017858 344 16687460 146 45 61 2056
1.0853215 -1.8167621 -0.25860664 221 16687460 101 46 111 2132
1.107896 -1.7097437 -0.26901361 39 16687460 16 47 107 2055
0.90933907 -1.8128399 -0.28463715 395 16687460 166 48 83 2048
1.0165764 -1.8539091 -0.31723434 272 16687460 124 49 52 2138
1.0903816 -1.827405 -0.34012502 225 16687460 104 50 42 2155
1.1398689 -1.7601624 -0.3558884 245 16687460 111 51 76 2127
0.88433397 -1.7669128 -0.35216796 404 16687460 163 52 79 2007
0.99375957 -1.8144764 -0.38877031 425 16687460 188 53 86 2105
1.055537 -1.7702713 -0.40765473 222 16687460 98 54 72 2101
1.1335267 -1.750302 -0.43412092 431 16687460 196 55 65 2130
0.89303726 -1.7867947 -0.43334258 174 16687460 73 56 100 2044
0.9580363 -1.7514263 -0.4526388 69 16687460 29 57 70 2047
1.0536336 -1.7678505 -0.48763284 235 16687460 105 58 57 2115
1.1306316 -1.7461654 -0.51480871 462 16687460 212 59 86 2143
0.89688188 -1.7997466 -0.5160346 418 16687460 180 60 33 2076
0.96809894 -1.7733493 -0.53879315 415 16687460 181 61 39 2091
1.0544525 -1.7699975 -0.57121181 402 16687460 184 62 59 2138
1.112516 -1.716611 -0.59008163 84 16687460 38 63 60 2129
0.91371536 -1.8387938 0.64090776 398 16784740 184 0 70 2151
0.99141127 -1.8179805 0.62152648 347 16784740 162 1 101 2162
1.0620236 -1.7845874 0.60133058 453 16784740 211 2 57 2162
1.0566692 -1.6324091 0.54318672 441 16784740 180 3 50 2019
0.90952843 -1.8280455 0.55157286 395 16784740 177 4 69 2115
0.99695307 -1.8300419 0.54077786 448 16784740 207 5 57 2153
1.0761392 -1.8098876 0.52452952 532 16784740 251 6 104 2170
1.049557 -1.6250255 0.46243232 401 16784740 159 7 64 1989
0.91581774 -1.8398005 0.47359687 396 16784740 176 8 63 2109
0.98699379 -1.8101056 0.45352221 413 16784740 184 9 82 2111
1.0638911 -1.7914941 0.4374088 379 16784740 172 10 58 2129
1.1231138 -1.7422472 0.41495377 492 16784740 220 11 27 2114
0.90664124 -1.8206487 0.39023232 418 16784740 179 12 69 2071
0.99080962 -1.8187648 0.37605333 415 16784740 184 13 72 2105
1.0680344 -1.7992578 0.35930991 430 16784740 194 14 83 2123
1.1745389 -1.8229991 0.35205382 404 16784740 195 15 74 2197
0.91105539 -1.8295929 0.3149479 400 16784740 171 16 6 2068
0.99106747 -1.8202211 0.29902673 384 16784740 168 17 96 2094
1.0684495 -1.8021778 0.28207672 372 16784740 166 18 80 2114
1.1699375 -1.8182961 0.27034655 389 16784740 185 19 80 2179
0.91333288 -1.8342468 0.2394401 364 16784740 155 20 45 2063
0.99439621 -1.827018 0.22281271 367 16784740 161 21 82 2092
1.0696126 -1.8060793 0.20466669 393 16784740 175 22 65 2109
1.155192 -1.7975154 0.18840355 364 16784740 168 23 112 2145
0.89893878 -1.8062081 0.16154797 330 16784740 135 24 38 2024
0.99379188 -1.8270466 0.14664018 384 16784740 167 25 81 2085
1.0731407 -1.8121809 0.12833457 339 16784740 151 26 122 2110
1.1538341 -1.7977473 0.10997066 353 16784740 161 27 120 2139
0.90986377 -1.8304013 0.088852838 398 16784740 167 28 34 2046
0.99886626 -1.8379039 0.070890673 314 16784740 137 29 49 2093
1.0766532 -1.8220268 0.052203111 310 16784740 139 30 46 2117
1.1346017 -1.769208 0.031402752 382 16784740 169 31 71 2102
0.91861612 -1.8482515 0.014409322 327 16784740 139 32 68 2064
0.97824317 -1.8015311 -0.005187986 327 16784740 137 33 55 2050
1.0715954 -1.8139735 -0.025152879 338 16784740 150 34 99 2107
1.1408731 -1.7815177 -0.045384929 386 16784740 173 35 72 2116
0.90710855 -1.8273382 -0.060584415 367 16784740 153 36 111 2041
0.9742741 -1.7973622 -0.079968765 344 16784740 144 37 45 2046
1.0752294 -1.8218672 -0.10298382 367 16784740 165 38 138 2118
1.1290115 -1.7629278 -0.12177138 357 16784740 157 39 58 2097
0.89611012 -1.8087479 -0.13396642 399 16784740 163 40 66 2023
0.97901499 -1.8080661 -0.15579039 375 16784740 160 41 83 2062
1.0508333 -1.781667 -0.17660353 371 16784740 160 42 175 2076
1.145295 -1.7904863 -0.20170029 278 16784740 127 43 59 2135
0.91565078 -1.8498125 -0.21307838 416 16784740 179 44 81 2075
0.98343599 -1.8179736 -0.23286551 367 16784740 159 45 62 2080
1.0620618 -1.8028612 -0.25569546 266 16784740 118 46 91 2108
1.1422409 -1.7866734 -0.28000981 57 16784740 26 47 112 2139
0.88767284 -1.7970762 -0.28130159 401 16784740 164 48 81 2024
0.9826147 -1.8183508 -0.31011218 357 16784740 156 49 59 2090
1.037084 -1.7625709 -0.32686722 409 16784740 175 50 48 2071
1.1035681 -1.7272446 -0.34785703 238 16784740 103 51 72 2079
0.88392091 -1.7934991 -0.35637924 429 16784740 177 52 65 2031
0.95459968 -1.768648 -0.37768897 381 16784740 159 53 75 2045
1.0327218 -1.7564191 -0.40299803 59 16784740 26 54 85 2077
1.1290911 -1.7671241 -0.43656668 410 16784740 188 55 57 2142
0.89759213 -1.8238065 -0.44097483 139 16784740 60 56 96 2080
0.93616539 -1.7366686 -0.44733182 155 16784740 63 57 48 2023
1.03685 -1.7642156 -0.48486617 76 16784740 34 58 60 2103
1.1198961 -1.75307 -0.51480871 456 16784740 210 59 79 2143
0.88070154 -1.7947811 -0.51305169 450 16784740 192 60 29 2064
0.97367942 -1.8098888 -0.54806936 415 16784740 188 61 38 2127
1.0260004 -1.7465222 -0.56159365 388 16784740 172 62 63 2102
1.0584841 -1.6554078 -0.56679988 86 16784740 36 63 32 2045
0.89738119 -1.8340764 0.63733232 376 16882560 172 0 71 2139
0.97479695 -1.8139054 0.61807674 601 16882560 278 1 81 2150
1.0510536 -1.7910702 0.60133058 442 16882560 207 2 73 2162
1.0777366 -1.6875651 0.55932891 417 16882560 180 3 34 2079
0.89319801 -1.8231887 0.54844344 414 16882560 183 4 64 2103
0.9747175 -1.815657 0.53474969 463 16882560 210 5 45 2129
1.0414559 -1.7762771 0.51292706 474 16882560 213 6 108 2122
1.0521101 -1.6511203 0.46801218 419 16882560 170 7 66 2013
0.89936507 -1.834885 0.47090214 419 16882560 184 8 69 2097
0.97032136 -1.8058039 0.45094419 407 16882560 179 9 93 2099
1.0706822 -1.8283911 0.44480512 440 16882560 207 10 64 2165
1.1124023 -1.7491057 0.41495377 522 16882560 233 11 42 2114
0.88507587 -1.8050147 0.38571009 402 16882560 169 12 83 2047
0.97963125 -1.82481 0.37605333 406 16882560 180 13 66 2105
1.0390511 -1.7751564 0.35321704 415 16882560 181 14 83 2087
1.1315604 -1.7801898 0.34243926 530 16882560 242 15 71 2137
0.89981204 -1.8351486 0.3149479 404 16882560 173 16 3 2068
0.97426474 -1.8158021 0.29731309 391 16882560 170 17 84 2082
1.0513693 -1.7984327 0.28047553 389 16882560 172 18 65 2102
1.1268516 -1.7751759 0.26290241 366 16882560 164 19 94 2119
0.89156669 -1.8184127 0.23665455 353 16882560 147 20 44 2039
0.97188795 -1.8120555 0.22025655 370 16882560 158 21 74 2068
1.0645334 -1.8229218 0.20583121 346 16882560 156 22 78 2121
1.1249385 -1.7742832 0.18524152 364 16882560 162 23 136 2109
0.90363079 -1.8439137 0.16442135 353 16882560 150 24 40 2060
0.97125256 -1.8120096 0.14495224 376 16882560 159 25 54 2061
1.0680411 -1.8290751 0.12906444 354 16882560 159 26 114 2122
1.1427816 -1.8047931 0.10997066 332 16882560 152 27 95 2139
0.88807464 -1.8144137 0.087810576 426 16882560 174 28 28 2022
0.99889451 -1.8651428 0.071703561 330 16882560 148 29 26 2117
1.0654533 -1.8285989 0.052203111 320 16882560 143 30 26 2117
1.1108943 -1.7558571 0.031044204 367 16882560 159 31 93 2078
0.90198338 -1.8430749 0.014325546 335 16882560 141 32 51 2052
0.97849369 -1.8286605 -0.0052487236 341 16882560 147 33 73 2074
1.060445 -1.8205146 -0.025152879 333 16882560 148 34 105 2107
1.1363282 -1.798627 -0.045642305 354 16882560 160 35 83 2128
0.90114647 -1.8436462 -0.06094062 352 16882560 148 36 124 2053
0.97452629 -1.8244597 -0.080906816 349 16882560 149 37 54 2070
1.0459449 -1.7973523 -0.10123339 340 16882560 147 38 150 2082
1.1309705 -1.7900774 -0.12316504 382 16882560 172 39 66 2121
0.8902446 -1.8249738 -0.13476108 408 16882560 169 40 83 2035
0.96790248 -1.8140392 -0.15579039 353 16882560 150 41 94 2062
1.0398815 -1.7880813 -0.17660353 386 16882560 166 42 140 2076
1.1342872 -1.7974801 -0.20170029 297 16882560 136 43 67 2135
0.88336504 -1.8124762 -0.20814934 414 16882560 170 44 85 2027
0.96104413 -1.8029276 -0.23017858 344 16882560 146 45 58 2056
1.0569625 -1.819644 -0.25715104 298 16882560 134 46 124 2120
1.1629889 -1.8439611 -0.28786421 284 16882560 137 47 120 2199
0.87662953 -1.802489 -0.28130159 394 16882560 162 48 65 2024
0.97701657 -1.8348203 -0.31189269 328 16882560 145 49 52 2102
1.032196 -1.7791507 -0.32876122 338 16882560 146 50 51 2083
1.1244917 -1.7840265 -0.35789624 158 16882560 73 51 64 2139
0.87289953 -1.798889 -0.35637924 394 16882560 163 52 79 2031
0.94926727 -1.7848847 -0.37990525 384 16882560 163 53 74 2057
1.045542 -1.8034595 -0.4123114 37 16882560 17 54 85 2125
1.118227 -1.7740188 -0.43656668 405 16882560 186 55 62 2142
0.88638455 -1.8292798 -0.44097483 150 16882560 65 56 116 2080
0.92549175 -1.74238 -0.44733182 160 16882560 65 57 51 2023
0.99673277 -1.7200294 -0.47103256 84 16882560 35 58 51 2043
1.0904863 -1.7303441 -0.5061605 428 16882560 190 59 75 2107
0.87472868 -1.8106173 -0.5160346 417 16882560 180 60 29 2076
0.94626433 -1.7850958 -0.53879315 430 16882560 188 61 39 2091
1.0268567 -1.7727977 -0.5680058 385 16882560 174 62 64 2126
1.1405783 -1.8081485 -0.61668932 203 16882560 100 63 43 2225
0.89108175 -1.8498681 0.64090776 378 16981170 175 0 71 2151
0.96364868 -1.8198525 0.61807674 502 16981170 232 1 101 2150
1.0458167 -1.8074623 0.60466814 415 16981170 196 2 54 2174
1.05504 -1.674589 0.55287206 405 16981170 171 3 53 2055
0.88702703 -1.8390691 0.55157286 380 16981170 170 4 59 2115
0.99614477 -1.8832078 0.55283421 403 16981170 195 5 64 2201
1.0421927 -1.8027956 0.51872832 447 16981170 206 6 80 2146
1.054382 -1.677307 0.4735921 408 16981170 169 7 81 2037
0.8779254 -1.8193061 0.46551272 384 16981170 165 8 60 2073
0.96470672 -1.8220812 0.45352221 392 16981170 175 9 72 2111
1.0418266 -1.8044147 0.4374088 518 16981170 235 10 55 2129
1.1016492 -1.7558984 0.41495377 493 16981170 220 11 50 2114
0.88935435 -1.8422507 0.39249349 413 16981170 179 12 73 2083
0.95737469 -1.809913 0.37176579 394 16981170 171 13 49 2081
1.0340511 -1.791742 0.355248 431 16981170 190 14 107 2099
1.1206162 -1.7870994 0.34243926 387 16981170 177 15 70 2137
0.87306714 -1.8085932 0.30946526 405 16981170 167 16 22 2032
0.96310484 -1.8217459 0.29731309 392 16981170 170 17 87 2082
1.0403146 -1.8048499 0.28047553 382 16981170 169 18 58 2102
1.1222576 -1.7921485 0.26439124 359 16981170 163 19 77 2131
0.89075506 -1.8453166 0.2394401 360 16981170 153 20 54 2063
0.971901 -1.8390832 0.22281271 357 16981170 156 21 81 2092
1.0414093 -1.8087187 0.20350215 360 16981170 159 22 76 2097
1.1203692 -1.7912867 0.18629552 366 16981170 165 23 134 2121
0.88710183 -1.8386501 0.16346355 341 16981170 143 24 52 2048
0.96011603 -1.817935 0.14495224 368 16981170 156 25 68 2061
1.0508217 -1.8252136 0.12833457 350 16981170 156 26 113 2110
1.1062906 -1.7711142 0.10750287 343 16981170 150 27 112 2091
0.88212919 -1.8306289 0.088331714 412 16981170 170 28 28 2034
0.96504271 -1.8288091 0.070077777 319 16981170 136 29 21 2069
1.0422617 -1.8142978 0.051611297 305 16981170 133 30 49 2093
1.1064526 -1.7728193 0.03122348 387 16981170 169 31 68 2090
0.89586604 -1.8593851 0.014409322 346 16981170 147 32 54 2064
0.97844774 -1.8558599 -0.0053094607 290 16981170 128 33 64 2098
1.0432787 -1.8165817 -0.025009625 329 16981170 145 34 86 2095
1.1189252 -1.7953839 -0.045384929 378 16981170 169 35 58 2116
0.87941486 -1.8275238 -0.060228206 340 16981170 140 36 124 2029
0.94656003 -1.7985718 -0.079499744 337 16981170 140 37 66 2034
1.0348969 -1.8037362 -0.10123339 363 16981170 157 38 158 2082
1.1199656 -1.7969832 -0.12316504 363 16981170 163 39 80 2121
0.88421351 -1.8411955 -0.13555574 408 16981170 171 40 74 2047
0.94561768 -1.7987614 -0.15397713 351 16981170 146 41 99 2038
1.0348377 -1.8048005 -0.17762434 393 16981170 171 42 153 2088
1.12955 -1.814548 -0.20283397 234 16981170 108 43 65 2147
0.8773908 -1.828624 -0.2093816 402 16981170 167 44 70 2039
0.95550805 -1.8193477 -0.23152205 349 16981170 149 45 79 2068
1.028019 -1.7950859 -0.25278434 282 16981170 123 46 106 2084
1.1013758 -1.7702521 -0.27529716 370 16981170 164 47 107 2103
0.8706848 -1.8185523 -0.28296936 394 16981170 164 48 61 2036
0.97125328 -1.8512894 -0.31367326 258 16981170 116 49 61 2114
1.0330267 -1.8060223 -0.33254912 285 16981170 126 50 49 2107
1.082289 -1.7406571 -0.34785703 36 16981170 16 51 67 2079
0.8669374 -1.8148711 -0.35848483 418 16981170 175 52 74 2043
0.9437713 -1.8011218 -0.3821215 410 16981170 176 53 103 2069
0.9818818 -1.7178586 -0.39135632 49 16981170 20 54 61 2017
1.1011173 -1.7708699 -0.43412092 392 16981170 178 55 65 2130
0.87009466 -1.8240993 -0.43843073 394 16981170 168 56 107 2068
0.9147833 -1.748026 -0.44733182 177 16981170 73 57 58 2023
0.98036778 -1.7159742 -0.46826589 87 16981170 36 58 56 2031
1.0982988 -1.7666808 -0.51480871 440 16981170 202 59 91 2143
0.85361856 -1.7949567 -0.51006883 423 16981170 178 60 26 2052
0.92455834 -1.7703133 -0.53260905 398 16981170 170 61 35 2067
1.0102252 -1.7690232 -0.56479973 373 16981170 167 62 75 2114
1.0990049 -1.7661661 -0.60005951 409 16981170 191 63 51 2165
0.86499113 -1.8242497 0.63018125 380 17078550 170 0 57 2115
0.9524641 -1.825731 0.61807674 419 17078550 194 1 84 2150
1.0289953 -1.8038334 0.60133058 327 17078550 153 2 63 2162
1.0630472 -1.7104799 0.5625574 476 17078550 208 3 55 2091
0.87075746 -1.8340123 0.54844344 417 17078550 185 4 85 2103
0.98457092 -1.8892846 0.55283421 436 17078550 211 5 55 2201
1.0253456 -1.79904 0.51582766 435 17078550 198 6 107 2134
1.0563716 -1.7035829 0.47917196 425 17078550 181 7 100 2061
0.87176311 -1.8352209 0.46820739 402 17078550 175 8 63 2085
0.94266802 -1.8071841 0.44836611 406 17078550 177 9 79 2087
1.0365449 -1.8209795 0.4398742 408 17078550 187 10 67 2141
1.0908544 -1.7626249 0.41495377 434 17078550 194 11 50 2114
0.86285889 -1.81574 0.38571009 426 17078550 178 12 56 2047
0.95716423 -1.8366942 0.37605333 387 17078550 171 13 54 2105
1.0405836 -1.8288913 0.36134085 410 17078550 187 14 110 2135
1.1033987 -1.7838681 0.34051633 411 17078550 186 15 66 2125
0.87722421 -1.8460525 0.3149479 397 17078550 170 16 22 2068
0.94093573 -1.8065535 0.29388586 364 17078550 154 17 56 2058
1.0292206 -1.8111992 0.28047553 370 17078550 164 18 74 2102
1.1362704 -1.8395227 0.27034655 364 17078550 173 19 77 2179
0.85895419 -1.807686 0.23386902 346 17078550 140 20 43 2015
0.95508826 -1.8344289 0.22153464 353 17078550 153 21 69 2080
1.0302916 -1.8150746 0.20350215 337 17078550 148 22 60 2097
1.1030806 -1.7879543 0.18524152 354 17078550 157 23 134 2109
0.88093507 -1.8548638 0.16442135 344 17078550 146 24 54 2060
0.95446849 -1.8344109 0.14579621 368 17078550 158 25 72 2073
1.0277778 -1.8107933 0.12687485 368 17078550 160 26 116 2086
1.1142616 -1.8084779 0.10935371 333 17078550 151 27 97 2127
0.86574209 -1.8251752 0.087810576 397 17078550 162 28 30 2022
0.95933521 -1.8453372 0.070484228 330 17078550 143 29 42 2081
1.0311098 -1.8206588 0.051611297 328 17078550 143 30 56 2093
1.1018441 -1.7897925 0.031402752 350 17078550 155 31 72 2102
0.87929809 -1.8540049 0.014325546 310 17078550 131 32 64 2052
0.93385464 -1.7979336 -0.0051272484 306 17078550 125 33 53 2026
1.0380245 -1.8333908 -0.025152879 315 17078550 140 34 84 2107
1.1078879 -1.8022157 -0.045384929 343 17078550 154 35 80 2116
0.86818486 -1.8328854 -0.060228206 346 17078550 142 36 118 2029
0.94654477 -1.8256361 -0.080437794 335 17078550 142 37 78 2058
1.017909 -1.7996198 -0.10064992 374 17078550 160 38 132 2070
1.1089183 -1.8038214 -0.12316504 333 17078550 150 39 59 2121
0.86778229 -1.8357611 -0.13476108 392 17078550 162 40 77 2035
0.94006574 -1.8151551 -0.15488377 356 17078550 150 41 71 2050
1.0237441 -1.8111162 -0.17762434 366 17078550 159 42 144 2088
1.1183949 -1.8214446 -0.20283397 162 17078550 75 43 65 2147
0.86105663 -1.82318 -0.20814934 373 17078550 153 44 85 2027
0.93884706 -1.8145853 -0.23017858 355 17078550 150 45 30 2056
1.0345531 -1.8324775 -0.25715104 221 17078550 99 46 90 2120
1.0842706 -1.7668369 -0.27372628 347 17078550 152 47 135 2091
0.85444421 -1.8131109 -0.28130159 401 17078550 164 48 48 2024
0.94897836 -1.8361294 -0.31011218 216 17078550 94 49 55 2090
1.0161055 -1.8020049 -0.33065516 280 17078550 123 50 48 2095
1.0221065 -1.6665833 -0.33179438 38 17078550 15 51 60 1983
0.84070545 -1.7880833 -0.35216796 421 17078550 170 52 83 2007
0.92729253 -1.7963992 -0.37990525 387 17078550 164 53 83 2057
0.95398623 -1.693083 -0.38437125 63 17078550 25 54 75 1981
1.0840886 -1.7675782 -0.43167514 397 17078550 178 55 66 2118
0.84891814 -1.8081728 -0.43334258 409 17078550 171 56 99 2044
0.9040404 -1.7536061 -0.44733182 208 17078550 85 57 60 2023
0.99847078 -1.7728275 -0.48209944 115 17078550 50 58 47 2091
1.0813487 -1.7634562 -0.511926 329 17078550 150 59 85 2131
0.84258884 -1.8001605 -0.51006883 433 17078550 182 60 16 2052
0.9189828 -1.7862631 -0.5357011 412 17078550 178 61 34 2079
0.98800611 -1.755035 -0.55838764 393 17078550 172 62 64 2090
1.0881472 -1.7728763 -0.60005951 408 17078550 191 63 56 2165
0.84893739 -1.8191427 0.62660581 373 17175060 165 0 78 2103
0.94124371 -1.8315408 0.61807674 416 17175060 192 1 95 2150
1.0348573 -1.8402539 0.61134344 351 17175060 170 2 58 2198
1.0585722 -1.7268239 0.56578588 498 17175060 220 3 47 2103
0.85458338 -1.8288251 0.54531389 413 17175060 181 4 71 2091
0.95174134 -1.8539572 0.54077786 385 17175060 178 5 55 2153
1.0313983 -1.8357524 0.52452952 420 17175060 198 6 113 2170
1.0519885 -1.7199892 0.48196191 449 17175060 193 7 83 2073
0.8555336 -1.8299426 0.46551272 403 17175060 173 8 64 2073
0.93156165 -1.8129342 0.44836611 380 17175060 166 9 85 2087
1.0196052 -1.8170637 0.4374088 420 17175060 191 10 61 2129
1.0984106 -1.7994148 0.42202014 413 17175060 191 11 47 2150
0.86168724 -1.8423505 0.39023232 396 17175060 170 12 61 2071
0.94048434 -1.8320291 0.37390959 383 17175060 168 13 49 2093
1.0235567 -1.8249267 0.35930991 406 17175060 183 14 91 2123
1.0924323 -1.7906047 0.34051633 404 17175060 183 15 61 2125
0.85583168 -1.8299141 0.31129283 396 17175060 165 16 20 2044
0.94067669 -1.8334274 0.29731309 371 17175060 161 17 97 2082
1.0064636 -1.7967288 0.27727315 371 17175060 160 18 76 2078
1.1001807 -1.8057854 0.26439124 366 17175060 166 19 101 2131
0.82764941 -1.7697362 0.22829795 331 17175060 128 20 68 1967
0.93292415 -1.8190209 0.21897845 363 17175060 154 21 82 2056
1.0191351 -1.8213621 0.20350215 354 17175060 156 22 85 2097
1.0796614 -1.7742656 0.1831335 347 17175060 151 23 127 2085
0.86447197 -1.8493978 0.16346355 332 17175060 139 24 37 2048
0.93773484 -1.8295802 0.14495224 347 17175060 148 25 75 2061
1.0107992 -1.8066126 0.12614498 347 17175060 149 26 128 2074
1.084473 -1.7845567 0.10750287 368 17175060 161 27 91 2091
0.8494553 -1.8195896 0.087289445 363 17175060 147 28 16 2010
0.93159467 -1.8191644 0.069264889 309 17175060 129 29 34 2045
1.0316142 -1.8479005 0.052203111 314 17175060 141 30 51 2117
1.0908414 -1.7965196 0.031402752 364 17175060 161 31 81 2102
0.85775465 -1.8376182 0.014157997 329 17175060 135 32 48 2028
0.93373674 -1.8249958 -0.005187986 328 17175060 138 33 61 2050
1.0267556 -1.8397255 -0.025152879 314 17175060 139 34 106 2107
1.0781486 -1.778203 -0.044612784 352 17175060 152 35 81 2080
0.86705828 -1.859921 -0.06094062 343 17175060 145 36 114 2053
0.9244175 -1.8100522 -0.079499744 336 17175060 139 37 43 2034
1.0126843 -1.8163002 -0.10123339 373 17175060 162 38 146 2082
1.0791959 -1.7798603 -0.12107455 368 17175060 160 39 70 2085
0.84640074 -1.8193386 -0.13317177 389 17175060 157 40 81 2011
0.93434793 -1.8315479 -0.15579039 345 17175060 147 41 79 2062
1.0126121 -1.8173636 -0.17762434 377 17175060 164 42 138 2088
1.094821 -1.8078356 -0.20056662 332 17175060 149 43 55 2123
0.85488474 -1.8392533 -0.2093816 418 17175060 174 44 74 2039
0.93310994 -1.8309363 -0.23152205 344 17175060 147 45 55 2068
1.0232898 -1.8387909 -0.25715104 233 17175060 105 46 114 2120
1.0795692 -1.7836343 -0.27529716 295 17175060 130 47 125 2103
0.84330308 -1.8183196 -0.28130159 389 17175060 160 48 63 2024
0.93231028 -1.831342 -0.30833161 357 17175060 154 49 33 2078
0.99927282 -1.7978486 -0.32876122 332 17175060 144 50 54 2083
1.0241078 -1.6930696 -0.33581007 50 17175060 20 51 65 2007
0.82971811 -1.7932081 -0.35216796 439 17175060 177 52 86 2007
0.91625255 -1.8020551 -0.37990525 407 17175060 172 53 70 2057
1.0236007 -1.8429816 -0.41696814 52 17175060 24 54 73 2149
1.0853838 -1.7943012 -0.43656668 229 17175060 105 55 69 2142
0.83780742 -1.8133476 -0.43334258 385 17175060 161 56 96 2044
0.87206894 -1.7173814 -0.43671793 264 17175060 103 57 61 1975
1.0045768 -1.8095478 -0.49039957 345 17175060 156 58 62 2127
1.0765362 -1.7800256 -0.51480871 102 17175060 47 59 85 2143
0.83639014 -1.8158541 -0.51305169 433 17175060 184 60 20 2064
0.90800518 -1.7918683 -0.5357011 420 17175060 181 61 35 2079
0.97721881 -1.7610643 -0.55838764 395 17175060 173 62 66 2090
1.0832193 -1.7893829 -0.60338545 395 17175060 187 63 47 2177
0.83775938 -1.8243175 0.62660581 378 17273500 167 0 48 2103
0.92479724 -1.8270271 0.614627 432 17273500 198 1 109 2138
1.0235462 -1.8465691 0.61134344 388 17273500 188 2 69 2198
1.0539364 -1.7431769 0.56901431 531 17273500 238 3 61 2115
0.84818572 -1.8445597 0.54844344 421 17273500 186 4 42 2103
0.92986548 -1.839031 0.53474969 413 17273500 187 5 53 2129
1.0088326 -1.8216735 0.51872832 425 17273500 196 6 100 2146
1.0474434 -1.7364053 0.48475182 530 17273500 231 7 68 2085
0.85895127 -1.8670272 0.47359687 380 17273500 169 8 89 2109
0.92042011 -1.818616 0.44836611 391 17273500 170 9 89 2087
1.0141207 -1.8335624 0.4398742 455 17273500 208 10 51 2141
1.08128 -1.7960399 0.41966468 381 17273500 174 11 49 2138
0.83065736 -1.8047806 0.38118783 399 17273500 163 12 57 2023
0.92922556 -1.8377653 0.37390959 392 17273500 172 13 49 2093
1.0008957 -1.8104719 0.355248 393 17273500 173 14 103 2099
1.0814247 -1.7972741 0.34051633 407 17273500 184 15 64 2125
0.82971209 -1.8028096 0.30581015 369 17273500 149 16 14 2008
0.92940927 -1.8391649 0.29731309 365 17273500 158 17 73 2082
0.99542022 -1.8028706 0.27727315 367 17273500 159 18 84 2078
1.0768144 -1.7920891 0.26141357 343 17273500 152 19 90 2107
0.65732318 -1.4283063 0.18372935 281 17273500 70 20 54 1583
0.92712516 -1.8353611 0.22025655 345 17273500 148 21 69 2068
1.0137081 -1.8380395 0.20466669 344 17273500 153 22 71 2109
1.0810566 -1.8013562 0.18524152 370 17273500 165 23 136 2109
0.8481093 -1.8438001 0.16250575 310 17273500 128 24 16 2036
0.93188554 -1.8459855 0.14579621 360 17273500 155 25 58 2073
1.0228317 -1.8547353 0.12906444 336 17273500 151 26 139 2122
1.0796635 -1.8014568 0.10811982 345 17273500 153 27 112 2103
0.83327001 -1.8138735 0.086768314 377 17273500 150 28 27 1998
0.92581594 -1.8355545 0.06967134 318 17273500 134 29 33 2057
1.0086899 -1.8331751 0.051611297 320 17273500 140 30 42 2093
1.0859621 -1.8134732 0.031582024 366 17273500 164 31 78 2114
0.85648036 -1.8646555 0.014325546 309 17273500 130 32 65 2052
0.92792124 -1.8414068 -0.0052183545 354 17273500 150 33 37 2062
1.0038813 -1.824964 -0.024866374 318 17273500 138 34 83 2083
1.0795314 -1.8053786 -0.045127545 364 17273500 161 35 101 2104
0.84562713 -1.8434013 -0.060228206 315 17273500 130 36 107 2029
0.91868192 -1.8264021 -0.079968765 367 17273500 154 37 41 2046
1.0015206 -1.8224797 -0.10123339 367 17273500 159 38 129 2082
1.0682545 -1.7864486 -0.12107455 370 17273500 161 39 74 2085
0.83522159 -1.8244977 -0.13317177 379 17273500 153 40 73 2011
0.91234815 -1.8158624 -0.15397713 371 17273500 154 41 69 2038
0.98993111 -1.8025825 -0.17558269 375 17273500 160 42 146 2064
1.0530802 -1.7632376 -0.19489823 420 17273500 179 43 63 2063
0.83861858 -1.8336091 -0.20814934 424 17273500 174 44 70 2027
0.92185795 -1.8366272 -0.23152205 327 17273500 140 45 76 2068
0.98334676 -1.7928171 -0.24987319 399 17273500 169 46 103 2060
1.0747023 -1.80044 -0.27686805 225 17273500 101 47 114 2115
0.8271966 -1.8126487 -0.27963376 394 17273500 160 48 74 2012
0.92105579 -1.837028 -0.30833161 364 17273500 157 49 41 2078
0.99391562 -1.8143384 -0.33065516 297 17273500 131 50 62 2095
1.0743098 -1.8009251 -0.3558884 41 17273500 19 51 68 2127
0.8186996 -1.7982655 -0.35216796 412 17273500 166 52 93 2007
0.91045862 -1.8181884 -0.3821215 389 17273500 167 53 70 2069
1.000968 -1.8285753 -0.4123114 247 17273500 112 54 69 2125
1.0683348 -1.7908379 -0.43412092 310 17273500 140 55 55 2130
0.81695867 -1.7971023 -0.42825437 388 17273500 158 56 89 2020
0.87721843 -1.754101 -0.44467837 315 17273500 128 57 58 2011
0.99345475 -1.8156776 -0.49039957 410 17273500 186 58 71 2127
1.0178585 -1.7065635 -0.49174684 66 17273500 28 59 67 2047
0.82523257 -1.8209518 -0.51305169 418 17273500 178 60 25 2064
0.8969934 -1.797406 -0.5357011 394 17273500 170 61 46 2079
0.96084601 -1.7568815 -0.55518156 399 17273500 172 62 62 2078
1.0722195 -1.7959957 -0.60338545 372 17273500 177 63 59 2177
0.84069902 -1.8607403 0.63733232 375 17371640 172 0 66 2139
0.918697 -1.8429534 0.61807674 397 17371640 184 1 83 2150
1.0066705 -1.8426991 0.60800582 484 17371640 231 2 57 2186
1.0550587 -1.7694649 0.57547122 488 17371640 223 3 56 2139
0.83207655 -1.8391745 0.54531389 380 17371640 166 4 62 2091
0.90303159 -1.8135091 0.52570742 390 17371640 171 5 34 2093
0.99763596 -1.8278294 0.51872832 342 17371640 158 6 106 2146
1.0546703 -1.772891 0.49312162 501 17371640 226 7 73 2121
0.8137247 -1.7976915 0.45473382 385 17371640 158 8 59 2025
0.9040159 -1.8137401 0.44578803 395 17371640 170 9 66 2075
1.002851 -1.8397504 0.4398742 423 17371640 194 10 63 2141
1.0822533 -1.8228763 0.42437562 537 17371640 251 11 53 2162
0.82442933 -1.8205792 0.38344896 387 17371640 160 12 58 2035
0.90740591 -1.8222939 0.36962202 382 17371640 163 13 55 2069
0.98976803 -1.8165792 0.355248 365 17371640 161 14 99 2099
1.076421 -1.8140625 0.34243926 422 17371640 192 15 56 2137
0.81863463 -1.8078667 0.30581015 384 17371640 155 16 1 2008
0.91281527 -1.8342 0.29559949 389 17371640 167 17 78 2070
0.9729706 -1.788052 0.27407077 355 17371640 150 18 72 2054
1.0900782 -1.8396384 0.26736891 373 17371640 173 19 88 2155
0.56496918 -1.2477317 0.1600523 331 17371640 63 20 32 1379
0.89458859 -1.7982837 0.2151442 346 17371640 141 21 61 2020
1.0024111 -1.8442249 0.20466669 358 17371640 160 22 59 2109
1.0699834 -1.8079555 0.18524152 375 17371640 167 23 120 2109
0.83184814 -1.8380717 0.16154797 349 17371640 143 24 39 2024
0.90455502 -1.8195124 0.14326429 380 17371640 157 25 49 2037
0.99427289 -1.8294046 0.12687485 343 17371640 149 26 127 2086
1.0685897 -1.8080475 0.10811982 346 17371640 153 27 104 2103
0.8221246 -1.8189522 0.086768314 401 17371640 160 28 19 1998
0.90920055 -1.8304595 0.069264889 310 17371640 129 29 37 2045
1.0145786 -1.8709666 0.052499022 338 17371640 153 30 57 2129
1.056511 -1.7891073 0.031044204 363 17371640 157 31 84 2078
0.84008133 -1.858941 0.014241773 335 17371640 140 32 59 2040
0.90060234 -1.8148183 -0.0051272484 335 17371640 138 33 63 2026
1.004102 -1.8521868 -0.025152879 307 17371640 136 34 86 2107
1.0684335 -1.8119684 -0.045127545 353 17371640 156 35 76 2104
0.8441689 -1.8704211 -0.06094062 354 17371640 149 36 109 2053
0.89681339 -1.8105149 -0.079030715 365 17371640 149 37 33 2022
0.98461145 -1.8180513 -0.10064992 357 17371640 153 38 135 2070
1.051188 -1.7826505 -0.12037773 379 17371640 163 39 75 2073
0.82401091 -1.8295882 -0.13317177 395 17371640 160 40 61 2011
0.90118909 -1.8214263 -0.15397713 328 17371640 136 41 101 2038
0.97316098 -1.7981074 -0.17456186 404 17371640 170 42 135 2052
1.0422413 -1.769666 -0.19489823 381 17371640 162 43 77 2063
0.8175559 -1.8169494 -0.20568481 398 17371640 160 44 52 2003
0.90528744 -1.8315591 -0.23017858 358 17371640 152 45 61 2056
0.9779917 -1.8092955 -0.25132874 403 17371640 173 46 112 2072
1.0515652 -1.7864954 -0.27372628 314 17371640 137 47 140 2091
0.81605881 -1.8176901 -0.27963376 400 17371640 162 48 66 2012
0.89925933 -1.8213633 -0.30477053 351 17371640 148 49 41 2054
0.97150594 -1.7995486 -0.32686722 358 17371640 154 50 76 2071
1.0932319 -1.8584698 -0.36592755 73 17371640 35 51 57 2187
0.80282122 -1.7924732 -0.35006231 407 17371640 162 52 82 1995
0.89928532 -1.8237407 -0.3821215 382 17371640 164 53 79 2069
0.98414016 -1.8243222 -0.4099831 192 17371640 86 54 88 2113
1.039456 -1.7669814 -0.42678365 398 17371640 175 55 71 2094
0.80591643 -1.8020812 -0.42825437 380 17371640 155 56 84 2020
0.84575808 -1.7174547 -0.43406445 467 17371640 180 57 27 1963
0.96566969 -1.7909058 -0.48209944 388 17371640 169 58 56 2091
1.0191789 -1.7328581 -0.49751231 101 17371640 43 59 54 2071
0.81404388 -1.8259811 -0.51305169 431 17371640 184 60 25 2064
0.88594782 -1.802876 -0.5357011 391 17371640 169 61 37 2079
0.95004791 -1.7627441 -0.55518156 379 17371640 163 62 48 2078
1.0494804 -1.7826692 -0.59673357 377 17371640 175 63 51 2153
0.81530911 -1.8344606 0.62660581 381 17469120 169 0 70 2103
0.88204962 -1.7969682 0.60082811 403 17469120 176 1 66 2090
0.99534494 -1.8488412 0.60800582 382 17469120 183 2 58 2186
1.0441816 -1.7759053 0.57547122 447 17469120 204 3 46 2139
0.81606555 -1.8336614 0.54218441 396 17469120 171 4 57 2079
0.90722775 -1.8503033 0.53474969 415 17469120 188 5 42 2129
1.0250121 -1.9057004 0.53903264 168 17469120 84 6 106 2230
1.0437722 -1.7793291 0.49312162 409 17469120 184 7 79 2121
0.81219214 -1.8240153 0.46012324 364 17469120 153 8 44 2049
0.89803362 -1.829774 0.44836611 377 17469120 164 9 71 2087
0.98042876 -1.8251776 0.43494335 409 17469120 184 10 67 2117
1.0532137 -1.7990193 0.41730922 456 17469120 206 11 59 2126
0.80365193 -1.8040731 0.37892672 404 17469120 164 12 58 2011
0.89620745 -1.8278273 0.36962202 386 17469120 165 13 38 2069
0.97860307 -1.8226181 0.355248 379 17469120 167 14 88 2099
1.0413424 -1.779739 0.33474758 395 17469120 172 15 55 2089
0.80270046 -1.8020219 0.30398259 387 17469120 154 16 4 1996
0.88586462 -1.8077705 0.29045865 365 17469120 151 17 75 2034
0.96760112 -1.8044692 0.27567196 380 17469120 162 18 55 2066
1.0487344 -1.7948873 0.25992474 345 17469120 152 19 76 2095
0.55245298 -1.2402871 0.15865953 344 17469120 64 20 30 1367
0.88878644 -1.8144543 0.21642229 346 17469120 143 21 62 2032
0.99107623 -1.8503408 0.20466669 355 17469120 158 22 77 2109
1.0528449 -1.8041624 0.18418752 376 17469120 165 23 128 2097
0.83028418 -1.8649966 0.16346355 349 17469120 146 24 24 2048
0.89337367 -1.8250284 0.14326429 344 17469120 143 25 90 2037
0.98302919 -1.8354709 0.12687485 340 17469120 148 26 128 2086
1.0514414 -1.804216 0.10750287 351 17469120 154 27 86 2091
0.81094819 -1.8239625 0.086768314 414 17469120 165 28 29 1998
0.89268279 -1.8252301 0.068858445 296 17469120 122 29 35 2033
0.98611808 -1.8454152 0.051611297 286 17469120 125 30 49 2093
1.0455134 -1.7955563 0.031044204 357 17469120 154 31 91 2078
0.8189103 -1.8421303 0.014074221 314 17469120 127 32 51 2016
0.89471811 -1.8310919 -0.0051576174 336 17469120 139 33 47 2038
0.97575682 -1.826562 -0.02472312 327 17469120 140 34 93 2071
1.0512651 -1.8081185 -0.044870161 342 17469120 150 35 77 2092
0.81320798 -1.831714 -0.0595158 336 17469120 135 36 109 2005
0.89094371 -1.826761 -0.079499744 319 17469120 132 37 60 2034
0.97908062 -1.8346326 -0.10123339 363 17469120 157 38 114 2082
1.0522733 -1.8097796 -0.12177138 368 17469120 162 39 81 2097
0.81276929 -1.8346097 -0.13317177 394 17469120 160 40 59 2011
0.88475561 -1.8161644 -0.15307048 351 17469120 144 41 88 2026
0.96773607 -1.8145947 -0.17558269 366 17469120 156 42 126 2064
1.0433615 -1.7966892 -0.19716558 391 17469120 170 43 80 2087
0.80639195 -1.8219316 -0.20568481 395 17469120 159 44 78 2003
0.89403218 -1.8370793 -0.23017858 328 17469120 138 45 55 2056
0.96127206 -1.8047494 -0.24987319 368 17469120 156 46 106 2060
1.0465554 -1.8032035 -0.27529716 297 17469120 131 47 133 2103
0.80008972 -1.8117923 -0.27796596 395 17469120 158 48 47 2000
0.89844328 -1.8481925 -0.30833161 368 17469120 159 49 59 2078
0.95488065 -1.7950143 -0.32497326 306 17469120 130 50 64 2059
1.0461929 -1.8037388 -0.35388055 261 17469120 117 51 66 2115
0.80133319 -1.8189878 -0.35427359 413 17469120 169 52 58 2019
0.87262577 -1.7973963 -0.37547269 397 17469120 164 53 71 2033
0.9563517 -1.7991425 -0.40299803 171 17469120 74 54 77 2077
1.0168054 -1.7530016 -0.42189217 189 17469120 81 55 64 2070
0.79012215 -1.7962579 -0.42571029 401 17469120 162 56 101 2008
0.80967569 -1.6699594 -0.42079708 422 17469120 153 57 17 1903
0.94370532 -1.7761742 -0.47656602 407 17469120 174 58 64 2067
1.0026834 -1.7290022 -0.49462953 89 17469120 38 59 65 2059
0.78882176 -1.7990066 -0.50410312 448 17469120 184 60 6 2028
0.87991869 -1.8187156 -0.53879315 428 17469120 187 61 37 2091
0.9500615 -1.7889661 -0.56159365 403 17469120 178 62 47 2102
1.0443108 -1.7990468 -0.60005951 362 17469120 170 63 67 2165
0.79944974 -1.8289326 0.6230303 391 17567110 171 0 73 2091
0.88100898 -1.8230432 0.60772753 419 17567110 187 1 99 2114
0.98398191 -1.8549137 0.60800582 366 17567110 175 2 67 2186
1.0506554 -1.8122751 0.58515662 424 17567110 201 3 58 2175
0.80015379 -1.8280216 0.53905493 415 17567110 177 4 47 2067
0.87565953 -1.8139938 0.52269334 383 17567110 166 5 48 2081
1.0132997 -1.9119539 0.53903264 216 17567110 107 6 99 2230
1.0386783 -1.7958031 0.4959116 491 17567110 223 7 89 2133
0.81974888 -1.87181 0.47090214 359 17567110 158 8 63 2097
0.88678944 -1.8352498 0.44836611 389 17567110 170 9 66 2087
0.95822352 -1.8103995 0.43001249 406 17567110 178 10 57 2093
1.0480375 -1.8156384 0.41966468 408 17567110 186 11 52 2138
0.80202597 -1.8305591 0.38344896 392 17567110 163 12 63 2035
0.87984252 -1.8226591 0.36747828 382 17567110 162 13 35 2057
0.96187061 -1.8181343 0.35321704 389 17567110 169 14 116 2087
1.0304025 -1.7860951 0.33474758 362 17567110 158 15 61 2089
0.73927623 -1.687418 0.28387955 355 17567110 123 16 11 1864
0.87991643 -1.8238691 0.29217222 361 17567110 151 17 57 2046
0.9565109 -1.8103724 0.27567196 361 17567110 154 18 85 2066
1.0377015 -1.8012884 0.25992474 371 17567110 163 19 101 2095
0.5591805 -1.2764052 0.16283783 379 17567110 75 20 3 1403
0.88800216 -1.8413681 0.21897845 362 17567110 153 21 60 2056
0.96298087 -1.8246992 0.2011731 393 17567110 169 22 73 2073
1.0298321 -1.7898666 0.18207951 348 17567110 150 23 137 2073
0.80443174 -1.837184 0.16059017 359 17567110 145 24 37 2012
0.88735545 -1.8412589 0.14410825 341 17567110 143 25 56 2049
0.95497805 -1.8096882 0.12468525 350 17567110 147 26 114 2050
1.0343807 -1.8002425 0.10688592 332 17567110 144 27 89 2079
0.80454451 -1.8398882 0.087289445 367 17567110 148 28 30 2010
0.88666958 -1.8414789 0.069264889 308 17567110 129 29 35 2045
0.97477621 -1.8514311 0.051611297 318 17567110 139 30 51 2093
1.0285025 -1.7915318 0.03086493 351 17567110 150 31 59 2066
0.81239891 -1.8581152 0.014157997 325 17567110 133 32 56 2028
0.87826389 -1.8257334 -0.0051272484 346 17567110 142 33 42 2026
0.97570837 -1.8537509 -0.025009625 318 17567110 140 34 94 2095
1.0341846 -1.8041266 -0.044612784 354 17567110 153 35 76 2080
0.81635267 -1.8696469 -0.060584415 297 17567110 124 36 97 2041
0.87452805 -1.8213838 -0.079030715 348 17567110 142 37 49 2022
0.96222699 -1.8299972 -0.10064992 363 17567110 155 38 134 2070
1.0411488 -1.8162022 -0.12177138 371 17567110 163 39 81 2097
0.79193163 -1.8176082 -0.13158244 413 17567110 163 40 61 1987
0.86842096 -1.81077 -0.15216386 347 17567110 141 41 91 2014
0.95102215 -1.8099141 -0.17456186 349 17567110 147 42 137 2052
1.0323176 -1.8030573 -0.19716558 380 17567110 166 43 74 2087
0.79519761 -1.8268453 -0.20568481 402 17567110 161 44 56 2003
0.88274324 -1.8425304 -0.23017858 362 17567110 153 45 60 2056
0.95018023 -1.8106136 -0.24987319 361 17567110 153 46 107 2060
1.0354716 -1.8095911 -0.27529716 282 17567110 125 47 122 2103
0.78895772 -1.8166674 -0.27796596 399 17567110 160 48 61 2000
0.87171787 -1.8215568 -0.30298996 354 17567110 148 49 58 2042
0.93284708 -1.7798488 -0.32118532 369 17567110 153 50 60 2035
1.0351057 -1.8101243 -0.35388055 282 17567110 126 51 67 2115
0.78076434 -1.8021901 -0.35006231 421 17567110 167 52 50 1995
0.86158073 -1.8027167 -0.37547269 398 17567110 165 53 63 2033
0.9835248 -1.8779751 -0.41929644 163 17567110 76 54 84 2161
1.011862 -1.7694057 -0.42433789 49 17567110 21 55 60 2082
0.77908564 -1.8010721 -0.42571029 405 17567110 163 56 71 2008
0.86998737 -1.8227587 -0.45794573 310 17567110 133 57 56 2071
0.94361979 -1.8026212 -0.48209944 404 17567110 177 58 58 2091
1.0383098 -1.8160216 -0.51769149 294 17567110 137 59 78 2155
0.77776843 -1.8038129 -0.50410312 431 17567110 177 60 5 2028
0.84880024 -1.7822076 -0.52642488 429 17567110 179 61 44 2043
0.92834479 -1.7742699 -0.55518156 392 17567110 169 62 68 2078
1.0275254 -1.7954136 -0.59673357 390 17567110 181 63 65 2153
0.79273605 -1.8443277 0.62660581 374 17664130 166 0 68 2103
0.864869 -1.8180357 0.60427779 411 17664130 182 1 81 2102
0.9672429 -1.8507009 0.60466814 366 17664130 173 2 51 2174
1.0337803 -1.8086535 0.58192813 403 17664130 188 3 55 2163
0.79350221 -1.8435377 0.54218441 408 17664130 176 4 43 2079
