# .PCD v0.7 - Point Cloud Data file format
VERSION 0.7
FIELDS x y z intensity t reflectivity ring noise range
SIZE 4 4 4 4 4 2 1 2 4
TYPE F F F F U U U U U
COUNT 1 1 1 1 1 1 1 1 1
WIDTH 782
HEIGHT 1
VIEWPOINT 0 0 0 1 0 0 0
POINTS 782
DATA ascii
15.283776 -2.2120249 -3.5014827 197 1956350 4948 57 76 15835
14.004766 -1.5014368 -3.3373454 168 1956350 3511 58 49 14475
19.15711 -1.3366557 -4.7524314 459 1956350 17975 59 81 19783
18.416119 -3.3883801 -4.8053856 271 1956350 10142 60 72 19332
18.108574 -2.636349 -4.8800592 69 1956350 2462 61 40 18939
18.662626 -2.0044255 -5.203959 210 1956350 7982 62 69 19478
18.925985 -1.3125633 -5.4725981 234 1956350 9106 63 49 19745
1.6810727 -0.31128961 0.53364289 324 2054340 104 0 1 1791
1.7533081 -0.25605541 0.53183347 312 2054340 107 1 37 1850
1.7667526 -0.19058342 0.51455206 234 2054340 80 2 32 1850
11.197949 -0.78280365 3.135632 462 2054340 6282 3 67 11655
1.6774957 -0.30974916 0.46081764 257 2054340 80 4 39 1767
1.7171936 -0.2515465 0.45035517 272 2054340 87 5 1 1793
1.7577008 -0.19028978 0.44041145 257 2054340 85 6 75 1822
11.068563 -0.78501898 2.652534 425 2054340 5534 7 100 11409
1.722056 -0.31763533 0.40353414 186 2054340 60 8 45 1797
1.7501343 -0.25568551 0.38907093 152 2054340 50 9 29 1811
1.7094288 -0.1859996 0.36098039 119 2054340 37 10 70 1757
10.893281 -0.78214198 2.1862607 397 2054340 4930 11 63 11138
1.8379619 -0.33871579 0.3585766 154 2054340 56 12 68 1903
1.8389858 -0.26938745 0.33746544 211 2054340 75 13 40 1889
10.627569 -1.1584296 1.8358146 342 2054340 4026 14 208 10847
10.716563 -0.77208567 1.7442449 379 2054340 4492 15 97 10885
1.6484518 -0.30382094 0.25829384 339 2054340 98 16 1 1696
1.6157913 -0.23706686 0.23562278 753 2054340 205 17 1 1650
1.7516216 -0.19188984 0.23724335 262 2054340 83 18 66 1778
1.7526959 -0.12735103 0.21972635 88 2054340 28 19 64 1771
10.126349 -1.8665383 1.2032357 537 2054340 5767 20 169 10367
10.215334 -1.5004201 1.1059691 569 2054340 6137 21 101 10384
10.361042 -1.1399918 1.0163462 531 2054340 5826 22 100 10473
10.45237 -0.76515538 0.92409962 524 2054340 5800 23 123 10521
10.006503 -1.846434 0.81476361 586 2054340 6109 24 87 10208
10.098915 -1.4860216 0.71969736 616 2054340 6445 25 170 10233
10.201363 -1.1227832 0.62537253 581 2054340 6143 26 105 10282
10.317243 -0.76141894 0.53257877 571 2054340 6127 27 114 10359
9.6725321 -1.7896968 0.42758802 584 2054340 5665 28 73 9846
9.971323 -1.4708031 0.3415826 567 2054340 5763 29 46 10085
10.07999 -1.1190408 0.25016558 592 2054340 6089 30 51 10145
10.184885 -0.75540429 0.15259168 629 2054340 6567 31 61 10214
9.7698317 -1.8082291 0.069365807 626 2054340 6182 32 93 9936
9.8389711 -1.4549657 -0.025170589 647 2054340 6403 33 91 9946
9.9768572 -1.1088253 -0.11984327 535 2054340 5393 34 101 10039
10.041617 -0.75129879 -0.21602881 625 2054340 6343 35 77 10072
9.624342 -1.7861663 -0.29069239 713 2054340 6838 36 117 9793
9.7315788 -1.4463751 -0.38483503 674 2054340 6538 37 70 9846
9.8571014 -1.0996959 -0.48282787 665 2054340 6560 38 194 9930
9.9244528 -0.74235857 -0.57889318 799 2054340 7937 39 51 9969
9.5059929 -1.7719264 -0.64175409 742 2054340 6970 40 99 9691
9.6079597 -1.4324585 -0.73603785 715 2054340 6786 41 105 9742
9.7079296 -1.0857985 -0.83401781 713 2054340 6852 42 123 9804
9.8864355 -0.74489403 -0.94085866 111 2054340 1098 43 31 9959
9.8083792 -1.8318346 -1.0300671 366 2054340 3684 44 101 10031
9.686389 -1.4481267 -1.1034243 359 2054340 3492 45 63 9856
9.6194448 -1.0810018 -1.1828948 625 2054340 5947 46 85 9752
9.7068119 -0.73374563 -1.2853746 297 2054340 2863 47 123 9819
11.278721 -2.1162186 -1.6105348 368 2054340 4944 48 91 11588
11.045498 -1.6562426 -1.6757927 387 2054340 4930 49 57 11294
10.96919 -1.2384981 -1.7643887 67 2054340 833 50 42 11179
19.031393 -1.4439433 -3.2391365 99 2054340 3694 51 51 19359
13.191018 -2.4871786 -2.3925312 316 2054340 5880 52 87 13635
13.334855 -2.006427 -2.5341177 18 2054340 344 53 84 13721
19.137611 -2.1668589 -3.8093696 521 2054340 20094 54 80 19633
19.334728 -1.4666182 -4.0367131 495 2054340 19399 55 55 19806
13.266747 -2.5091312 -2.9290905 54 2054340 1030 56 117 13816
18.799305 -2.838702 -4.3107929 77 2054340 2945 57 60 19495
14.088108 -1.5978677 -3.3594792 150 2054340 3175 58 54 14571
19.136934 -1.4532944 -4.7495489 455 2054340 17802 59 68 19771
13.393738 -2.5493748 -3.4988933 111 2054340 2209 60 59 14076
18.046204 -2.7404482 -4.867691 135 2054340 4807 61 36 18891
18.20187 -2.0679884 -5.0789227 73 2054340 2622 62 52 19010
18.894581 -1.4269297 -5.4659462 193 2054340 7494 63 37 19721
1.6903814 -0.32375336 0.53721839 311 2152780 101 0 11 1803
1.7176168 -0.26161674 0.52148432 300 2152780 99 1 13 1814
1.7770021 -0.20272695 0.51788968 238 2152780 82 2 45 1862
11.181411 -0.85062158 3.1324036 138 2152780 1873 3 96 11643
1.6641846 -0.31786281 0.45768815 269 2152780 83 4 9 1755
1.7041358 -0.26032427 0.44734108 236 2152780 75 5 1 1781
1.7102256 -0.19577408 0.42880893 270 2152780 85 6 87 1774
11.016993 -0.84933126 2.6413746 415 2152780 5357 7 109 11361
1.7085885 -0.32600409 0.40083945 189 2152780 60 8 30 1785
1.7717046 -0.26994997 0.394227 155 2152780 52 9 22 1835
1.7665906 -0.20319474 0.37330753 162 2152780 53 10 50 1817
10.841352 -0.84530848 2.1768386 437 2152780 5380 11 67 11090
1.8126959 -0.34557301 0.35405436 197 2152780 69 12 36 1879
1.8489698 -0.28244916 0.33960924 188 2152780 68 13 36 1901
10.620261 -1.2236174 1.8358146 376 2152780 4420 14 148 10847
10.699815 -0.83690304 1.742322 391 2152780 4616 15 171 10873
1.6465566 -0.31392995 0.25829384 518 2152780 149 16 1 1696
1.6495275 -0.25236529 0.24076365 489 2152780 139 17 1 1686
1.7385974 -0.20126636 0.23564215 251 2152780 78 18 46 1766
1.8112339 -0.14278178 0.22717051 115 2152780 38 19 55 1831
6.5086532 -1.2410475 0.77426314 685 2152780 3051 20 177 6671
10.19414 -1.5612657 1.104691 574 2152780 6175 21 113 10372
10.330126 -1.2007864 1.0140171 515 2152780 5626 22 89 10449
10.41173 -0.82643789 0.92093754 520 2152780 5718 23 106 10485
9.9597378 -1.90107 0.8118903 603 2152780 6235 24 167 10172
10.065943 -1.5443289 0.71800941 613 2152780 6389 25 107 10209
10.182384 -1.183973 0.62464267 630 2152780 6644 26 113 10270
10.288484 -0.82279927 0.53134483 554 2152780 5920 27 81 10335
9.6260433 -1.8422521 0.42602462 617 2152780 5942 28 71 9810
9.9621105 -1.5319583 0.3415826 577 2152780 5864 29 54 10085
10.061019 -1.1794727 0.24986969 574 2152780 5890 30 49 10133
10.168098 -0.81692243 0.1524124 615 2152780 6405 31 67 10202
9.7349806 -1.8636291 0.069198258 595 2152780 5847 32 100 9912
9.8298588 -1.5153091 -0.025170589 659 2152780 6522 33 90 9946
9.9579477 -1.1686227 -0.11970001 586 2152780 5897 34 63 10027
10.036819 -0.81289887 -0.21602881 663 2152780 6729 35 75 10072
9.5896416 -1.8406645 -0.28997996 722 2152780 6889 36 129 9769
9.6869726 -1.5005531 -0.38342795 699 2152780 6731 37 74 9810
9.8025551 -1.1545494 -0.48049399 647 2152780 6322 38 178 9882
9.8838882 -0.80033922 -0.57680267 701 2152780 6921 39 61 9933
9.4831858 -1.8279546 -0.64095944 753 2152780 7055 40 100 9679
9.5989895 -1.4913849 -0.73603785 691 2152780 6559 41 104 9742
9.6773357 -1.1425409 -0.83197612 728 2152780 6962 42 128 9780
9.8102379 -0.79971826 -0.93405652 111 2152780 1080 43 55 9887
9.9024353 -1.9123535 -1.0411575 421 2152780 4330 44 100 10139
9.759798 -1.5203823 -1.1128285 454 2152780 4490 45 68 9940
9.6362867 -1.1428107 -1.1858059 636 2152780 6081 46 92 9776
9.7732706 -0.79910868 -1.2947999 116 2152780 1137 47 90 9891
11.347187 -2.2012255 -1.6222094 325 2152780 4429 48 101 11672
11.152377 -1.7423029 -1.6935982 337 2152780 4395 49 70 11414
10.984916 -1.3085837 -1.7681764 228 2152780 2857 50 37 11203
18.97501 -1.5568208 -3.2311051 325 2152780 12103 51 52 19311
13.349443 -2.6019723 -2.4241157 284 2152780 5426 52 84 13815
13.159174 -2.0626423 -2.5030899 86 2152780 1588 53 65 13553
18.936932 -2.2619057 -3.7721157 123 2152780 4661 54 77 19441
19.184858 -1.5737008 -4.0073638 288 2152780 11145 55 81 19662
16.185986 -3.1642344 -3.5778322 165 2152780 4712 56 177 16876
18.72373 -2.9449074 -4.2975254 244 2152780 9231 57 70 19435
18.924339 -2.2640865 -4.5159645 307 2152780 11792 58 73 19587
19.069607 -1.5659223 -4.7351351 469 2152780 18238 59 68 19711
17.882744 -3.5176528 -4.6771221 217 2152780 7666 60 55 18816
17.983238 -2.8438816 -4.8553228 256 2152780 9080 61 31 18843
18.108467 -2.1700029 -5.0564804 95 2152780 3417 62 68 18926
18.828012 -1.5381439 -5.4493165 288 2152780 11123 63 28 19661
1.6771262 -0.3318955 0.53364289 320 2251190 103 0 24 1791
1.6932759 -0.26855022 0.51458484 328 2251190 105 1 1 1790
1.7871687 -0.21500336 0.5212273 181 2251190 63 2 36 1874
1.7882721 -0.14708361 0.50121683 225 2251190 78 3 29 1863
1.6735682 -0.33031127 0.46081764 261 2251190 81 4 23 1767
1.6910352 -0.2689513 0.444327 263 2251190 82 5 1 1769
1.6858717 -0.20347366 0.4230077 251 2251190 77 6 90 1750
11.011574 -0.91691428 2.6413746 422 2251190 5451 7 74 11361
1.7180285 -0.33874369 0.40353414 213 2251190 69 8 39 1797
1.7237148 -0.27347028 0.3839148 184 2251190 59 9 29 1787
1.7303349 -0.20978996 0.36591125 184 2251190 58 10 49 1781
10.847687 -0.91280049 2.1791942 414 2251190 5105 11 91 11102
1.8452297 -0.36352283 0.36083773 216 2251190 79 12 67 1915
1.8238811 -0.29007983 0.33532169 245 2251190 86 13 44 1877
10.624294 -1.2901849 1.8378456 183 2251190 2152 14 170 10859
10.694478 -0.90254015 1.742322 429 2251190 5076 15 304 10873
1.667872 -0.32861239 0.26194891 427 2251190 126 16 1 1720
1.6831355 -0.26808646 0.24590451 361 2251190 107 17 17 1722
1.6546934 -0.20184991 0.22443379 313 2251190 89 18 65 1682
1.7747302 -0.15086688 0.22270402 159 2251190 51 19 56 1795
6.5359974 -1.2878731 0.77844143 459 2251190 2065 20 108 6707
10.160803 -1.620029 1.1021348 573 2251190 6141 21 174 10348
10.275144 -1.2583411 1.009359 536 2251190 5801 22 88 10401
10.406463 -0.89030755 0.92093754 538 2251190 5915 23 110 10485
9.9361496 -1.9598312 0.81093246 609 2251190 6290 24 198 10160
10.032637 -1.6022877 0.71632147 642 2251190 6662 25 90 10185
10.13926 -1.2420594 0.62245303 609 2251190 6378 26 113 10234
10.271302 -0.88488418 0.53072792 577 2251190 6150 27 93 10323
9.6027975 -1.8989559 0.42550346 558 2251190 5360 28 83 9798
9.916997 -1.5873693 0.34036329 578 2251190 5832 29 51 10049
10.065498 -1.2426536 0.25016558 599 2251190 6170 30 64 10145
10.162894 -0.87929738 0.1524124 591 2251190 6153 31 99 10202
9.6762762 -1.9140128 0.068863153 640 2251190 6229 32 89 9864
9.808527 -1.5736945 -0.025140218 666 2251190 6576 33 77 9934
9.9505901 -1.2297016 -0.11970001 572 2251190 5753 34 96 10027
10.031642 -0.87446833 -0.21602881 646 2251190 6557 35 73 10072
9.5899324 -1.9018041 -0.29033616 696 2251190 6657 36 133 9781
9.6775827 -1.559963 -0.38342795 694 2251190 6682 37 78 9810
9.8190746 -1.2176249 -0.4816609 615 2251190 6039 38 181 9906
9.8787918 -0.86097056 -0.57680267 643 2251190 6347 39 86 9933
9.4717913 -1.8861079 -0.64095944 769 2251190 7204 40 121 9679
9.5660324 -1.546436 -0.73422462 699 2251190 6604 41 85 9718
9.6582775 -1.2004237 -0.83095527 728 2251190 6944 42 134 9768
9.7575436 -0.85572302 -0.92952186 694 2251190 6722 43 67 9839
9.9607506 -1.987089 -1.048551 383 2251190 3995 44 100 10211
9.8209114 -1.5916849 -1.1208891 354 2251190 3544 45 53 10012
9.6881924 -1.2092931 -1.1930838 494 2251190 4781 46 96 9836
9.7444811 -0.85697687 -1.2916582 111 2251190 1082 47 95 9867
11.449986 -2.2941551 -1.6388874 287 2251190 3994 48 87 11792
11.293752 -1.8354474 -1.7167454 298 2251190 3996 49 59 11570
11.058983 -1.3862783 -1.7814343 76 2251190 962 50 55 11287
19.389362 -1.7106509 -3.3033869 11 2251190 412 51 49 19743
13.50695 -2.7188027 -2.4557004 255 2251190 4996 52 106 13995
13.122991 -2.1395512 -2.4986572 234 2251190 4289 53 75 13529
18.583975 -2.33549 -3.7045939 175 2251190 6397 54 59 19093
13.826716 -1.2196362 -2.8896554 88 2251190 1774 55 86 14178
16.189257 -3.2681313 -3.5829206 57 2251190 1616 56 164 16900
18.716856 -3.0616276 -4.300179 162 2251190 6137 57 82 19447
18.875334 -2.3757868 -4.5076642 199 2251190 7588 58 54 19551
19.013226 -1.6788036 -4.7236042 498 2251190 19271 59 66 19663
1.5149806 -0.30767387 -0.3967202 23 2251190 6 60 57 1596
13.446199 -2.2110426 -3.6339552 54 2251190 1067 61 39 14103
13.86128 -1.7473849 -3.8734469 59 2251190 1233 62 40 14498
18.852676 -1.6566693 -5.4592943 314 2251190 12166 63 48 19697
1.6862812 -0.34447256 0.53721839 315 2348300 102 0 12 1803
1.6689156 -0.275195 0.50768536 341 2348300 106 1 1 1766
1.7515098 -0.22162431 0.51121438 226 2348300 76 2 40 1838
1.7182603 -0.15194513 0.48184618 270 2348300 87 3 31 1791
1.67151 -0.34057388 0.46081764 288 2348300 90 4 12 1767
1.6893531 -0.27932224 0.444327 275 2348300 86 5 1 1769
1.6961429 -0.21528029 0.42590833 273 2348300 85 6 63 1762
10.959241 -0.98030341 2.6302147 367 2348300 4699 7 101 11313
1.7388349 -0.35394377 0.4089236 198 2348300 66 8 48 1821
1.756695 -0.28976381 0.39164898 198 2348300 66 9 7 1823
1.7639641 -0.22485822 0.37330753 196 2348300 65 10 47 1817
10.853601 -0.98040205 2.1815498 382 2348300 4722 11 78 11114
1.7736728 -0.36074498 0.34727097 199 2348300 67 12 55 1843
1.7987692 -0.29741341 0.33103412 232 2348300 80 13 29 1853
1.8056986 -0.23053057 0.31259793 167 2348300 57 14 81 1847
10.676943 -0.96707475 1.740399 387 2348300 4562 15 141 10861
1.6542022 -0.33647609 0.26012138 273 2348300 80 16 1 1708
1.6580238 -0.27452865 0.24247727 325 2348300 94 17 7 1698
1.677016 -0.21502408 0.22763619 271 2348300 79 18 52 1706
1.7263389 -0.15742813 0.21674871 218 2348300 67 19 73 1747
6.5279722 -1.327953 0.77844143 453 2348300 2039 20 98 6707
10.1389 -1.6803931 1.1008567 588 2348300 6280 21 249 10336
10.267229 -1.3213644 1.009359 550 2348300 5951 22 104 10401
10.412707 -0.95523566 0.92199159 520 2348300 5727 23 144 10497
9.9356585 -2.0231483 0.8118903 475 2348300 4910 24 286 10172
10.010807 -1.6618563 0.71547747 652 2348300 6751 25 71 10173
10.143329 -1.3057786 0.62318295 595 2348300 6247 26 103 10246
10.229879 -0.94458538 0.52887708 572 2348300 6054 27 98 10287
9.6144581 -1.9626377 0.42654574 520 2348300 5021 28 66 9822
9.9189005 -1.6501572 0.34076974 613 2348300 6200 29 51 10061
10.033891 -1.3013051 0.24957377 530 2348300 5425 30 48 10121
10.14536 -0.94053155 0.15223314 581 2348300 6036 31 87 10190
9.6408348 -1.9685479 0.068695605 662 2348300 6412 32 91 9840
9.7868509 -1.6318753 -0.025109854 674 2348300 6637 33 98 9922
9.9309578 -1.2891893 -0.11955675 563 2348300 5651 34 71 10015
9.9902506 -0.93265927 -0.21525666 702 2348300 7074 35 75 10036
9.5428305 -1.9533949 -0.28926757 708 2348300 6723 36 122 9745
9.6678286 -1.6193142 -0.38342795 695 2348300 6693 37 69 9810
9.7638779 -1.2716589 -0.47932702 614 2348300 5969 38 200 9858
9.8733234 -0.92156947 -0.57680267 627 2348300 6188 39 96 9933
9.4600401 -1.9441903 -0.64095944 767 2348300 7186 40 109 9679
9.5209627 -1.5991567 -0.73150468 781 2348300 7322 41 99 9682
9.6388741 -1.2581156 -0.82993448 692 2348300 6585 42 128 9756
9.7045336 -0.91111135 -0.92498714 832 2348300 7971 43 57 9791
10.041901 -2.0674257 -1.0584091 391 2348300 4156 44 89 10307
9.9403095 -1.6736941 -1.1356671 350 2348300 3606 45 70 10144
9.7750721 -1.2810987 -1.2047284 502 2348300 4952 46 120 9932
9.7271948 -0.91563678 -1.2900872 101 2348300 982 47 100 9855
11.563705 -2.3908346 -1.6572331 323 2348300 4595 48 97 11924
11.387591 -1.9224894 -1.7327702 328 2348300 4478 49 71 11678
1.534134 -0.20187724 -0.24732059 10 2348300 2 50 42 1567
19.472729 -1.838486 -3.3194499 391 2348300 15403 51 76 19839
13.61725 -2.8280532 -2.4788623 278 2348300 5554 52 82 14127
1.5629988 -0.26468414 -0.29790333 13 2348300 3 53 111 1613
18.627651 -2.4571729 -3.7162359 70 2348300 2585 54 62 19153
18.637777 -1.7593272 -3.8973053 636 2348300 23268 55 76 19122
18.476555 -3.8480072 -4.0942812 40 2348300 1497 56 99 19312
13.275025 -2.2551939 -3.0530453 115 2348300 2192 57 114 13807
18.466814 -2.439564 -4.4135962 30 2348300 1111 58 79 19143
18.979374 -1.7932436 -4.7178388 441 2348300 17023 59 74 19639
18.213654 -3.8154821 -4.775557 167 2348300 6153 60 35 19212
18.41559 -3.144361 -4.9820976 281 2348300 10489 61 50 19335
18.596352 -2.460309 -5.2007532 77 2348300 2935 62 64 19466
18.750322 -1.7636781 -5.4326868 331 2348300 12701 63 46 19601
1.661718 -0.35008994 0.53006738 270 2446660 85 0 11 1779
1.689853 -0.28930911 0.51458484 336 2446660 108 1 21 1790
1.7843957 -0.23691848 0.5212273 278 2446660 98 2 37 1874
1.7403079 -0.16466267 0.48830307 304 2446660 100 3 14 1815
1.6353775 -0.34367615 0.45142916 279 2446660 84 4 16 1731
1.6647117 -0.28575253 0.43829882 256 2446660 78 5 1 1745
1.7178746 -0.22875759 0.43170959 199 2446660 64 6 73 1786
1.7979101 -0.1719493 0.431743 123 2446660 43 7 79 1857
1.7366303 -0.36460641 0.4089236 195 2446660 65 8 28 1821
1.7664355 -0.30251554 0.394227 151 2446660 51 9 32 1835
1.7741917 -0.23723397 0.37577298 207 2446660 69 10 36 1829
10.777109 -1.0401974 2.167417 424 2446660 5175 11 60 11042
1.6560862 -0.34742451 0.32465973 233 2446660 69 12 59 1723
1.8085474 -0.31044233 0.33317792 194 2446660 67 13 16 1865
1.8042501 -0.2416058 0.31259793 226 2446660 77 14 80 1847
10.670808 -1.0325691 1.740399 393 2446660 4637 15 101 10861
1.6172845 -0.33931392 0.25463873 217 2446660 61 16 14 1672
1.6563082 -0.28469694 0.24247727 438 2446660 126 17 5 1698
1.7228116 -0.23164932 0.23404096 252 2446660 77 18 44 1754
1.7134892 -0.16686369 0.21525988 214 2446660 65 19 64 1735
6.519701 -1.3679829 0.77844143 465 2446660 2094 20 184 6707
10.128399 -1.7425725 1.1008567 600 2446660 6409 21 129 10336
10.22342 -1.3795468 1.0058655 582 2446660 6252 22 122 10365
10.37096 -1.0156137 0.91882956 566 2446660 6194 23 118 10461
6.3760424 -1.339118 0.52167857 619 2446660 2645 24 104 6536
10.000422 -1.7232502 0.71547747 603 2446660 6241 25 102 10173
10.099514 -1.3631858 0.62099332 571 2446660 5952 26 113 10210
10.223891 -1.007337 0.52887708 579 2446660 6127 27 105 10287
9.6374292 -2.0290036 0.42810914 373 2446660 3621 28 54 9858
9.9204073 -1.7130281 0.34117618 576 2446660 5847 29 82 10073
10.01383 -1.3612316 0.24927786 560 2446660 5728 30 60 10109
10.103577 -0.99922192 0.15169531 558 2446660 5756 31 83 10154
9.6050911 -2.0227206 0.068528056 569 2446660 5481 32 129 9816
9.7411814 -1.6857568 -0.025018746 631 2446660 6170 33 90 9886
9.8753023 -1.3436295 -0.11898374 598 2446660 5944 34 80 9967
9.9843397 -0.99394077 -0.21525666 684 2446660 6892 35 84 10036
9.5424013 -2.0143893 -0.2896238 708 2446660 6738 36 133 9757
9.6458969 -1.676551 -0.38295892 682 2446660 6552 37 66 9798
9.7558908 -1.3315449 -0.47932702 604 2446660 5865 38 168 9858
9.8674822 -0.98213369 -0.57680267 622 2446660 6140 39 87 9933
9.4245052 -1.9972347 -0.63937014 786 2446660 7325 40 132 9655
9.5109711 -1.6575462 -0.73150468 760 2446660 7125 41 104 9682
9.6072807 -1.3139946 -0.82789278 696 2446660 6589 42 149 9732
9.7106466 -0.97182977 -0.92612082 735 2446660 7066 43 78 9803
10.14579 -2.1537898 -1.0707316 373 2446660 4056 44 111 10427
10.000333 -1.7469674 -1.1437279 409 2446660 4273 45 71 10216
9.8260317 -1.3491548 -1.2120062 460 2446660 4595 46 95 9992
9.6977186 -0.9729293 -1.2869455 345 2446660 3335 47 102 9831
11.665042 -2.4865174 -1.6739111 314 2446660 4559 48 84 12044
11.492473 -2.0127988 -1.7505757 301 2446660 4183 49 53 11798
11.299388 -1.5574811 -1.8231016 226 2446660 3011 50 37 11551
10.997438 -1.1064266 -1.8758179 426 2446660 5359 51 70 11211
13.784473 -2.9511247 -2.5125525 154 2446660 3161 52 95 14319
13.525528 -2.3759258 -2.5806592 37 2446660 729 53 79 13973
13.201433 -1.8238808 -2.6358829 176 2446660 3241 54 44 13585
14.278274 -1.4362519 -2.9874856 122 2446660 2611 55 53 14658
13.728609 -2.9471848 -3.0461183 185 2446660 3814 56 143 14368
16.234491 -2.8605518 -3.7376418 67 2446660 1918 57 99 16903
18.347399 -2.5384259 -4.3886957 81 2446660 2920 58 46 19035
18.527594 -1.8653243 -4.6082945 69 2446660 2553 59 72 19183
18.21262 -3.9320726 -4.7815223 200 2446660 7385 60 50 19236
18.3617 -3.2512331 -4.9728217 327 2446660 12194 61 70 19299
18.580904 -2.5743678 -5.2007532 210 2446660 7954 62 126 19466
18.716204 -1.8763943 -5.4260349 360 2446660 13783 63 42 19577
1.6595386 -0.36027944 0.53006738 303 2542950 96 0 7 1779
1.688046 -0.29967239 0.51458484 319 2542950 102 1 25 1790
1.7372416 -0.24151419 0.50787675 214 2542950 71 2 42 1826
1.7162663 -0.17301939 0.48184618 304 2542950 98 3 59 1791
1.6445602 -0.35615617 0.45455864 275 2542950 83 4 36 1743
1.6743625 -0.29799691 0.44131291 303 2542950 93 5 1 1757
1.7164387 -0.23929396 0.43170959 227 2542950 73 6 82 1786
1.7039322 -0.17351855 0.40942347 279 2542950 86 7 55 1761
1.7915057 -0.38761955 0.42239717 176 2542950 62 8 52 1881
1.7414676 -0.30925021 0.38907093 191 2542950 63 9 29 1811
1.7494414 -0.24485998 0.3708421 188 2542950 61 10 46 1805
10.770523 -1.1063049 2.167417 408 2542950 4977 11 87 11042
1.6424043 -0.35508913 0.3223986 144 2542950 42 12 61 1711
1.7717355 -0.31532699 0.32674661 201 2542950 67 13 33 1829
1.8027338 -0.25267193 0.31259793 231 2542950 79 14 88 1847
10.605358 -1.0919586 1.7307845 405 2542950 4726 15 96 10801
1.9513443 -0.42191783 0.30763769 194 2542950 79 16 1 2020
1.6311445 -0.29068694 0.23905002 427 2542950 120 17 1 1674
1.6978045 -0.2389017 0.23083858 320 2542950 96 18 78 1730
1.7005891 -0.17614752 0.21377105 255 2542950 76 19 32 1723
6.5111847 -1.4079612 0.77844143 446 2542950 2007 20 229 6707
10.117516 -1.8046864 1.1008567 570 2542950 6090 21 105 10336
10.226589 -1.4439203 1.00703 589 2542950 6344 22 221 10377
10.340755 -1.0767536 0.91672152 539 2542950 5871 23 121 10437
6.4144692 -1.3883369 0.52550977 470 2542950 2039 24 71 6584
9.9660921 -1.7803689 0.71378952 624 2542950 6428 25 101 10149
10.09096 -1.4251297 0.62099332 593 2542950 6181 26 116 10210
10.181761 -1.0663059 0.52702624 606 2542950 6370 27 89 10251
9.6130819 -2.0855577 0.42758802 169 2542950 1643 28 67 9846
9.8742933 -1.7675266 0.33995685 604 2542950 6081 29 45 10037
9.981535 -1.4192721 0.24868605 633 2542950 6434 30 52 10085
10.073389 -1.0586892 0.15133676 580 2542950 5948 31 48 10130
8.6074505 -1.8678578 0.061490946 394 2542950 3057 32 102 8808
9.6715965 -1.734902 -0.024866901 679 2542950 6557 33 100 9826
9.8549929 -1.4025074 -0.11884049 586 2542950 5809 34 98 9955
9.9661226 -1.0539231 -0.21499929 628 2542950 6313 35 73 10024
9.5298615 -2.0729024 -0.2896238 704 2542950 6701 36 131 9757
9.6236277 -1.7335798 -0.38248989 685 2542950 6564 37 69 9786
9.7475376 -1.3913809 -0.47932702 612 2542950 5944 38 153 9858
9.8255301 -1.038882 -0.57471216 617 2542950 6047 39 78 9897
9.4120731 -2.0550249 -0.63937014 779 2542950 7261 40 118 9655
9.5123968 -1.7179999 -0.73241132 751 2542950 7057 41 122 9694
9.6227093 -1.3763047 -0.82993448 683 2542950 6498 42 146 9756
9.7163811 -1.0326574 -0.9272545 747 2542950 7191 43 56 9815
10.20235 -2.2313046 -1.0781252 381 2542950 4202 44 98 10499
10.036362 -1.8167919 -1.1491017 401 2542950 4229 45 64 10264
9.9118919 -1.4229621 -1.2236508 412 2542950 4194 46 109 10088
9.7507162 -1.0387161 -1.2947999 594 2542950 5811 47 119 9891
11.777243 -2.5860817 -1.6922568 336 2542950 4984 48 92 12176
11.584994 -2.1023479 -1.7666006 367 2542950 5209 49 58 11906
11.348262 -1.6352336 -1.8325715 437 2542950 5897 50 66 11611
11.049263 -1.1801673 -1.8858571 243 2542950 3093 51 64 11271
13.396934 -2.9542406 -2.4451721 194 2542950 3770 52 99 13935
13.673137 -2.4884357 -2.6116869 319 2542950 6387 53 71 14141
13.189993 -1.9048489 -2.6358829 133 2542950 2451 54 136 13585
19.140459 -2.0440469 -4.0073638 139 2542950 5379 55 99 19662
12.988874 -2.871865 -2.8858409 403 2542950 7467 56 112 13612
18.127747 -3.3089569 -4.1781192 197 2542950 7048 57 67 18895
13.315962 -1.9256507 -3.187943 151 2542950 2895 58 183 13827
13.361528 -1.4280828 -3.3254769 35 2542950 679 59 65 13843
18.176805 -4.0412269 -4.7785397 188 2542950 6936 60 37 19224
18.329998 -3.3617456 -4.9697294 335 2542950 12447 61 46 19287
18.46176 -2.6734145 -5.1718988 335 2542950 12569 62 68 19358
18.681408 -1.9887583 -5.419383 371 2542950 14169 63 46 19553
1.6684759 -0.37295428 0.53364289 317 2641610 102 0 19 1791
1.6635674 -0.30586764 0.50768536 326 2641610 102 1 7 1766
1.735727 -0.25216916 0.50787675 240 2641610 80 2 36 1826
1.6921884 -0.18108734 0.47538927 287 2641610 90 3 38 1767
1.653651 -0.36876178 0.45768815 264 2641610 81 4 9 1755
1.6725026 -0.308265 0.44131291 269 2641610 83 5 1 1757
1.7034155 -0.24814279 0.42880893 258 2641610 81 6 61 1774
1.6796281 -0.18146317 0.40384361 280 2641610 85 7 64 1737
1.7206117 -0.38334715 0.4062289 158 2641610 52 8 58 1809
1.7395374 -0.31992984 0.38907093 189 2641610 62 9 21 1811
1.7711469 -0.25898817 0.37577298 229 2641610 76 10 56 1829
10.763533 -1.1723708 2.167417 228 2641610 2782 11 93 11042
1.6862082 -0.37540418 0.3314431 83 2641610 26 12 69 1759
1.7000991 -0.31335139 0.31388396 196 2641610 61 13 13 1757
1.8011494 -0.26372853 0.31259793 218 2641610 74 14 81 1847
10.598458 -1.1570113 1.7307845 428 2641610 4993 15 111 10801
1.9950249 -0.44419324 0.3149479 234 2641610 100 16 1 2068
1.6760494 -0.30931193 0.24590451 255 2641610 76 17 27 1722
1.6374751 -0.24066798 0.22283261 452 2641610 126 18 81 1670
1.7113125 -0.18787827 0.21525988 172 2641610 52 19 48 1735
6.4791551 -1.4427055 0.77565587 436 2641610 1949 20 198 6683
10.094519 -1.8645651 1.0995786 591 2641610 6298 21 132 10324
10.193906 -1.5031576 1.0047009 598 2641610 6412 22 209 10353
10.310189 -1.1375611 0.91461349 545 2641610 5909 23 122 10413
6.4175053 -1.4302713 0.52646756 483 2641610 2103 24 78 6596
9.9549809 -1.8414862 0.71378952 604 2641610 6224 25 88 10149
10.058328 -1.4835244 0.61953366 630 2641610 6535 26 130 10186
10.163115 -1.1274385 0.52640933 596 2641610 6249 27 103 10239
6.2889166 -1.404839 0.28010792 566 2641610 2353 28 167 6450
9.8043003 -1.8171527 0.3379246 519 2641610 5161 29 55 9977
9.9370403 -1.4752061 0.24779834 645 2641610 6510 30 44 10049
10.066704 -1.1204785 0.15133676 599 2641610 6149 31 93 10130
8.584116 -1.9180202 0.061407167 365 2641610 2824 32 121 8796
9.6725674 -1.7964044 -0.02489727 667 2641610 6460 33 73 9838
9.8580704 -1.4647135 -0.11898374 586 2641610 5824 34 89 9967
9.9594679 -1.1150542 -0.21499929 617 2641610 6203 35 72 10024
9.4935532 -2.1260948 -0.28891137 685 2641610 6488 36 131 9733
9.577446 -1.786002 -0.3810828 727 2641610 6915 37 71 9750
9.7032518 -1.445865 -0.47757658 648 2641610 6255 38 189 9822
9.8308764 -1.1004834 -0.575409 639 2641610 6278 39 74 9909
9.3642397 -2.1048598 -0.63698614 768 2641610 7107 40 101 9619
9.4781523 -1.7719368 -0.73059803 749 2641610 7002 41 138 9670
9.6022577 -1.4335573 -0.82891363 692 2641610 6569 42 126 9744
9.6861181 -1.0895858 -0.92498714 784 2641610 7519 43 73 9791
10.304917 -2.320081 -1.0904479 330 2641610 3724 44 93 10619
10.142231 -1.9002999 -1.1625363 372 2641610 4016 45 60 10384
9.9854345 -1.4961084 -1.2338399 457 2641610 4730 46 105 10172
9.8623772 -1.1118534 -1.3105087 423 2641610 4238 47 123 10011
11.900247 -2.6897354 -1.7122704 396 2641610 6011 48 115 12320
11.723498 -2.2018697 -1.7897477 285 2641610 4152 49 72 12062
11.455193 -1.722454 -1.8515111 358 2641610 4933 50 58 11731
11.253421 -1.2718579 -1.921998 150 2641610 1985 51 67 11487
13.562888 -3.0782232 -2.4788623 224 2641610 4468 52 130 14127
13.831458 -2.6050282 -2.6449311 268 2641610 5504 53 74 14321
18.951763 -2.8557603 -3.7907426 344 2641610 13141 54 83 19537
13.243951 -1.4965928 -2.7747052 175 2641610 3245 55 218 13614
13.714279 -3.1206379 -3.0512066 142 2641610 2936 56 143 14392
18.268097 -3.4505339 -4.2152677 40 2641610 1456 57 107 19063
16.294313 -2.4585202 -3.9045215 88 2641610 2535 58 70 16935
18.410709 -2.0820739 -4.5852332 73 2641610 2671 59 78 19087
18.083683 -4.1371284 -4.7606425 401 2641610 14700 60 29 19152
18.26346 -3.4655068 -4.9573607 187 2641610 6938 61 63 19239
18.044817 -2.7261832 -5.0596867 92 2641610 3284 62 51 18938
18.46262 -2.0801125 -5.3595157 119 2641610 4433 63 51 19337
1.6661561 -0.38318485 0.53364289 285 2739950 91 0 2 1791
1.6503685 -0.31392166 0.50423563 341 2739950 105 1 14 1754
1.7341471 -0.26281464 0.50787675 234 2739950 78 2 41 1826
1.7484664 -0.19796845 0.49153152 268 2739950 89 3 31 1827
1.6400658 -0.37631065 0.45455864 302 2739950 92 4 21 1743
1.6933992 -0.32287237 0.44734108 282 2739950 89 5 1 1781
1.7363969 -0.2638377 0.43751082 243 2739950 80 6 67 1810
1.724866 -0.19706498 0.41500336 266 2739950 85 7 44 1785
1.7524205 -0.40173614 0.41431302 177 2739950 60 8 25 1845
1.7835945 -0.33935979 0.39938313 190 2739950 66 9 20 1859
1.7927439 -0.27339178 0.38070384 141 2739950 48 10 52 1853
1.7904164 -0.20613705 0.36077815 164 2739950 55 11 34 1838
1.6838731 -0.3857435 0.3314431 125 2739950 39 12 79 1759
1.6633503 -0.31714308 0.30745265 201 2739950 60 13 7 1721
1.7994974 -0.27477521 0.31259793 241 2739950 82 14 74 1847
10.579392 -1.2206627 1.7288616 382 2739950 4450 15 77 10789
1.9922619 -0.45642611 0.3149479 257 2739950 110 16 23 2068
1.7791169 -0.33963412 0.26132709 149 2739950 50 17 46 1830
1.5889457 -0.24350475 0.21642785 625 2739950 164 18 64 1622
1.7219554 -0.19974719 0.21674871 234 2739950 72 19 71 1747
6.4817986 -1.4850956 0.77704865 451 2739950 2021 20 126 6695
10.094607 -1.9287081 1.1008567 346 2739950 3695 21 480 10336
10.160881 -1.5620484 1.0023718 605 2739950 6455 22 111 10329
10.267396 -1.1966505 0.91145152 576 2739950 6204 23 103 10377
6.3736315 -1.4616005 0.5235942 473 2739950 2036 24 96 6560
9.9317369 -1.9002846 0.71294552 647 2739950 6650 25 95 10137
10.025357 -1.5415725 0.61807388 613 2739950 6328 26 128 10162
10.144103 -1.1883826 0.52579236 646 2739950 6759 27 79 10227
6.2801781 -1.4434006 0.28010792 572 2739950 2381 28 72 6450
9.6162863 -1.8434079 0.33182797 541 2739950 5190 29 27 9797
9.9278021 -1.5361509 0.24779834 609 2739950 6146 30 51 10049
10.035807 -1.1794246 0.15097822 625 2739950 6386 31 80 10106
8.5721855 -1.9706553 0.061407167 353 2739950 2733 32 88 8796
9.6377935 -1.8511932 -0.024836533 683 2739950 6582 33 73 9814
9.8014669 -1.5178289 -0.11841074 566 2739950 5571 34 94 9919
9.9166965 -1.1719195 -0.21422715 611 2739950 6099 35 73 9988
9.293313 -2.141217 -0.2832121 454 2739950 4129 36 165 9541
9.5780811 -1.847005 -0.38155183 731 2739950 6970 37 74 9762
9.6941967 -1.5053757 -0.47757658 706 2739950 6815 38 176 9822
9.776351 -1.1551609 -0.57262164 621 2739950 6042 39 80 9861
9.3628139 -2.1649756 -0.63778079 776 2739950 7199 40 103 9631
9.4553528 -1.8277892 -0.72969139 732 2739950 6828 41 112 9658
9.5578375 -1.4869345 -0.82585108 722 2739950 6804 42 118 9708
9.6436615 -1.1447734 -0.9215861 769 2739950 7313 43 53 9755
10.395146 -2.407506 -1.1015382 397 2739950 4568 44 117 10727
10.212328 -1.9783709 -1.1719404 370 2739950 4060 45 58 10468
10.070217 -1.5720474 -1.2454845 418 2739950 4410 46 87 10268
9.9380627 -1.1821837 -1.3215048 414 2739950 4218 47 120 10095
12.010842 -2.7923036 -1.7306162 353 2739950 5478 48 78 12452
11.814614 -2.294121 -1.8057728 299 2739950 4435 49 67 12170
11.561477 -1.8110474 -1.8704509 398 2739950 5595 50 73 11851
11.421619 -1.3618951 -1.9521157 34 2739950 466 51 86 11667
13.256131 -3.0942507 -2.4262214 274 2739950 5242 52 96 13827
13.97728 -2.7214019 -2.6759586 269 2739950 5652 53 88 14489
18.933884 -2.9719925 -3.7907426 403 2739950 15390 54 93 19537
13.234518 -1.5778279 -2.7747052 128 2739950 2381 55 59 13614
17.794199 -4.1640091 -3.9645331 140 2739950 4896 56 113 18700
13.824443 -2.699158 -3.1936796 283 2739950 5897 57 148 14443
18.678225 -2.9355371 -4.4799972 263 2739950 9947 58 62 19431
13.458663 -1.6057419 -3.3543043 121 2739950 2367 59 69 13963
18.080585 -4.2533331 -4.7666082 383 2739950 14102 60 59 19176
17.923267 -3.5150249 -4.8707833 35 2739950 1237 61 43 18903
17.867823 -2.8116865 -5.0148015 431 2739950 15199 62 67 18770
18.117479 -2.1538846 -5.263062 109 2739950 3918 63 38 18989
1.6414784 -0.38812926 0.52649188 298 2837280 93 0 4 1767
1.6484112 -0.32404223 0.50423563 282 2837280 87 1 33 1754
1.7325019 -0.2734502 0.50787675 258 2837280 86 2 41 1826
1.7242668 -0.20595165 0.48507461 286 2837280 93 3 37 1803
1.6490012 -0.38902685 0.45768815 262 2837280 81 4 26 1755
1.6685938 -0.32876596 0.44131291 247 2837280 76 5 1 1757
1.700242 -0.26902762 0.42880893 261 2837280 82 6 82 1774
1.7120371 -0.20624892 0.41221344 302 2837280 95 7 63 1773
1.829594 -0.43126088 0.43317607 166 2837280 62 8 62 1929
1.7584795 -0.34577492 0.394227 216 2837280 73 9 14 1835
1.7678353 -0.28070337 0.37577298 169 2837280 56 10 54 1829
1.7657562 -0.2142839 0.35606724 193 2837280 63 11 21 1814
1.6814746 -0.39606827 0.3314431 157 2837280 48 12 48 1759
1.7192943 -0.33875558 0.3181715 135 2837280 43 13 33 1781
1.774417 -0.2820977 0.30853602 190 2837280 63 14 58 1823
10.524671 -1.2798343 1.7211699 383 2837280 4418 15 123 10741
1.9663358 -0.46320304 0.31129283 269 2837280 112 16 14 2044
1.9750913 -0.38962126 0.29045865 216 2837280 89 17 42 2034
1.6461426 -0.2626178 0.22443379 387 2837280 110 18 72 1682
1.708878 -0.20886457 0.21525988 234 2837280 71 19 64 1735
6.4609628 -1.5221062 0.77565587 451 2837280 2016 20 71 6683
6.5006132 -1.2834203 0.70976293 569 2837280 2525 21 271 6664
10.139312 -1.6224779 1.0012072 586 2837280 6240 22 93 10317
10.259861 -1.2596275 0.91145152 572 2837280 6159 23 125 10377
6.3761859 -1.5034261 0.52455199 463 2837280 2001 24 98 6572
9.9198904 -1.9611888 0.71294552 601 2837280 6177 25 97 10137
10.01571 -1.6030579 0.61807388 600 2837280 6195 26 115 10162
10.124726 -1.2491359 0.52517539 611 2837280 6376 27 100 10215
6.3062057 -1.4901791 0.28167132 524 2837280 2207 28 63 6486
9.6165581 -1.9047076 0.33223438 394 2837280 3786 29 53 9809
9.9063454 -1.5951307 0.24750243 624 2837280 6283 30 44 10037
9.9807491 -1.2350868 0.15026112 646 2837280 6537 31 91 10058
8.5132208 -2.0121753 0.061072066 392 2837280 2999 32 120 8748
9.6497946 -1.9149663 -0.02489727 516 2837280 4997 33 80 9838
9.7327366 -1.568396 -0.11769446 649 2837280 6312 34 82 9859
9.8974133 -1.2312641 -0.21396977 581 2837280 5783 35 103 9976
8.9882069 -2.1290808 -0.27430698 335 2837280 2860 36 120 9241
9.5430489 -1.9010551 -0.38061383 727 2837280 6890 37 56 9738
9.6374483 -1.5571826 -0.47524264 727 2837280 6949 38 179 9774
9.7928553 -1.2180831 -0.57401532 615 2837280 6013 39 78 9885
9.3260555 -2.216846 -0.63619149 808 2837280 7457 40 122 9607
9.4204922 -1.8810858 -0.72787815 757 2837280 7025 41 120 9634
9.5485344 -1.5455524 -0.82585108 747 2837280 7038 42 131 9708
9.6246014 -1.2024432 -0.92045236 749 2837280 7114 43 67 9743
10.461463 -2.4905958 -1.110164 308 2837280 3603 44 89 10811
10.293538 -2.0597129 -1.182688 360 2837280 4022 45 68 10564
10.130925 -1.6452638 -1.2542177 446 2837280 4770 46 101 10340
10.001451 -1.2520066 -1.3309302 396 2837280 4093 47 114 10167
12.143739 -2.9018531 -1.7522975 312 2837280 4962 48 95 12608
11.928306 -2.3922396 -1.8253589 363 2837280 5500 49 67 12302
11.678796 -1.902915 -1.8912845 357 2837280 5132 50 69 11983
0 -0 -0 7 2837280 0 51 54 0
13.570045 -3.2554529 -2.4872849 109 2837280 2200 52 173 14175
13.775325 -2.7699156 -2.6404986 84 2837280 1716 53 118 14297
18.868818 -3.0805256 -3.7814293 226 2837280 8588 54 104 19489
18.738234 -2.3506818 -3.9315457 22 2837280 802 55 51 19290
10.584974 -2.5455875 -2.3617592 322 2837280 3995 56 126 11140
17.24925 -3.4778435 -3.9897223 131 2837280 4266 57 110 18043
18.625288 -3.0444381 -4.4716969 345 2837280 12992 58 69 19395
18.811413 -2.3615296 -4.6918941 344 2837280 13123 59 113 19531
18.076744 -4.3696556 -4.7725739 361 2837280 13291 60 53 19200
17.81045 -3.6065242 -4.8460464 184 2837280 6495 61 43 18807
17.873058 -2.9250038 -5.021214 130 2837280 4575 62 56 18794
18.0124 -2.2535601 -5.236455 577 2837280 20586 63 29 18893
1.6613283 -0.40360227 0.53364289 311 2936750 100 0 1 1791
1.6801833 -0.34100887 0.51458484 309 2936750 99 1 8 1790
1.7194171 -0.28220862 0.50453913 241 2936750 79 2 50 1814
1.7688401 -0.22229214 0.4979884 248 2936750 85 3 8 1851
1.6465832 -0.39913762 0.45768815 254 2936750 78 4 17 1755
1.666545 -0.33899805 0.44131291 259 2936750 80 5 1 1757
1.67558 -0.2756744 0.4230077 255 2936750 78 6 92 1750
1.7107393 -0.21674989 0.41221344 312 2936750 98 7 62 1773
1.7700887 -0.42871597 0.41970247 182 2936750 63 8 34 1869
1.7792958 -0.36122167 0.39938313 192 2936750 66 9 31 1859
1.7429053 -0.28771967 0.3708421 222 2936750 72 10 41 1805
1.7644081 -0.22511435 0.35606724 219 2936750 72 11 27 1814
1.6561041 -0.40083349 0.32692087 243 2936750 73 12 37 1735
1.7518934 -0.35635906 0.32460281 101 2936750 33 13 27 1817
1.5859553 -0.26212308 0.2760407 226 2936750 60 14 84 1631
1.7516276 -0.22391869 0.28667471 98 2936750 31 15 129 1789
1.9749836 -0.47804967 0.31312034 278 2936750 117 16 17 2056
2.0424924 -0.41595349 0.30074036 221 2936750 98 17 38 2106
1.7266275 -0.28633285 0.23564215 189 2936750 59 18 59 1766
1.6721336 -0.21479483 0.21079339 442 2936750 128 19 61 1699
6.439918 -1.558917 0.77426314 437 2936750 1946 20 84 6671
6.4926157 -1.3232832 0.70976293 446 2936750 1979 21 168 6664
1.5639974 -0.26012066 0.15459175 686 2936750 174 22 707 1593
10.228228 -1.3194983 0.90934348 582 2936750 6238 23 125 10353
6.3552155 -1.5397048 0.5235942 422 2936750 1817 24 84 6560
9.8607559 -2.0124447 0.70956969 598 2936750 6087 25 108 10089
9.9938698 -1.6625173 0.61734402 594 2936750 6117 26 136 10150
10.093102 -1.3081559 0.52394152 593 2936750 6160 27 89 10191
6.2852931 -1.5260166 0.28115019 533 2936750 2236 28 67 6474
9.6046896 -1.9636778 0.33223438 355 2936750 3411 29 50 9809
9.8608761 -1.6499456 0.24661469 625 2936750 6248 30 39 10001
9.9729834 -1.2963042 0.15026112 660 2936750 6682 31 62 10058
6.4250941 -1.5603154 0.046160098 362 2936750 1584 32 82 6612
9.6378632 -1.9741404 -0.02489727 647 2936750 6264 33 97 9838
9.7110958 -1.6261038 -0.11755121 605 2936750 5870 34 79 9847
9.8896723 -1.2919703 -0.21396977 564 2936750 5615 35 86 9976
8.8467731 -2.152992 -0.27038872 341 2936750 2829 36 116 9109
9.5312042 -1.9595743 -0.38061383 716 2936750 6794 37 69 9738
9.6277122 -1.6162875 -0.47524264 725 2936750 6930 38 178 9774
9.7614384 -1.2750448 -0.57262164 666 2936750 6479 39 84 9861
9.3006458 -2.2711873 -0.63539678 749 2936750 6896 40 109 9595
9.4322109 -1.9436833 -0.72969139 755 2936750 7043 41 110 9658
9.5152893 -1.6001463 -0.82380944 756 2936750 7087 42 146 9684
9.6051979 -1.2599225 -0.9193188 775 2936750 7343 43 63 9731
10.573527 -2.585932 -1.123719 382 2936750 4575 44 113 10943
10.374132 -2.1421254 -1.1934358 382 2936750 4345 45 76 10660
10.249839 -1.7291915 -1.2702291 405 2936750 4443 46 107 10472
10.052556 -1.3211014 -1.3387846 434 2936750 4540 47 108 10227
12.264196 -3.0103045 -1.7723111 313 2936750 5095 48 80 12752
12.006371 -2.4846241 -1.8396032 395 2936750 6065 49 50 12398
11.807101 -1.9982671 -1.9140121 330 2936750 4860 50 62 12127
1.6333387 -0.2151165 -0.27959076 10 2936750 3 51 63 1671
13.790699 -3.3980095 -2.5315032 181 2936750 3761 52 153 14427
13.307711 -2.7609513 -2.554064 202 2936750 3869 53 79 13829
14.05617 -2.3834481 -2.8198221 13 2936750 284 54 64 14533
18.467211 -2.4318693 -3.8777392 219 2936750 7915 55 41 19026
10.705777 -2.644232 -2.3922882 131 2936750 1670 56 101 11284
17.674435 -3.6765695 -4.0932078 263 2936750 9027 57 64 18511
13.909365 -2.3613024 -3.3428788 210 2936750 4409 58 143 14499
18.761923 -2.4723444 -4.6832457 456 2936750 17336 59 97 19495
18.027029 -4.4748893 -4.7666082 292 2936750 10721 60 51 19176
1.557761 -0.32540131 -0.42438659 28 2936750 8 61 37 1647
18.356388 -3.1198704 -5.1622801 31 2936750 1175 62 61 19322
18.089685 -2.3760519 -5.263062 43 2936750 1537 63 43 18989
1.6143631 -0.40269858 0.51934087 275 3033760 83 0 17 1743
1.65556 -0.34660152 0.50768536 304 3033760 95 1 27 1766
1.7403783 -0.29662669 0.51121438 253 3033760 85 2 40 1838
1.7216096 -0.22709554 0.48507461 288 3033760 94 3 28 1803
1.6441031 -0.40923333 0.45768815 277 3033760 85 4 21 1755
1.6644337 -0.34921741 0.44131291 253 3033760 78 5 1 1757
1.673857 -0.28595036 0.4230077 275 3033760 84 6 70 1750
1.6630995 -0.22109061 0.40105367 322 3033760 96 7 39 1725
1.744729 -0.43392441 0.41431302 169 3033760 58 8 67 1845
1.696749 -0.35531741 0.38133678 176 3033760 55 9 32 1775
1.7295319 -0.29642466 0.36837667 162 3033760 52 10 38 1793
1.7863188 -0.23905784 0.36077815 202 3033760 68 11 24 1838
1.6307392 -0.40530246 0.3223986 239 3033760 70 12 42 1711
1.7496738 -0.36710179 0.32460281 155 3033760 51 13 25 1817
1.6892259 -0.28985044 0.29431933 136 3033760 41 14 82 1739
1.7854403 -0.23938437 0.29244345 261 3033760 87 15 42 1825
2.0065427 -0.49874151 0.31860298 179 3033760 78 16 26 2092
2.0050313 -0.42115375 0.29559949 247 3033760 106 17 68 2070
1.994405 -0.34332639 0.27246958 213 3033760 89 18 58 2042
1.6589833 -0.22346127 0.20930456 508 3033760 144 19 54 1687
6.4302311 -1.5984023 0.77426314 451 3033760 2007 20 110 6671
6.484374 -1.3630962 0.70976293 475 3033760 2110 21 92 6664
10.095099 -1.7427171 0.99887818 609 3033760 6454 22 325 10293
10.196247 -1.3790284 0.90723544 603 3033760 6434 23 118 10329
6.3572564 -1.5815585 0.52455199 480 3033760 2075 24 81 6572
6.3809919 -1.3431084 0.45975387 589 3033760 2515 25 266 6537
9.9598742 -1.7197312 0.6158843 601 3033760 6158 26 155 10126
10.07301 -1.3684481 0.52332461 620 3033760 6423 27 118 10179
6.2525458 -1.5587537 0.28010792 503 3033760 2095 28 64 6450
9.5455208 -2.012677 0.33060861 532 3033760 5065 29 47 9761
9.8623857 -1.7124721 0.2469106 649 3033760 6504 30 34 10013
9.9529524 -1.3558533 0.15008184 652 3033760 6584 31 71 10046
6.4852586 -1.6171293 0.046662748 379 3033760 1694 32 83 6684
9.6255684 -2.0332401 -0.02489727 661 3033760 6400 33 94 9838
9.7245798 -1.6897677 -0.11783772 586 3033760 5714 34 72 9871
9.774581 -1.3379842 -0.21165332 651 3033760 6341 35 87 9868
8.9846764 -2.2450352 -0.27501941 373 3033760 3200 36 139 9265
9.4720802 -2.0080726 -0.37873772 728 3033760 6841 37 59 9690
9.6058054 -1.6732748 -0.47465917 738 3033760 7036 38 184 9762
9.7178249 -1.3300425 -0.57053119 665 3033760 6423 39 75 9825
9.2981491 -2.3311241 -0.63619149 698 3033760 6444 40 92 9607
9.3849945 -1.9940611 -0.72697151 733 3033760 6785 41 126 9622
9.4817352 -1.6543907 -0.82176787 744 3033760 6938 42 162 9660
9.5854511 -1.3172088 -0.91818511 741 3033760 7004 43 63 9719
10.650079 -2.6740158 -1.133577 408 3033760 4974 44 97 11039
10.500751 -2.2355356 -1.2095572 317 3033760 3705 45 67 10804
10.321168 -1.8064257 -1.2804182 409 3033760 4559 46 104 10556
10.197474 -1.4038502 -1.3592061 365 3033760 3934 47 129 10383
12.383775 -3.120342 -1.7923247 233 3033760 3881 48 76 12896
12.153382 -2.5929129 -1.8645309 349 3033760 5518 49 63 12566
11.911328 -2.0911663 -1.9329517 374 3033760 5604 50 45 12247
11.699332 -1.613935 -2.0043194 9 3033760 136 51 59 11979
13.620698 -3.4449065 -2.5041299 455 3033760 9269 52 104 14271
13.325118 -2.8499537 -2.5607128 170 3033760 3266 53 127 13865
14.203596 -2.4981992 -2.8524191 42 3033760 918 54 60 14701
18.568321 -2.5611887 -3.9021969 32 3033760 1158 55 47 19146
10.666615 -2.704108 -2.3872001 80 3033760 1015 56 111 11260
17.8804 -3.8340213 -4.1462774 114 3033760 4012 57 102 18751
17.25255 -3.0378795 -4.1507583 144 3033760 4674 58 90 18003
18.238676 -2.5173416 -4.5564055 72 3033760 2573 59 55 18967
1.4980589 -0.38163984 -0.3967202 57 3033760 15 60 60 1596
18.116238 -3.9004686 -4.9419007 312 3033760 11464 61 40 19179
18.336899 -3.2324445 -5.1622801 273 3033760 10204 62 78 19322
18.485968 -2.5435829 -5.3827972 207 3033760 7798 63 28 19421
1.6340561 -0.41827774 0.52649188 310 3131950 97 0 1 1767
1.6534022 -0.35675332 0.50768536 313 3131950 98 1 36 1766
1.6931233 -0.29927465 0.49786386 284 3131950 91 2 57 1790
1.6972861 -0.23449141 0.4786177 279 3131950 88 3 21 1779
1.6640098 -0.42504784 0.46394712 228 3131950 72 4 27 1779
1.6736125 -0.3618784 0.444327 263 3131950 82 5 1 1769
1.6950021 -0.30027795 0.42880893 275 3131950 87 6 68 1774
1.73107 -0.24094494 0.4177933 196 3131950 63 7 48 1797
1.7986852 -0.45908096 0.42778662 186 3131950 67 8 56 1905
1.740361 -0.37561172 0.39164898 268 3131950 89 9 2 1823
1.7508061 -0.31114098 0.37330753 245 3131950 81 10 46 1817
1.7498599 -0.24511708 0.35371175 235 3131950 76 11 40 1802
1.6510606 -0.42112628 0.32692087 250 3131950 75 12 49 1735
1.7243079 -0.37284008 0.32031527 226 3131950 73 13 19 1793
1.7339917 -0.3084963 0.30244315 107 3131950 34 14 79 1787
1.7018279 -0.23881285 0.27898303 270 3131950 82 15 32 1741
6.5083222 -1.6601603 1.0350029 193 3131950 891 16 119 6796
2.0140176 -0.43596116 0.29731309 286 3131950 124 17 73 2082
2.0156763 -0.35973629 0.27567196 232 3131950 99 18 54 2066
1.704744 -0.24028404 0.21525988 253 3131950 76 19 52 1735
6.4087534 -1.6348811 0.77287036 496 3131950 2200 20 109 6659
6.4992104 -1.4079102 0.71231902 444 3131950 1986 21 118 6688
10.060703 -1.8004189 0.99654913 593 3131950 6255 22 100 10269
10.187593 -1.4415654 0.90723544 598 3131950 6379 23 132 10329
6.3358426 -1.6175771 0.5235942 475 3131950 2046 24 77 6560
6.4077258 -1.3898484 0.46228582 535 3131950 2313 25 78 6573
9.9491348 -1.7808115 0.6158843 604 3131950 6193 26 109 10126
10.064425 -1.4302292 0.52332461 596 3131950 6177 27 91 10179
6.2660933 -1.6030319 0.28115019 508 3131950 2131 28 79 6474
9.5329914 -2.0712092 0.33060861 554 3131950 5274 29 46 9761
9.8162727 -1.7665799 0.24602288 673 3131950 6695 30 48 9977
9.9325666 -1.4152055 0.14990257 685 3131950 6901 31 73 10034
6.5217142 -1.6687903 0.046997845 369 3131950 1673 32 89 6732
9.4018536 -2.0463262 -0.024350636 244 3131950 2262 33 190 9622
9.7494564 -1.7557851 -0.11826748 546 3131950 5363 34 75 9907
9.7661867 -1.3979348 -0.21165332 638 3131950 6215 35 79 9868
7.2627592 -1.8621926 -0.22265737 311 3131950 1748 36 147 7501
9.4947252 -2.0738306 -0.3801448 753 3131950 7127 37 72 9726
9.5835619 -1.730054 -0.47407568 751 3131950 7134 38 171 9750
9.6976223 -1.3879477 -0.56983435 646 3131950 6225 39 63 9813
9.4228239 -2.4239285 -0.6457274 430 3131950 4091 40 87 9751
9.3842716 -2.0541675 -0.72787815 744 3131950 6905 41 113 9634
9.4831715 -1.7146658 -0.82278866 752 3131950 7032 42 149 9672
9.5653639 -1.3743002 -0.91705143 743 3131950 7004 43 74 9707
10.621911 -2.7363353 -1.1323447 230 3131950 2798 44 105 11027
10.591666 -2.3229158 -1.2216483 344 3131950 4100 45 77 10912
10.36849 -1.8803486 -1.287696 454 3131950 5118 46 102 10616
10.247545 -1.4748682 -1.3670605 374 3131950 4081 47 93 10443
12.54848 -3.2438557 -1.8190093 281 3131950 4818 48 84 13088
12.26474 -2.695456 -1.8841169 293 3131950 4717 49 51 12698
12.049831 -2.1917808 -1.9575733 355 3131950 5454 50 50 12403
11.853145 -1.7093313 -2.032429 13 3131950 185 51 51 12147
14.971527 -3.8844478 -2.7568064 179 3131950 4418 52 234 15711
14.58581 -3.2133038 -2.8067186 128 3131950 2961 53 91 15197
13.412055 -2.4439132 -2.6964197 113 3131950 2188 54 81 13897
1.6104591 -0.23221415 -0.33873659 10 3131950 3 55 55 1662
18.151989 -4.720459 -4.0688405 263 3131950 9696 56 203 19192
18.313641 -4.0446134 -4.2524161 147 3131950 5446 57 86 19231
17.739019 -3.2358813 -4.2724938 101 3131950 3451 58 57 18531
13.991664 -2.0187223 -3.4984412 136 3131950 2884 59 116 14563
10.784704 -2.8180509 -2.8605616 81 3131950 1079 60 64 11508
18.159883 -4.0266142 -4.960453 74 3131950 2758 61 68 19251
18.293968 -3.3407419 -5.1558681 337 3131950 12563 62 77 19298
18.435774 -2.6520374 -5.3728189 463 3131950 17385 63 41 19385
1.6425383 -0.43120489 0.53006738 325 3230410 103 0 1 1779
1.6848415 -0.37437078 0.51803452 316 3230410 103 1 37 1802
1.7025931 -0.31173372 0.50120151 258 3230410 84 2 51 1802
1.7415709 -0.25150916 0.49153152 268 3230410 89 3 37 1827
1.6501639 -0.4323141 0.46081764 227 3230410 71 4 35 1767
1.6713605 -0.37214068 0.444327 235 3230410 73 5 13 1769
1.6816748 -0.30857113 0.42590833 272 3230410 85 6 95 1762
