# .PCD v0.7 - Point Cloud Data file format
VERSION 0.7
FIELDS x y z intensity t reflectivity ring noise range
SIZE 4 4 4 4 4 2 1 2 4
TYPE F F F F U U U U U
COUNT 1 1 1 1 1 1 1 1 1
WIDTH 769
HEIGHT 1
VIEWPOINT 0 0 0 1 0 0 0
POINTS 769
DATA ascii
-4.7186952 -3.5564053 0.85252607 340 39464760 1213 17 75 5970
-4.5700498 -3.7139456 0.79285711 472 39464760 1667 18 87 5942
-4.0819354 -3.5729296 0.67828578 372 39464760 1113 19 87 5467
-3.449544 -2.407129 0.49153113 41 39464760 74 20 87 4235
-3.3862014 -2.5512919 0.45414603 141 39464760 257 21 96 4264
-3.3820293 -2.7458308 0.42476344 27 39464760 52 22 75 4377
-3.2013679 -2.7991085 0.37496254 479 39464760 873 23 140 4269
-3.2539194 -2.2696912 0.31766844 557 39464760 883 24 95 3980
-3.1818602 -2.396028 0.28083178 517 39464760 825 25 89 3993
-3.1322711 -2.5428736 0.24584281 522 39464760 852 26 143 4042
-3.080318 -2.6900454 0.21053287 550 39464760 922 27 92 4095
-3.1230183 -2.1761162 0.1654591 624 39464760 906 28 88 3810
-3.0993247 -2.3321815 0.13145088 474 39464760 713 29 45 3881
-3.0424347 -2.465188 0.096589319 517 39464760 793 30 45 3917
-2.035599 -1.7763762 0.04036643 75 39464760 55 31 91 2702
-3.0620081 -2.1333663 0.026054064 501 39464760 698 32 88 3732
-2.9812601 -2.2416294 -0.0094396034 564 39464760 785 33 90 3730
-3.0077033 -2.4364376 -0.046211105 328 39464760 492 34 95 3871
-1.9566119 -1.7052233 -0.055680186 151 39464760 102 35 79 2596
-3.2398045 -2.25489 -0.11722089 189 39464760 294 36 143 3949
-3.2267544 -2.4225175 -0.15782692 166 39464760 270 37 57 4038
-2.1940587 -1.7758104 -0.13740902 82 39464760 66 38 86 2826
-1.9484619 -1.6981802 -0.1503415 188 39464760 126 39 70 2589
-3.3784637 -2.3474596 -0.27303189 251 39464760 427 40 108 4123
-3.3487201 -2.5117092 -0.31717175 184 39464760 324 41 106 4198
-2.1287651 -1.72198 -0.23376997 98 39464760 74 42 145 2748
-2.026535 -1.7642963 -0.25498319 235 39464760 171 43 77 2699
-3.4309115 -2.3821266 -0.43118849 893 39464760 1575 44 132 4199
-3.3620663 -2.5196114 -0.47334391 722 39464760 1291 45 83 4228
-2.1463385 -1.7343367 -0.33720753 158 39464760 122 46 121 2780
-2.1471882 -1.8684146 -0.37583363 118 39464760 97 47 116 2871
-3.3175435 -2.2992969 -0.56649464 856 39464760 1422 48 115 4076
-3.278899 -2.4550502 -0.61458594 402 39464760 690 49 62 4142
-3.2233679 -2.6018357 -0.66209948 790 39464760 1391 50 90 4195
-2.3679175 -2.0593245 -0.53257769 100 39464760 102 51 66 3183
-1.3043381 -0.90228271 -0.28268188 285 39464760 74 52 58 1611
-1.288336 -0.96361434 -0.30233589 406 39464760 109 53 76 1637
-1.210214 -0.97623193 -0.3075358 487 39464760 122 54 158 1585
-1.1922845 -1.0369395 -0.32895359 448 39464760 117 55 103 1614
-1.1899501 -0.82217199 -0.31377053 64 39464760 14 56 109 1480
-1.2054986 -0.90067196 -0.34119278 71 39464760 17 57 66 1543
-1.2566613 -1.013301 -0.38249782 41 39464760 11 58 55 1659
-1.1742164 -1.0210456 -0.38508555 123 39464760 32 59 75 1603
-3.0434256 -2.0975397 -0.94854909 825 39464760 1201 60 53 3816
-3.0230012 -2.2546506 -1.0056957 703 39464760 1072 61 71 3903
-0.97385406 -0.78495258 -0.34678811 202 39464760 34 62 88 1298
-2.8563647 -2.4858677 -1.0923023 601 39464760 934 63 77 3941
-5.1184511 -3.5190225 1.9388132 32 39562850 137 0 84 6507
-5.1349726 -3.8262622 1.9220749 39 39562850 175 1 93 6686
-4.9391723 -3.9773297 1.8362554 36 39562850 155 2 41 6602
-4.4506259 -3.8690319 1.6473166 271 39562850 1014 3 54 6123
-5.2223606 -3.5943561 1.7126143 637 39562850 2748 4 96 6567
-5.1468453 -3.8316174 1.6650331 639 39562850 2806 5 55 6629
-5.0606833 -4.0719762 1.6180649 285 39562850 1277 6 109 6694
-4.3969469 -3.8145597 1.3914819 312 39562850 1119 7 77 5985
-4.9576859 -3.4135933 1.3871067 624 39562850 2382 8 88 6177
-4.8956232 -3.6475151 1.34295 627 39562850 2451 9 103 6251
-4.8095641 -3.8656328 1.2953793 465 39562850 1850 10 69 6305
-4.3420997 -3.7603412 1.1498576 310 39562850 1065 11 64 5858
-4.9263916 -3.3931863 1.1477089 482 39562850 1788 12 127 6091
-4.9476485 -3.6833234 1.1199423 99 39562850 391 13 74 6269
-4.8212042 -3.8734651 1.0620205 156 39562850 615 14 100 6275
-4.2279072 -3.6596408 0.90777653 354 39562850 1137 15 70 5665
-4.7990704 -3.3053672 0.89793658 320 39562850 1111 16 40 5896
-4.7308993 -3.5202947 0.85081244 280 39562850 995 17 74 5958
-4.6484032 -3.7304962 0.80246431 264 39562850 956 18 85 6014
-4.1668358 -3.6023276 0.68870753 352 39562850 1085 19 86 5551
-3.5427775 -2.4400022 0.50267333 21 39562850 40 20 81 4331
-3.5358212 -2.6301658 0.47203916 39 39562850 77 21 90 4432
-3.4826772 -2.7922657 0.4352442 20 39562850 41 22 67 4485
-3.290859 -2.8419154 0.3833946 312 39562850 594 23 137 4365
-3.2382267 -2.2293339 0.31479505 529 39562850 824 24 68 3944
-3.1868956 -2.3693175 0.27998778 542 39562850 859 25 72 3981
-3.1291242 -2.5086219 0.24438308 509 39562850 821 26 123 4018
-3.0876911 -2.6632667 0.20991594 554 39562850 923 27 112 4083
-3.1165555 -2.143326 0.16441683 630 39562850 904 28 69 3786
-3.1232033 -2.3202727 0.13185732 479 39562850 726 29 77 3893
-3.0762372 -2.4614635 0.097181134 495 39562850 770 30 65 3941
-2.1373465 -1.8421879 0.042159162 82 39562850 66 31 80 2822
-3.0651531 -2.107739 0.025970289 528 39562850 731 32 114 3720
-3.0142286 -2.2375998 -0.0095003415 504 39562850 710 33 117 3754
-3.0600762 -2.4479189 -0.046784118 247 39562850 379 34 120 3919
-1.994316 -1.7166659 -0.05645233 128 39562850 89 35 68 2632
-3.2634661 -2.24176 -0.1175771 219 39562850 343 36 156 3961
-3.2319248 -2.3955328 -0.15735789 201 39562850 326 37 75 4026
-2.2891779 -1.8296641 -0.14266032 90 39562850 77 38 133 2934
-2.0133202 -1.7330855 -0.15452248 110 39562850 78 39 74 2661
-3.4125535 -2.3402293 -0.27462122 243 39562850 418 40 113 4147
-3.3544524 -2.4839938 -0.31626511 174 39562850 305 41 121 4186
-2.148633 -1.7163482 -0.23479082 105 39562850 80 42 118 2760
-2.0463805 -1.7596173 -0.25611687 140 39562850 103 43 56 2711
-3.4454634 -2.3610299 -0.43118849 913 39562850 1610 44 110 4199
-3.3966351 -2.5131197 -0.47603086 818 39562850 1480 45 69 4252
-2.2034922 -1.7582811 -0.34448537 108 39562850 87 46 107 2840
-2.1225226 -1.8241876 -0.36955011 132 39562850 105 47 135 2823
-3.3315892 -2.2788975 -0.56649464 866 39562850 1439 48 119 4076
-3.2939012 -2.434885 -0.61458594 578 39562850 992 49 95 4142
-3.2207396 -2.5672367 -0.65831149 808 39562850 1405 50 54 4171
-3.1882212 -2.7385476 -0.71328264 608 39562850 1105 51 86 4263
-3.309993 -2.2598028 -0.71433765 437 39562850 724 52 159 4071
-1.2847371 -0.94868547 -0.30011961 401 39562850 106 53 52 1625
-1.2714274 -1.0127959 -0.3215059 405 39562850 111 54 132 1657
-1.1986246 -1.0296043 -0.32895359 437 39562850 114 55 94 1614
-1.2337284 -0.8412829 -0.32394689 108 39562850 25 56 87 1528
-1.116822 -0.823789 -0.31465805 123 39562850 25 57 59 1423
-1.180644 -0.94010907 -0.35759744 28 39562850 7 58 59 1551
-1.2158068 -1.0441792 -0.39661652 41 39562850 11 59 67 1651
-3.0562387 -2.0788262 -0.94854909 684 39562850 997 60 62 3816
-2.9994316 -2.20856 -0.9933275 797 39562850 1185 61 62 3855
-0.96960437 -0.77176082 -0.34358203 173 39562850 29 62 80 1286
-2.9152825 -2.5058734 -1.1089323 134 39562850 215 63 87 4001
-5.3105674 -3.6033192 2.0031722 37 39660270 169 0 74 6723
-5.0750303 -3.7333868 1.8910275 77 39660270 335 1 80 6578
-5.0266361 -3.9971673 1.8596189 82 39660270 365 2 38 6686
-4.5707388 -3.9244692 1.6828295 284 39660270 1113 3 60 6255
-5.2443171 -3.5622447 1.7126143 615 39660270 2653 4 88 6567
-5.1515403 -3.7862074 1.659005 633 39660270 2763 5 66 6605
-5.0673404 -4.02636 1.6122637 476 39660270 2119 6 91 6670
-4.4823084 -3.8406668 1.4110115 302 39660270 1113 7 80 6069
-4.9591947 -3.3699646 1.3817171 634 39660270 2401 8 88 6153
-4.870707 -3.5826859 1.3300596 602 39660270 2308 9 112 6191
-4.814795 -3.8214469 1.2904483 563 39660270 2223 10 70 6281
-4.4008579 -3.7642207 1.1592795 298 39660270 1038 11 49 5906
-4.9763584 -3.3827708 1.1544923 128 39660270 481 12 110 6127
-4.8655038 -3.5759804 1.0963607 120 39660270 450 13 54 6137
-4.8263502 -3.8291085 1.0579587 167 39660270 653 14 100 6251
-4.3313117 -3.702903 0.92508274 344 39660270 1148 15 58 5773
-4.7898359 -3.2558565 0.89245391 290 39660270 994 16 56 5860
-4.7428389 -3.4841685 0.8490988 317 39660270 1121 17 97 5946
-4.652564 -3.6871305 0.79926187 248 39660270 891 18 69 5990
-4.2522483 -3.6308167 0.69912934 362 39660270 1150 19 98 5635
-3.5478249 -2.4115181 0.50128055 51 39660270 96 20 92 4319
-3.4364886 -2.5236709 0.45670217 40 39660270 74 21 89 4288
-3.3031037 -2.6151578 0.41078904 107 39660270 193 22 64 4233
-3.2718556 -2.7906408 0.37917858 243 39660270 452 23 151 4317
-3.2518446 -2.2094226 0.31479505 508 39660270 791 24 85 3944
-3.1917236 -2.3426356 0.27914381 534 39660270 841 25 89 3969
-3.1350665 -2.48194 0.24365321 479 39660270 768 26 126 4006
-3.0948517 -2.6364994 0.20929898 544 39660270 901 27 128 4071
-3.1395676 -2.1308954 0.16493796 610 39660270 880 28 88 3798
-3.0986981 -2.2726936 0.13023154 466 39660270 690 29 62 3845
-3.0630445 -2.4202297 0.096293412 477 39660270 727 30 49 3905
-2.9891715 -2.5445805 0.05865233 421 39660270 649 31 124 3926
-3.0581698 -2.0754151 0.025802739 545 39660270 745 32 95 3696
-3.0375807 -2.2261562 -0.0095307101 520 39660270 738 33 107 3766
-3.0562072 -2.4142208 -0.046497609 195 39660270 296 34 106 3895
-2.013952 -1.7121674 -0.056709707 115 39660270 81 35 84 2644
-3.247375 -2.2015014 -0.11650849 195 39660270 300 36 137 3925
-3.2175324 -2.3544142 -0.15595083 237 39660270 377 37 53 3990
-3.1847537 -2.5135992 -0.19750723 169 39660270 279 38 123 4062
-1.9782813 -1.6819012 -0.15103832 149 39660270 101 39 76 2601
-3.3871839 -2.2924016 -0.27144256 249 39660270 419 40 95 4099
-3.359971 -2.4563026 -0.31535846 205 39660270 357 41 109 4174
-2.1966736 -1.7327516 -0.23887412 170 39660270 134 42 141 2808
-2.0753503 -1.762494 -0.25838423 162 39660270 121 43 70 2735
-3.4499977 -2.3331575 -0.42995623 897 39660270 1573 44 131 4187
-3.3831031 -2.4711301 -0.47200045 832 39660270 1480 45 74 4216
-2.2048833 -1.7373555 -0.3430298 151 39660270 121 46 115 2828
-2.1246057 -1.8034309 -0.36797923 139 39660270 110 47 123 2811
-3.3159614 -2.2384655 -0.56149125 843 39660270 1376 48 130 4040
-3.3279514 -2.4286194 -0.61814708 606 39660270 1053 49 58 4166
-3.2271202 -2.5400975 -0.65641761 833 39660270 1441 50 71 4159
-3.1598561 -2.6806655 -0.70324349 842 39660270 1488 51 75 4203
-3.2454169 -2.1866412 -0.69749254 683 39660270 1079 52 124 3975
-1.2810038 -0.93383723 -0.29790333 316 39660270 82 53 59 1613
-1.259113 -0.99041945 -0.3168492 409 39660270 109 54 162 1633
-1.213878 -1.0298305 -0.33139932 382 39660270 101 55 97 1626
-1.2875137 -0.8664338 -0.3366673 41 39660270 10 56 101 1588
-1.112395 -0.81003177 -0.31200454 122 39660270 24 57 46 1411
-1.2231064 -0.96171659 -0.36866429 36 39660270 9 58 46 1599
-1.2666073 -1.0743749 -0.4110302 33 39660270 10 59 58 1711
-3.0689363 -2.0600343 -0.94854909 534 39660270 778 60 69 3816
-3.0035479 -2.1832967 -0.99023539 675 39660270 997 61 84 3843
-3.0563092 -2.4021966 -1.0777683 307 39660270 500 62 67 4034
-0.95294046 -0.80899978 -0.36059004 142 39660270 24 63 80 1301
-5.2183585 -3.4941862 1.9602661 66 39757130 288 0 64 6579
-5.1071415 -3.70893 1.894477 99 39757130 431 1 80 6590
-5.0420022 -3.9591308 1.8562812 70 39757130 310 2 52 6674
-4.6476221 -3.9411998 1.7022003 330 39757130 1319 3 56 6327
-5.2275844 -3.5041974 1.7000964 601 39757130 2555 4 92 6519
-5.1558723 -3.7408843 1.6529768 630 39757130 2730 5 61 6581
-5.0919499 -3.9951918 1.6122637 450 39757130 2002 6 105 6670
-4.6037903 -3.8960257 1.4417008 284 39757130 1093 7 74 6201
-4.9603548 -3.3264463 1.3763276 641 39757130 2408 8 101 6129
-4.873632 -3.5389597 1.3249036 603 39757130 2294 9 106 6167
-4.8011785 -3.7628546 1.2805866 678 39757130 2636 10 79 6233
-4.5587006 -3.8510456 1.1946114 366 39757130 1357 11 72 6086
-4.96766 -3.3324766 1.1477089 100 39757130 372 12 100 6091
-4.9255805 -3.5737941 1.1049359 170 39757130 649 13 48 6185
-4.8125143 -3.7702475 1.0498347 286 39757130 1101 14 79 6203
-4.4354033 -3.7450314 0.94238895 343 39757130 1187 15 72 5881
-4.8097229 -3.2264054 0.89245391 296 39757130 1018 16 62 5860
-4.7256689 -3.4271104 0.84224433 311 39757130 1083 17 80 5898
-4.6470032 -3.6365259 0.79445833 304 39757130 1079 18 70 5954
-4.3472676 -3.6660674 0.71104002 371 39757130 1220 19 78 5731
-3.4932668 -2.3432262 0.49153113 147 39757130 264 20 93 4235
-3.4325886 -2.4885309 0.45414603 86 39757130 157 21 80 4264
-3.3755429 -2.6389773 0.41777623 312 39757130 579 22 87 4305
-3.2523479 -2.7397077 0.37496254 384 39757130 700 23 120 4269
-3.2752752 -2.1960895 0.31575283 545 39757130 853 24 86 3956
-3.2254243 -2.3370545 0.28083178 550 39757130 877 25 76 3993
-3.1408 -2.4552803 0.24292335 512 39757130 816 26 137 3994
-3.1018004 -2.6097445 0.20868203 516 39757130 850 27 110 4059
-3.1326618 -2.098248 0.16389571 616 39757130 878 28 71 3774
-3.122299 -2.2606709 0.13063799 478 39757130 712 29 63 3857
-3.0683789 -2.3940103 0.095997497 491 39757130 743 30 54 3893
-2.9955447 -2.51847 0.058473062 553 39757130 847 31 110 3914
-3.0509064 -2.043257 0.025635188 555 39757130 748 32 107 3672
-3.0706275 -2.2215438 -0.0095914472 407 39757130 585 33 80 3790
-3.1182692 -2.4323227 -0.047213875 168 39757130 263 34 100 3955
-2.0703599 -1.7383507 -0.057996619 54 39757130 40 35 59 2704
-3.2508526 -2.1748648 -0.11615228 222 39757130 339 36 155 3913
-3.2319183 -2.3346276 -0.15595083 208 39757130 332 37 66 3990
-3.1906631 -2.4866426 -0.19692375 181 39757130 297 38 104 4050
-2.0527854 -1.7236556 -0.15591615 169 39757130 122 39 73 2685
-3.401186 -2.271575 -0.27144256 257 39757130 432 40 114 4099
-3.3749793 -2.4356401 -0.31535846 215 39757130 374 41 132 4174
-2.2732937 -1.7706709 -0.24601993 168 39757130 140 42 149 2892
-2.0586665 -1.7266955 -0.25498319 149 39757130 109 43 73 2699
-3.4543202 -2.3053188 -0.42872396 880 39757130 1534 44 130 4175
-3.3982022 -2.4503255 -0.47200045 838 39757130 1490 45 64 4216
-3.3530231 -2.6088536 -0.51915401 660 39757130 1209 46 123 4280
-2.2085664 -1.8515042 -0.38054627 150 39757130 127 47 119 2907
-3.329634 -2.2180769 -0.56149125 891 39757130 1454 48 132 4040
-3.2946467 -2.3734708 -0.60924429 802 39757130 1353 49 79 4106
-3.2426453 -2.5202484 -0.65641761 783 39757130 1355 50 81 4159
-3.1762447 -2.6612265 -0.70324349 721 39757130 1274 51 92 4203
-3.2686105 -2.1732275 -0.69959819 279 39757130 443 52 171 3987
-1.3249998 -0.95351452 -0.30676842 149 39757130 41 53 196 1661
-1.2372754 -0.96101165 -0.30986416 328 39757130 84 54 143 1597
-1.2201741 -1.0223628 -0.33139932 356 39757130 94 55 107 1626
-1.2634979 -0.83905482 -0.32903504 75 39757130 18 56 115 1552
-1.1838624 -0.85100681 -0.33057889 66 39757130 15 57 50 1495
-1.210538 -0.93987179 -0.36313084 46 39757130 12 58 59 1575
-1.201741 -1.0067396 -0.38796833 54 39757130 14 59 66 1615
-3.1299703 -2.0732586 -0.96346337 237 39757130 356 60 113 3876
-3.0545695 -2.1918654 -1.0026037 414 39757130 627 61 114 3891
-2.9705026 -2.305409 -1.0425017 667 39757130 1016 62 83 3902
-0.96672165 -0.81054527 -0.36391601 185 39757130 32 63 82 1313
-5.2014713 -3.4368417 1.9459641 69 39855030 296 0 68 6531
-5.1204624 -3.6708272 1.8910275 70 39855030 304 1 93 6578
-5.0388727 -3.9069307 1.8462684 58 39855030 254 2 50 6638
-4.7337408 -3.9645538 1.7247994 433 39855030 1782 3 59 6411
-5.2296629 -3.4592731 1.6938374 620 39855030 2616 4 91 6495
-5.1503992 -3.6888876 1.6439345 576 39855030 2468 5 81 6545
-5.0611391 -3.9210844 1.59486 598 39855030 2605 6 82 6598
-4.6365647 -3.8751888 1.4444907 557 39855030 2151 7 94 6213
-4.9709206 -3.2894943 1.3736329 638 39855030 2388 8 92 6117
-4.8857293 -3.5021613 1.3223255 621 39855030 2353 9 120 6155
-4.7777381 -3.6973865 1.2682595 669 39855030 2551 10 78 6173
-4.6093493 -3.8456151 1.2016778 355 39855030 1329 11 41 6122
-4.9781876 -3.2954278 1.1454479 136 39855030 503 12 103 6079
-4.9186192 -3.5228789 1.0985045 298 39855030 1128 13 74 6149
-4.8636212 -3.762357 1.0559276 249 39855030 970 14 100 6239
-4.5037847 -3.7556758 0.9520036 385 39855030 1357 15 54 5941
-4.8195395 -3.1902862 0.89062637 283 39855030 966 16 54 5848
-4.7369509 -3.3911362 0.84053069 305 39855030 1057 17 102 5886
-4.6692286 -3.607944 0.79445833 296 39855030 1051 18 70 5954
-4.4245782 -3.685046 0.71997297 320 39855030 1079 19 73 5803
-3.4976401 -2.3151691 0.49013838 85 39855030 152 20 79 4223
-3.5254171 -2.5229735 0.46437067 110 39855030 210 21 83 4360
-3.3160386 -2.5598302 0.40845996 360 39855030 638 22 90 4209
-3.2139614 -2.67383 0.36863852 510 39855030 898 23 160 4197
-3.2587612 -2.1561501 0.31287944 545 39855030 838 24 78 3920
-3.210495 -2.2963281 0.27829987 552 39855030 865 25 95 3957
-3.1463246 -2.4286435 0.24219349 516 39855030 818 26 125 3982
-3.0901034 -2.5676863 0.2068312 540 39855030 874 27 106 4023
-3.1354759 -2.0723763 0.16337457 630 39855030 892 28 83 3762
-3.1263542 -2.2344968 0.13023154 511 39855030 756 29 59 3845
-3.0640042 -2.3604956 0.095405683 500 39855030 748 30 56 3869
-3.0017099 -2.4923773 0.058293786 562 39855030 856 31 78 3902
-3.063386 -2.0244985 0.025635188 514 39855030 693 32 109 3672
-3.1037312 -2.2166092 -0.0096521843 266 39855030 387 33 87 3814
-3.0665905 -2.361891 -0.046211105 168 39855030 252 34 99 3871
-2.0440466 -1.6949823 -0.056967091 186 39855030 131 35 69 2656
-3.2541261 -2.1482687 -0.11579608 196 39855030 298 36 162 3901
-3.2266564 -2.3008294 -0.15501277 200 39855030 315 37 76 3966
-3.2248585 -2.4816377 -0.19809072 195 39855030 323 38 129 4074
-2.0817659 -1.7263216 -0.15730982 135 39855030 99 39 78 2709
-3.4350557 -2.2638409 -0.27303189 268 39855030 456 40 107 4123
-3.3996062 -2.4218283 -0.31626511 250 39855030 438 41 107 4186
-3.3171802 -2.5512078 -0.35729036 126 39855030 223 42 177 4200
-2.0876224 -1.7292727 -0.25725052 125 39855030 93 43 72 2723
-3.4584312 -2.2775149 -0.42749169 886 39855030 1536 44 124 4163
-3.3743136 -2.4017689 -0.46662664 790 39855030 1373 45 85 4168
-3.2934017 -2.5301769 -0.50750941 764 39855030 1337 46 145 4184
-2.1557403 -1.7848099 -0.36955011 146 39855030 116 47 134 2823
-3.333251 -2.1910777 -0.55982351 836 39855030 1357 48 100 4028
-3.2898057 -2.3394558 -0.60568321 781 39855030 1302 49 71 4082
-3.2674484 -2.5075183 -0.65831149 491 39855030 855 50 78 4171
-3.1742845 -2.6266031 -0.69922787 522 39855030 912 51 82 4179
-1.3063329 -0.85704005 -0.27847064 252 39855030 64 52 81 1587
-3.1383767 -2.2293804 -0.72342682 152 39855030 234 53 174 3917
-1.2618309 -0.96772963 -0.31452084 245 39855030 64 54 104 1621
-1.2354754 -1.0223465 -0.33384511 289 39855030 78 55 107 1638
-1.2490047 -0.8184315 -0.32394689 62 39855030 15 56 90 1528
-1.3322265 -0.94531256 -0.37038103 69 39855030 19 57 60 1675
-1.2162821 -0.93242633 -0.36313084 67 39855030 17 58 50 1575
-1.2168707 -1.0067724 -0.39085105 62 39855030 17 59 68 1627
-1.2356482 -0.80761558 -0.37882304 171 39855030 40 60 86 1524
-1.1661563 -0.82600558 -0.38109761 157 39855030 34 61 150 1479
-2.9570563 -2.2660377 -1.0328835 553 39855030 827 62 100 3866
-0.97167689 -0.80459827 -0.36391601 208 39855030 36 63 75 1313
-5.2128663 -3.3986056 1.9423887 76 39952400 324 0 79 6519
-5.1428895 -3.6393394 1.8910275 87 39952400 377 1 91 6578
-5.0902071 -3.8969595 1.8562812 65 39952400 288 2 48 6674
-4.8292251 -3.994364 1.750627 438 39952400 1857 3 65 6507
-5.2410889 -3.4207873 1.6907078 596 39952400 2506 4 96 6483
-5.144484 -3.6371 1.6348922 596 39952400 2523 5 55 6509
-5.066606 -3.8758063 1.5890586 594 39952400 2568 6 106 6574
-4.7232618 -3.8986735 1.4640204 508 39952400 2016 7 77 6297
-4.9812202 -3.2525384 1.3709383 638 39952400 2378 8 108 6105
-4.9166932 -3.4788864 1.3249036 603 39952400 2294 9 105 6167
-4.7910032 -3.6608708 1.265794 634 39952400 2409 10 59 6161
-4.6964264 -3.869637 1.2181661 315 39952400 1212 11 43 6206
-4.9983144 -3.2648201 1.1454479 298 39952400 1101 12 114 6079
-4.9112201 -3.4721847 1.0920732 289 39952400 1082 13 72 6113
-4.8678174 -3.7180855 1.0518657 302 39952400 1166 14 117 6215
-4.5633178 -3.7580903 0.95969528 348 39952400 1249 15 70 5989
-4.8390241 -3.1606541 0.89062637 305 39952400 1042 16 55 5848
-4.7382703 -3.3482985 0.83710349 310 39952400 1066 17 82 5862
-4.7007337 -3.5864398 0.79605949 274 39952400 977 18 71 5966
-4.5114784 -3.7107756 0.73039472 442 39952400 1533 19 89 5887
-3.5716538 -2.3327703 0.49849498 22 39952400 41 20 85 4295
-3.4238863 -2.4186831 0.44903365 380 39952400 676 21 106 4216
-3.3126857 -2.5249553 0.40613091 429 39952400 752 22 80 4185
-3.2118354 -2.6388826 0.36653051 503 39952400 876 23 148 4173
-3.2819459 -2.1426532 0.31383723 498 39952400 770 24 82 3932
-3.204967 -2.2627776 0.27661189 554 39952400 857 25 73 3933
-3.1516409 -2.4020319 0.24146363 515 39952400 811 26 124 3970
-3.1243286 -2.5638821 0.20806511 504 39952400 825 27 126 4047
-3.1682167 -2.0661964 0.16441683 559 39952400 802 28 80 3786
-3.0910072 -2.1807029 0.12819932 473 39952400 677 29 57 3785
-3.0879781 -2.3489134 0.095701598 496 39952400 747 30 40 3881
-3.007668 -2.4663041 0.05811451 543 39952400 822 31 109 3890
-3.0858021 -2.0122182 0.025718965 452 39952400 614 32 92 3684
-3.1270816 -2.2044375 -0.0096825529 297 39952400 435 33 91 3826
-3.0810251 -2.3430305 -0.046211105 151 39952400 226 34 102 3871
-2.1008182 -1.7204145 -0.058253996 93 39952400 69 35 90 2716
-3.2672462 -2.1282613 -0.11579608 201 39952400 306 36 128 3901
-3.2995462 -2.3223975 -0.15782692 193 39952400 314 37 55 4038
-3.2209377 -2.4473011 -0.19692375 203 39952400 333 38 134 4050
-2.1293924 -1.7438769 -0.16009714 143 39952400 109 39 78 2757
-3.4388437 -2.2361937 -0.27223724 225 39952400 380 40 110 4111
-3.4241905 -2.4078059 -0.31717175 225 39952400 396 41 128 4198
-3.3518159 -2.5452676 -0.359332 230 39952400 410 42 151 4224
-2.1166868 -1.7315592 -0.25951791 134 39952400 101 43 69 2747
-3.4823499 -2.2627554 -0.42872396 919 39952400 1602 44 121 4175
-3.2621439 -2.2919023 -0.44916174 730 39952400 1175 45 84 4012
-3.3468251 -2.5387161 -0.51333171 832 39952400 1491 46 97 4232
-2.1574411 -1.7640184 -0.36797923 138 39952400 109 47 140 2811
-3.3466325 -2.170584 -0.55982351 799 39952400 1296 48 111 4028
-3.3235247 -2.3328617 -0.60924429 798 39952400 1346 49 94 4106
-3.2827725 -2.4874225 -0.65831149 557 39952400 969 50 86 4171
-3.2361465 -2.6445076 -0.70926702 326 39952400 586 51 74 4239
-1.2718977 -0.82332945 -0.27004805 314 39952400 74 52 50 1539
-1.3076321 -0.91687071 -0.30011961 223 39952400 59 53 98 1625
-1.2489753 -0.94575602 -0.30986416 304 39952400 77 54 138 1597
-1.2326282 -1.0073125 -0.33139932 300 39952400 79 55 107 1626
-1.2146101 -0.78528363 -0.31377053 42 39952400 9 56 112 1480
-1.1558737 -0.80956006 -0.31996498 58 39952400 12 57 60 1447
-1.0171534 -0.76990736 -0.30226323 124 39952400 21 58 87 1311
-1.1689024 -0.95506519 -0.37355462 59 39952400 14 59 87 1555
-1.1722019 -0.75592309 -0.35794306 219 39952400 45 60 34 1440
-1.1807053 -0.82547832 -0.3841897 241 39952400 53 61 41 1491
-3.0354564 -2.2966919 -1.055326 222 39952400 347 62 192 3950
-1.1015521 -0.90080559 -0.41047952 202 39952400 44 63 84 1481
-5.2914248 -3.4037383 1.9638416 62 40049410 270 0 85 6591
-5.1839685 -3.6208775 1.8979268 76 40049410 333 1 77 6602
-5.0772419 -3.837851 1.8429307 69 40049410 301 2 38 6626
-4.970005 -4.0597062 1.7925968 261 40049410 1157 3 49 6663
-5.2327604 -3.3697476 1.6813195 603 40049410 2507 4 90 6447
-5.1476531 -3.5921714 1.628864 631 40049410 2651 5 57 6485
-5.0717087 -3.8306093 1.5832573 612 40049410 2626 6 114 6550
-4.8556514 -3.9581094 1.4974996 386 40049410 1602 7 109 6441
-4.9715929 -3.2029138 1.3628541 651 40049410 2398 8 113 6069
-4.8995132 -3.4218106 1.3145914 615 40049410 2304 9 95 6119
-4.8040009 -3.624332 1.2633286 655 40049410 2475 10 54 6149
-4.7748423 -3.8853066 1.2322989 435 40049410 1712 11 57 6278
-5.0182528 -3.2340896 1.1454479 309 40049410 1142 12 128 6079
-4.9517975 -3.455498 1.0963607 313 40049410 1180 13 72 6137
-4.8527689 -3.6596627 1.0437419 280 40049410 1065 14 103 6167
-4.7149429 -3.8346517 0.98661608 370 40049410 1404 15 76 6157
-4.8583264 -3.1309028 0.89062637 314 40049410 1075 16 70 5848
-4.7392426 -3.3055727 0.83367628 300 40049410 1023 17 100 5838
-4.6751556 -3.5217512 0.78805351 304 40049410 1062 18 67 5906
-4.5618896 -3.7055464 0.73486125 408 40049410 1432 19 82 5923
-3.6760697 -2.3689177 0.51102996 24 40049410 47 20 90 4403
-3.3701503 -2.3498583 0.44008705 472 40049410 806 21 94 4132
-3.3185732 -2.4974 0.40496638 464 40049410 808 22 93 4173
-3.2743788 -2.6567836 0.37180054 228 40049410 408 23 146 4233
-3.3754797 -2.1742957 0.32149962 193 40049410 314 24 66 4028
-3.2286117 -2.2499135 0.27745587 543 40049410 845 25 87 3945
-3.1758909 -2.3898504 0.24219349 521 40049410 826 26 139 3982
-3.1213803 -2.5295725 0.2068312 524 40049410 848 27 106 4023
-3.2715721 -2.1051028 0.16910702 130 40049410 198 28 72 3894
-3.1338556 -2.1822562 0.12941866 502 40049410 733 29 81 3821
-3.0927403 -2.3227177 0.095405683 490 40049410 734 30 59 3869
-3.0040953 -2.4327009 0.057755966 564 40049410 843 31 92 3866
-3.2393715 -2.0841434 0.026891816 126 40049410 187 32 101 3852
-3.1405489 -2.1852086 -0.0096825529 209 40049410 306 33 85 3826
-3.1145346 -2.3384907 -0.046497609 160 40049410 243 34 102 3895
-3.0721633 -2.4845388 -0.084764287 167 40049410 261 35 90 3952
-3.3206053 -2.1341138 -0.11722089 204 40049410 318 36 129 3949
-3.2644958 -2.2679017 -0.1554818 205 40049410 325 37 71 3978
-3.2646568 -2.4490693 -0.19867417 177 40049410 295 38 116 4086
-2.1679966 -1.7533783 -0.16218764 76 40049410 60 39 79 2793
-3.5129671 -2.2538457 -0.2770052 164 40049410 287 40 103 4183
-3.4192398 -2.373105 -0.31535846 254 40049410 443 41 112 4174
-3.3865032 -2.5389981 -0.36137366 210 40049410 378 42 142 4248
-2.1551502 -1.7410606 -0.26291895 114 40049410 89 43 58 2783
-3.4660218 -2.222019 -0.42502722 829 40049410 1420 44 112 4139
-3.413332 -2.3669751 -0.46797013 790 40049410 1381 45 84 4180
-3.3623395 -2.5181324 -0.51333171 846 40049410 1515 46 131 4232
-2.1682243 -1.7507473 -0.36797923 134 40049410 106 47 120 2811
-3.3899167 -2.169224 -0.56482685 668 40049410 1103 48 117 4064
-3.3182666 -2.2989087 -0.60568321 825 40049410 1375 49 83 4082
-3.2600203 -2.4388402 -0.65073568 787 40049410 1338 50 87 4123
-3.2154844 -2.5948815 -0.70123565 112 40049410 197 51 69 4191
-1.2868822 -0.82186854 -0.27215371 298 40049410 72 52 60 1551
-1.3229309 -0.91554135 -0.30233589 333 40049410 89 53 40 1637
-1.264183 -0.94512337 -0.3121925 351 40049410 91 54 134 1609
-1.2022164 -0.97021794 -0.32161632 390 40049410 97 55 97 1578
-1.2490669 -0.796736 -0.32140279 38 40049410 9 56 121 1516
-1.266713 -0.87565488 -0.34915322 58 40049410 15 57 64 1579
-1.1340989 -0.84753102 -0.33546373 124 40049410 26 58 65 1455
-1.1475439 -0.92593056 -0.3649064 34 40049410 8 59 71 1519
-1.1473976 -0.72999847 -0.34899446 237 40049410 47 60 22 1404
-1.2143779 -0.83797389 -0.39346591 243 40049410 57 61 1 1527
-1.2151644 -0.90774912 -0.42052734 220 40049410 54 62 120 1574
-1.1698493 -0.94473761 -0.43376127 280 40049410 69 63 69 1565
-5.2348361 -3.322104 1.9352376 58 40147550 243 0 55 6495
-5.1777 -3.5694308 1.8875777 61 40147550 264 1 79 6566
-5.1099329 -3.8135195 1.8462684 61 40147550 267 2 44 6638
-5.0398002 -4.0654168 1.8087392 75 40147550 337 3 57 6723
-5.2435598 -3.3313644 1.6781899 624 40147550 2585 4 94 6435
-5.1408997 -3.5407531 1.6198218 611 40147550 2543 5 66 6449
-5.0671139 -3.7785356 1.5745555 598 40147550 2537 6 118 6514
-4.9980354 -4.0233822 1.5337687 400 40147550 1742 7 89 6597
-4.9911518 -3.1723485 1.3628541 641 40147550 2361 8 119 6069
-4.9107671 -3.3850319 1.3120133 607 40147550 2264 9 107 6107
-4.8261485 -3.5947869 1.2633286 686 40147550 2596 10 60 6149
-4.7619038 -3.8264542 1.222877 545 40147550 2114 11 44 6230
-5.0181122 -3.1905909 1.1409255 317 40147550 1162 12 120 6055
-4.9729066 -3.4250491 1.0963607 324 40147550 1222 13 66 6137
-4.8656464 -3.6227548 1.041711 310 40147550 1175 14 94 6155
-4.7476182 -3.8130665 0.98853898 521 40147550 1981 15 56 6169
-4.8374124 -3.0755808 0.88331616 293 40147550 987 16 61 5800
-4.7692189 -3.2831657 0.83538991 301 40147550 1031 17 80 5850
-4.6680479 -3.4717071 0.78324997 284 40147550 980 18 77 5870
-4.5473876 -3.6476831 0.72890598 268 40147550 926 19 84 5875
-3.6000116 -2.288765 0.49849498 165 40147550 305 20 82 4295
-3.3451889 -2.3020785 0.43497473 548 40147550 914 21 96 4084
-3.3146605 -2.4627447 0.4026373 403 40147550 694 22 84 4149
-3.3465898 -2.6814897 0.37812459 34 40147550 63 23 142 4305
-3.5603826 -2.2626104 0.33778211 82 40147550 147 24 86 4232
-3.252219 -2.2368443 0.27829987 554 40147550 868 25 90 3957
-3.1616507 -2.3488891 0.24000388 532 40147550 828 26 128 3946
-3.1274858 -2.5028844 0.20621425 537 40147550 864 27 91 4011
-3.3957634 -2.1556666 0.17483945 103 40147550 167 28 81 4026
-3.1175349 -2.1426075 0.12819932 508 40147550 728 29 60 3785
-3.1069341 -2.3036973 0.095405683 544 40147550 814 30 55 3869
-3.0189655 -2.4142222 0.057755966 579 40147550 866 31 95 3866
-3.3736725 -2.1413953 0.027897118 60 40147550 96 32 129 3996
-3.134114 -2.1523108 -0.0096218158 199 40147550 288 33 78 3802
-3.1288247 -2.3193362 -0.046497609 158 40147550 240 34 90 3895
-3.1060994 -2.4806151 -0.085279047 189 40147550 299 35 71 3976
-3.3133774 -2.1008527 -0.11650849 190 40147550 292 36 138 3925
-3.2783499 -2.2478282 -0.1554818 208 40147550 330 37 80 3978
-3.2410955 -2.4004574 -0.19634028 192 40147550 313 38 128 4038
-2.234879 -1.7848989 -0.16636863 54 40147550 45 39 91 2865
-3.5469651 -2.2450557 -0.27859452 175 40147550 309 40 129 4207
-3.4633515 -2.3723664 -0.31807834 147 40147550 261 41 89 4210
-3.3924081 -2.5110574 -0.36035284 222 40147550 398 42 160 4236
-2.2031469 -1.7576045 -0.26745364 160 40147550 129 43 69 2831
-3.4795907 -2.2007101 -0.42502722 738 40147550 1264 44 124 4139
-3.4081099 -2.3325169 -0.46528319 818 40147550 1414 45 61 4156
-3.3585715 -2.4832907 -0.51042056 839 40147550 1486 46 119 4208
-2.1975293 -1.7522442 -0.37112099 143 40147550 115 47 129 2835
-3.3529193 -2.1166649 -0.55648786 629 40147550 1009 48 84 4004
-3.3127177 -2.2651083 -0.60212207 769 40147550 1267 49 80 4058
-3.2367969 -2.3906314 -0.64315981 800 40147550 1329 50 87 4075
-3.2128415 -2.5603566 -0.69722003 164 40147550 285 51 69 4167
-1.2619147 -0.79506427 -0.26583681 215 40147550 49 52 75 1515
-1.250614 -0.85419291 -0.28460574 370 40147550 88 53 58 1541
-1.2415442 -0.91637635 -0.30520746 364 40147550 90 54 130 1573
-1.2265218 -0.97746676 -0.32650784 371 40147550 95 55 88 1602
-1.0851972 -0.68287772 -0.27815333 40 40147550 7 56 88 1312
-1.2720621 -0.86786598 -0.34915322 116 40147550 29 57 53 1579
-1.2332389 -0.90988064 -0.36313084 51 40147550 13 58 65 1575
-1.1805345 -0.94064903 -0.37355462 50 40147550 12 59 73 1555
-1.1518552 -0.72294438 -0.34899446 175 40147550 34 60 14 1404
-1.1619959 -0.79134738 -0.37491345 264 40147550 56 61 25 1455
-1.1927917 -0.8796851 -0.41090918 256 40147550 61 62 95 1538
-1.1936527 -0.95191944 -0.44041321 240 40147550 61 63 97 1589
-5.2648311 -3.2959995 1.9388132 65 40246830 273 0 49 6507
-5.1995039 -3.5375938 1.8875777 71 40246830 308 1 70 6566
-5.1332359 -3.7820938 1.8462684 50 40246830 219 2 44 6638
-5.0917697 -4.0560198 1.8184245 77 40246830 351 3 29 6759
-5.2344537 -3.2806709 1.6688014 607 40246830 2486 4 99 6399
-5.1433163 -3.496083 1.6137936 663 40246830 2735 5 47 6425
-5.0526948 -3.7197597 1.562953 602 40246830 2517 6 127 6466
-5.0043564 -3.9781141 1.5281889 530 40246830 2291 7 85 6573
-5.0105233 -3.1416636 1.3628541 622 40246830 2291 8 128 6069
-4.8926845 -3.3284678 1.3017012 623 40246830 2287 9 117 6059
-4.8008089 -3.5303195 1.2510015 652 40246830 2419 10 75 6089
-4.7392058 -3.7605937 1.2110996 659 40246830 2507 11 52 6170
-5.0176272 -3.1472161 1.1364033 363 40246830 1320 12 118 6031
-4.9547701 -3.3679221 1.0877857 340 40246830 1262 13 65 6089
-4.9163718 -3.6138458 1.0478039 275 40246830 1054 14 105 6191
-4.8080473 -3.8133056 0.99623072 297 40246830 1149 15 73 6217
-4.86624 -3.0521429 0.88514376 300 40246830 1012 16 47 5812
-4.7990985 -3.2605152 0.83710349 292 40246830 1004 17 90 5862
-4.6988487 -3.4500377 0.78485119 292 40246830 1011 18 91 5882
-4.6070189 -3.6492858 0.73486125 270 40246830 948 19 92 5923
-4.1592412 -2.6086066 0.57370448 64 40246830 156 20 136 4943
-3.3592513 -2.2815094 0.43497473 535 40246830 892 21 109 4084
-3.3393397 -2.4494238 0.40380183 375 40246830 650 22 64 4161
-3.3536057 -2.6534877 0.37707058 68 40246830 125 23 142 4293
-3.6350074 -2.2788436 0.34352887 188 40246830 349 24 67 4304
-3.2262661 -2.1899557 0.27492395 561 40246830 857 25 94 3909
-3.1663454 -2.3223615 0.23927402 528 40246830 817 26 117 3934
-3.1333818 -2.4762168 0.2055973 544 40246830 870 27 95 3999
-3.510534 -2.1984203 0.18005078 94 40246830 161 28 54 4146
-3.1107724 -2.1099739 0.12738644 467 40246830 660 29 56 3761
-3.1016507 -2.2704184 0.094813868 481 40246830 712 30 62 3845
-3.0431387 -2.403089 0.057935242 591 40246830 889 31 95 3878
-3.5087934 -2.1970744 0.028902421 86 40246830 148 32 92 4140
-3.1472614 -2.13304 -0.0096218158 181 40246830 262 33 88 3802
-3.1042643 -2.2717493 -0.045924596 161 40246830 239 34 97 3847
-3.0835805 -2.4317935 -0.084249526 194 40246830 300 35 75 3928
-3.3262057 -2.0804827 -0.11650849 204 40246830 314 36 142 3925
-3.2821498 -2.2209504 -0.15501277 218 40246830 344 37 65 3966
-3.2654388 -2.3875995 -0.19692375 192 40246830 315 38 113 4050
-2.7631431 -2.1791663 -0.20469438 68 40246830 85 39 111 3525
-3.5302043 -2.2042248 -0.27621052 200 40246830 348 40 130 4171
-3.487756 -2.3577726 -0.31898499 143 40246830 255 41 106 4222
-3.4174056 -2.4972491 -0.36137366 221 40246830 398 42 144 4248
-2.1951215 -1.7292678 -0.26518628 253 40246830 200 43 64 2807
-3.472774 -2.1666815 -0.42256266 863 40246830 1461 44 152 4115
-3.4322395 -2.3182356 -0.46662664 843 40246830 1465 45 74 4168
-3.3641245 -2.4556134 -0.50896496 827 40246830 1457 46 95 4196
-3.339232 -2.6292503 -0.56119776 660 40246830 1214 47 178 4287
-3.3557563 -2.0897701 -0.55482006 560 40246830 893 48 91 3992
-3.30688 -2.2314634 -0.59856105 795 40246830 1294 49 77 4034
-3.2609792 -2.3777072 -0.6450538 844 40246830 1410 50 88 4087
-3.2191937 -2.5332782 -0.69521219 774 40246830 1337 51 66 4155
-3.3638372 -2.0906491 -0.70591515 110 40246830 178 52 104 4023
-1.2656111 -0.85309505 -0.28682202 354 40246830 85 53 30 1553
-1.2471436 -0.90874112 -0.30520746 384 40246830 95 54 127 1573
-1.2047998 -0.94812649 -0.31917059 417 40246830 102 55 116 1566
-1.1092943 -0.68857586 -0.28324151 101 40246830 18 56 120 1336
-1.2870709 -0.86658055 -0.3518067 63 40246830 16 57 43 1591
-1.2954295 -0.94354433 -0.37973112 50 40246830 13 58 49 1647
-1.1130471 -0.87576377 -0.35049275 93 40246830 20 59 101 1459
-1.1266215 -0.69750768 -0.3400459 80 40246830 15 60 29 1368
-1.176453 -0.79067028 -0.37800556 271 40246830 58 61 17 1467
-1.1794698 -0.85873693 -0.40449706 292 40246830 67 62 90 1514
-1.1994712 -0.9445774 -0.44041321 235 40246830 59 63 102 1589
-5.2459702 -3.2395582 1.9245111 51 40343490 214 0 73 6459
-5.2306547 -3.5120306 1.8910275 75 40343490 326 1 89 6578
-5.1190596 -3.7234051 1.8329177 70 40343490 302 2 47 6590
-5.043889 -3.9675369 1.7925968 91 40343490 402 3 53 6663
-5.2544847 -3.2484913 1.6688014 639 40343490 2618 4 75 6399
-5.1646709 -3.4644585 1.6137936 614 40343490 2536 5 67 6425
-5.0754237 -3.6886868 1.562953 595 40343490 2488 6 121 6466
-5.0011292 -3.9257135 1.519819 557 40343490 2381 7 89 6537
-4.9998708 -3.0924077 1.3547699 668 40343490 2432 8 104 6033
-4.9130158 -3.2983842 1.3017012 572 40343490 2100 9 110 6059
-4.8223801 -3.5007956 1.2510015 643 40343490 2386 10 74 6089
-4.7529297 -3.7241867 1.2087443 652 40343490 2471 11 50 6158
-5.0368438 -3.1163692 1.1364033 333 40343490 1212 12 101 6031
-4.9753423 -3.3374567 1.0877857 294 40343490 1092 13 64 6089
-4.871448 -3.5349886 1.0335872 252 40343490 940 14 105 6107
-4.8127041 -3.7691255 0.99238485 292 40343490 1121 15 73 6193
-4.844533 -2.9972668 0.87783355 316 40343490 1052 16 59 5764
-4.7499599 -3.1847081 0.82510817 302 40343490 1009 17 80 5778
-4.7103 -3.4141617 0.78324997 286 40343490 986 18 78 5870
-4.6105657 -3.606277 0.73188359 291 40343490 1014 19 87 5899
-4.6616945 -2.8840339 0.64055735 133 40343490 406 20 89 5519
-3.3434529 -2.2409256 0.43114048 517 40343490 848 21 92 4048
-3.2865913 -2.3798549 0.39565009 529 40343490 880 22 82 4077
-3.3415656 -2.6107817 0.37390852 61 40343490 110 23 127 4257
-3.6794422 -2.2753706 0.34640226 123 40343490 232 24 85 4340
-3.2396426 -2.1701183 0.27492395 537 40343490 821 25 106 3909
-3.190237 -2.3099141 0.24000388 554 40343490 862 26 129 3946
-3.120173 -2.4348261 0.20374647 554 40343490 870 27 101 3963
-3.625953 -2.2398441 0.18526208 282 40343490 514 28 59 4266
-3.1435933 -2.1041892 0.12819932 520 40343490 744 29 53 3785
-3.0960765 -2.2372916 0.094222054 518 40343490 756 30 56 3821
-3.0389023 -2.3696151 0.05757669 571 40343490 849 31 75 3854
-3.5222085 -2.1755035 0.028902421 470 40343490 806 32 85 4140
-3.1602902 -2.1136885 -0.0096218158 205 40343490 297 33 74 3802
-3.1570511 -2.280766 -0.046497609 146 40343490 222 34 90 3895
-3.0795124 -2.3980849 -0.083734758 210 40343490 320 35 83 3904
-3.3797412 -2.0852273 -0.11793331 92 40343490 145 36 138 3973
-3.3256314 -2.2207465 -0.15641986 223 40343490 358 37 64 4002
-3.2703087 -2.3605034 -0.19634028 204 40343490 332 38 125 4038
-3.2301481 -2.5154791 -0.23814233 207 40343490 349 39 88 4101
-3.5640531 -2.1950808 -0.27779984 158 40343490 278 40 116 4195
-3.5021574 -2.3363276 -0.31898499 151 40343490 269 41 102 4222
-3.4520578 -2.4902236 -0.36341533 247 40343490 450 42 157 4272
-2.2528379 -1.7524409 -0.27085468 209 40343490 172 43 68 2867
-3.4860032 -2.1453321 -0.42256266 812 40343490 1375 44 114 4115
-3.4067097 -2.2706778 -0.46125284 820 40343490 1393 45 65 4120
-3.3887925 -2.441889 -0.51042056 850 40343490 1505 46 123 4208
-3.2707739 -2.5429921 -0.54705983 740 40343490 1292 47 153 4179
-3.4393964 -2.1126792 -0.56649464 149 40343490 247 48 138 4076
-3.3205097 -2.2111309 -0.59856105 808 40343490 1315 49 87 4034
-3.246655 -2.3368862 -0.63937187 816 40343490 1340 50 82 4051
-3.197309 -2.4844415 -0.68718088 845 40343490 1426 51 81 4107
-1.1406418 -0.69925153 -0.23846351 57 40343490 10 52 151 1359
-1.2708217 -0.84531337 -0.28682202 303 40343490 73 53 70 1553
-1.2718091 -0.91481978 -0.30986416 362 40343490 92 54 123 1597
-1.2384245 -0.96234185 -0.32650784 343 40343490 88 55 97 1602
-0 -0 -0 0 40343490 0 56 112 0
-1.1266555 -0.74856758 -0.30669761 65 40343490 13 57 67 1387
-1.2917142 -0.92876136 -0.37696442 44 40343490 12 58 45 1635
-1.0080162 -0.78315753 -0.31589988 141 40343490 24 59 93 1315
-0 -0 -0 0 40343490 0 60 43 0
-1.1522938 -0.76421136 -0.36872935 278 40343490 57 61 19 1431
-1.1565465 -0.83123708 -0.39487889 323 40343490 71 62 116 1478
-1.1597348 -0.90181148 -0.42378336 257 40343490 60 63 89 1529
-5.3146648 -3.2371025 1.9423887 56 40441930 239 0 80 6519
-5.2521057 -3.4798698 1.8910275 79 40441930 343 1 81 6578
-5.1605353 -3.7053707 1.8395931 68 40441930 296 2 42 6614
-5.14116 -3.9932308 1.8184245 99 40441930 451 3 43 6759
-5.2545366 -3.2041266 1.6625425 617 40441930 2509 4 83 6375
-5.16646 -3.4198811 1.6077656 610 40441930 2501 5 59 6401
-5.0790396 -3.6438999 1.5571518 587 40441930 2436 6 105 6442
-4.9974494 -3.8735034 1.5114492 656 40441930 2774 7 76 6501
-4.9688382 -3.0312214 1.3412963 615 40441930 2194 8 114 5973
-4.9233913 -3.2617037 1.299123 603 40441930 2205 9 109 6047
-4.8246775 -3.4574585 1.2460705 648 40441930 2385 10 76 6065
-4.7384658 -3.6661518 1.1993223 664 40441930 2477 11 47 6110
-5.0558705 -3.0854049 1.1364033 349 40441930 1269 12 119 6031
-4.9760356 -3.2938316 1.0834981 284 40441930 1046 13 67 6065
-4.9218903 -3.5256929 1.03968 241 40441930 909 14 110 6143
-4.8169999 -3.7250323 0.98853898 288 40441930 1098 15 61 6169
-4.8425851 -2.9551289 0.87417841 319 40441930 1050 16 57 5740
-4.7991271 -3.1751633 0.83024901 289 40441930 977 17 102 5814
-4.6828008 -3.3505938 0.775244 305 40441930 1030 18 85 5810
-4.613759 -3.5633626 0.72890598 289 40441930 998 19 95 5875
-4.6691289 -2.8491678 0.63916463 326 40441930 990 20 76 5507
-3.3571401 -2.2203681 0.43114048 525 40441930 861 21 77 4048
-3.3205647 -2.3735344 0.39797917 507 40441930 853 22 84 4101
-3.2818065 -2.5318167 0.36547652 62 40441930 107 23 131 4161
-3.7137585 -2.265209 0.34831786 92 40441930 176 24 75 4364
-3.2429113 -2.1435988 0.27407998 571 40441930 867 25 97 3897
-3.1653721 -2.2624359 0.23708443 499 40441930 758 26 147 3898
-3.1160681 -2.4010062 0.20251258 520 40441930 806 27 132 3939
-3.6703422 -2.2362669 0.18682547 88 40441930 164 28 60 4302
-3.1464381 -2.0782509 0.12779288 502 40441930 714 29 55 3773
-3.0902135 -2.2043195 0.093630239 522 40441930 752 30 47 3797
-3.0153561 -2.3216443 0.056859598 568 40441930 823 31 83 3806
-3.6072249 -2.197552 0.029488843 203 40441930 362 32 118 4224
-3.2032461 -2.1140873 -0.0097129224 194 40441930 286 33 84 3838
-3.1416779 -2.2404511 -0.046067853 170 40441930 254 34 90 3859
-3.0941687 -2.3791442 -0.083734758 193 40441930 294 35 95 3904
-3.4129653 -2.076921 -0.11864571 64 40441930 102 36 156 3997
-3.3291824 -2.1937015 -0.15595083 221 40441930 353 37 62 3990
-3.2847309 -2.3403926 -0.19634028 230 40441930 375 38 132 4038
-3.2265284 -2.4810069 -0.23674865 190 40441930 316 39 87 4077
-3.4955866 -2.1234391 -0.27144256 278 40441930 467 40 92 4099
-3.516427 -2.3147948 -0.31898499 153 40441930 273 41 108 4222
-3.4575329 -2.4620597 -0.36239451 225 40441930 408 42 139 4260
-3.3909798 -2.6045418 -0.4057624 126 40441930 232 43 156 4295
-3.4991009 -2.1239021 -0.42256266 763 40441930 1292 44 147 4115
-3.4305408 -2.2562842 -0.46259627 820 40441930 1401 45 79 4132
-3.384299 -2.4072413 -0.50750941 850 40441930 1488 46 126 4184
-3.3146255 -2.5446081 -0.55177248 828 40441930 1471 47 131 4215
-1.3280663 -0.8045947 -0.21792533 237 40441930 58 48 95 1568
-3.3340144 -2.1907151 -0.59856105 781 40441930 1271 49 78 4034
-3.2705925 -2.3237844 -0.64126587 830 40441930 1371 50 66 4063
-3.2124929 -2.4647765 -0.68718088 836 40441930 1410 51 96 4107
-1.1449108 -0.69223952 -0.23846351 71 40441930 13 52 80 1359
-1.2957034 -0.85044247 -0.29125452 185 40441930 46 53 75 1577
-1.2486029 -0.88655305 -0.30287912 302 40441930 74 54 155 1561
-1.2349852 -0.9475733 -0.32406208 266 40441930 67 55 88 1590
-0 -0 -0 5 40441930 0 56 106 0
-1.1703758 -0.76730645 -0.3173115 136 40441930 28 57 71 1435
-1.2307338 -0.87351 -0.35759744 60 40441930 15 58 63 1551
-1.114468 -0.85494888 -0.34761 110 40441930 23 59 79 1447
-0 -0 -0 4 40441930 0 60 44 0
-1.1472591 -0.75077754 -0.36563724 264 40441930 53 61 34 1419
-1.1710565 -0.83081615 -0.39808497 295 40441930 66 62 106 1490
-1.1561012 -0.88765681 -0.42045739 295 40441930 68 63 93 1517
-5.2656908 -3.163141 1.9173602 69 40539100 288 0 62 6435
-5.3022184 -3.4664457 1.9013765 73 40539100 321 1 73 6614
-5.1925783 -3.6803017 1.8429307 61 40539100 266 2 43 6626
-5.0921969 -3.9053421 1.7925968 98 40539100 434 3 37 6663
-5.2840252 -3.1777954 1.6656718 653 40539100 2664 4 110 6387
-5.1581726 -3.3690605 1.5987232 644 40539100 2607 5 45 6365
-5.0917997 -3.6059372 1.5542512 615 40539100 2543 6 106 6430
-4.9840488 -3.8143935 1.5002894 671 40539100 2795 7 79 6453
-4.9873438 -3.0006762 1.3412963 624 40539100 2226 8 111 5973
-4.9138827 -3.2121949 1.2913889 641 40539100 2317 9 103 6011
-4.8362141 -3.4210079 1.2436051 641 40539100 2350 10 76 6053
-4.7421713 -3.6227221 1.1946114 655 40539100 2427 11 73 6086
-5.0646095 -3.0482473 1.1341422 335 40539100 1213 12 130 6019
-4.9862676 -3.2567809 1.0813544 296 40539100 1086 13 78 6053
-4.8854909 -3.4544578 1.0274943 264 40539100 973 14 115 6071
-4.8303514 -3.6882172 0.98661608 290 40539100 1100 15 79 6157
-4.8504643 -2.9192441 0.87235087 313 40539100 1026 16 41 5728
-4.7886834 -3.126179 0.82510817 303 40539100 1013 17 84 5778
-4.7032714 -3.3217976 0.775244 283 40539100 956 18 76 5810
-4.6071315 -3.5133247 0.72443944 284 40539100 969 19 89 5839
-4.6456742 -2.795881 0.6335935 332 40539100 990 20 100 5459
-3.3507164 -2.1866856 0.42858431 497 40539100 805 21 91 4024
-3.3057895 -2.3324585 0.39448556 530 40539100 876 22 87 4065
-3.3828614 -2.5768223 0.37496254 91 40539100 166 23 116 4269
-3.8300877 -2.3040392 0.35789579 79 40539100 159 24 82 4484
-3.225925 -2.1040423 0.27154809 468 40539100 698 25 101 3861
-3.1987689 -2.2567811 0.23854417 507 40539100 780 26 116 3922
-3.1212041 -2.3745849 0.20189564 542 40539100 836 27 93 3927
-3.6942706 -2.2198789 0.18734659 51 40539100 96 28 70 4314
-3.1591308 -2.0589056 0.12779288 417 40539100 594 29 64 3773
-3.1036808 -2.1853168 0.093630239 532 40539100 766 30 47 3797
-3.0295446 -2.3030987 0.056859598 573 40539100 830 31 95 3806
-3.7543581 -2.2557178 0.03057792 227 40539100 436 32 94 4380
-3.1759348 -2.0681992 -0.0095914472 204 40539100 294 33 73 3790
-3.1946137 -2.2487593 -0.046640866 138 40539100 211 34 81 3907
-3.118264 -2.3673682 -0.083992139 195 40539100 299 35 76 3916
-3.6519072 -2.1917343 -0.1264822 69 40539100 125 36 163 4261
-3.3224742 -2.1601605 -0.15501277 216 40539100 340 37 78 3966
-3.3088336 -2.3270891 -0.19692375 220 40539100 360 38 140 4050
-3.2798562 -2.4901385 -0.23953597 198 40539100 338 39 78 4125
-3.477736 -2.0834899 -0.26905859 354 40539100 585 40 100 4063
-3.5506337 -2.3062105 -0.32079828 137 40539100 247 41 97 4246
-3.4823568 -2.447674 -0.36341533 236 40539100 430 42 154 4272
-3.4164159 -2.590905 -0.40689608 275 40539100 511 43 68 4307
-3.4915836 -2.0901301 -0.42009813 676 40539100 1131 44 135 4091
-3.4343178 -2.2287014 -0.46125284 819 40539100 1391 45 75 4120
-3.379509 -2.3727417 -0.50459832 852 40539100 1475 46 122 4160
-3.3301766 -2.5242221 -0.55177248 858 40539100 1524 47 145 4215
-1.3329782 -0.79643065 -0.21792533 169 40539100 42 48 73 1568
-3.3473935 -2.1702166 -0.59856105 534 40539100 869 49 109 4034
-3.2653861 -2.2900648 -0.63747787 837 40539100 1366 50 71 4039
-3.227556 -2.4450185 -0.68718088 841 40539100 1419 51 95 4107
-0 -0 -0 0 40539100 0 52 77 0
-1.2613012 -0.81683332 -0.28238946 81 40539100 19 53 90 1529
-1.3022197 -0.91265631 -0.31452084 198 40539100 52 54 98 1621
-1.259505 -0.95416611 -0.32895359 220 40539100 57 55 99 1614
-0 -0 -0 3 40539100 0 56 103 0
-1.1062777 -0.71561641 -0.29873717 216 40539100 39 57 52 1351
-1.1213095 -0.78554499 -0.32439691 87 40539100 17 58 88 1407
-1.1754067 -0.89029413 -0.3649064 69 40539100 16 59 85 1519
-0 -0 -0 3 40539100 0 60 43 0
-1.1031405 -0.71227688 -0.35017693 244 40539100 45 61 17 1359
-1.1571878 -0.81034875 -0.39167285 280 40539100 60 62 90 1466
-1.1707141 -0.88751185 -0.42378336 285 40539100 67 63 87 1529
-5.3342776 -3.1599631 1.9352376 58 40636280 246 0 71 6495
-5.2654381 -3.3964658 1.8806782 84 40636280 361 1 87 6542
-5.2622857 -3.6814082 1.8596189 59 40636280 262 2 43 6686
-5.0884223 -3.8530922 1.7829115 77 40636280 336 3 48 6627
-5.2635679 -3.1216757 1.6531539 623 40636280 2503 4 112 6339
-5.1982746 -3.349931 1.6047513 623 40636280 2544 5 68 6389
-5.0851984 -3.5546134 1.5455493 587 40636280 2401 6 99 6394
-4.9980483 -3.7767043 1.4974996 692 40636280 2872 7 75 6441
-4.9855485 -2.9580841 1.3359069 653 40636280 2312 8 89 5949
-4.9138021 -3.1692789 1.2862328 596 40636280 2137 9 104 5987
-4.8282261 -3.3710995 1.2362088 610 40636280 2210 10 73 6017
-4.7455225 -3.5793853 1.1899005 724 40636280 2662 11 60 6062
-5.0730839 -3.0110991 1.1318811 277 40636280 1000 12 110 6007
-5.0160813 -3.2325199 1.0834981 286 40636280 1054 13 68 6065
-4.9162931 -3.4311848 1.0295253 262 40636280 970 14 99 6083
-4.8150578 -3.6299875 0.97892439 283 40636280 1057 15 71 6109
-4.8478875 -2.8773208 0.8686958 314 40636280 1020 16 48 5704
-4.7878051 -3.0838742 0.8216809 309 40636280 1024 17 81 5754
