# .PCD v0.7 - Point Cloud Data file format
VERSION 0.7
FIELDS x y z intensity t reflectivity ring noise range
SIZE 4 4 4 4 4 2 1 2 4
TYPE F F F F U U U U U
COUNT 1 1 1 1 1 1 1 1 1
WIDTH 782
HEIGHT 1
VIEWPOINT 0 0 0 1 0 0 0
POINTS 782
DATA ascii
0.9033044 -2.413902 0.56695646 26 19057080 18 9 6 2639
0.96844107 -2.3244359 0.52862978 28 19057080 19 10 7 2573
1.1129282 -2.4173105 0.53272682 23 19057080 17 11 7 2714
0.7493391 -2.2543945 0.45580494 76 19057080 44 12 30 2419
0.84501475 -2.2607787 0.43822274 107 19057080 64 13 12 2453
0.98619223 -2.3683226 0.44054812 19 19057080 13 14 20 2603
1.158942 -2.5188737 0.45012254 43 19057080 34 15 15 2809
0.77183497 -2.3222089 0.37708461 132 19057080 81 16 20 2476
0.87063807 -2.3309445 0.35900345 103 19057080 65 17 22 2514
0.94130909 -2.2639875 0.33011252 106 19057080 65 18 20 2474
1.0616018 -2.311029 0.31798911 80 19057080 52 19 30 2563
0.73646897 -2.2159328 0.27286652 272 19057080 150 20 30 2351
0.89027917 -2.3846722 0.27265802 125 19057080 82 21 21 2560
0.99729973 -2.4018455 0.25357708 92 19057080 63 22 11 2613
1.1201313 -2.4419253 0.23688778 40 19057080 29 23 37 2697
0.76790822 -2.3120122 0.19507076 301 19057080 180 24 31 2444
0.86916935 -2.3299897 0.17533523 246 19057080 153 25 27 2493
1.0188441 -2.4539738 0.16190836 52 19057080 37 26 40 2662
1.024229 -2.2363563 0.12662819 13 19057080 8 27 27 2463
0.78297126 -2.3612206 0.10813468 334 19057080 207 28 33 2490
0.88955516 -2.3871822 0.086335555 292 19057080 190 29 16 2549
0.94276214 -2.2767808 0.060784444 13 19057080 8 30 6 2465
1.0691642 -2.3367317 0.038394421 9 19057080 6 31 13 2570
0.81944197 -2.4716394 0.018179202 283 19057080 192 32 23 2604
0.89511776 -2.4048033 -0.0064938404 69 19057080 45 33 24 2566
1.016896 -2.4566638 -0.031742528 21 19057080 15 34 18 2659
1.0683591 -2.3389633 -0.055165417 57 19057080 38 35 22 2572
0.799362 -2.4150236 -0.075544991 208 19057080 135 36 35 2545
0.89963269 -2.4223628 -0.1010749 33 19057080 22 37 6 2586
0.99145848 -2.3980527 -0.12632294 71 19057080 48 38 20 2598
1.093804 -2.3945591 -0.15312882 184 19057080 128 39 20 2637
0.7679137 -2.3261349 -0.16257417 227 19057080 137 40 33 2455
0.88139403 -2.3765571 -0.19205587 40 19057080 26 41 17 2542
0.97695327 -2.3648388 -0.21845752 99 19057080 65 42 42 2568
1.0605402 -2.3250661 -0.24251272 200 19057080 132 43 17 2567
0.76597106 -2.322974 -0.25251073 152 19057080 92 44 36 2459
0.82977974 -2.2401443 -0.26913878 15 19057080 9 45 13 2404
0.96597767 -2.3417449 -0.30955163 103 19057080 67 46 35 2552
1.0276096 -2.2543294 -0.32713628 191 19057080 119 47 46 2499
0.74485511 -2.2653148 -0.33467105 117 19057080 68 48 29 2408
0.87765068 -2.3725584 -0.37955356 11 19057080 7 49 12 2558
0.90972793 -2.2086627 -0.38179231 194 19057080 113 50 21 2419
1.0114827 -2.2205937 -0.41411555 192 19057080 117 51 26 2475
0.72222626 -2.2031009 -0.41323143 153 19057080 85 52 33 2355
0.80257213 -2.1729774 -0.43531194 24 19057080 13 53 32 2357
0.87395805 -2.123714 -0.45422167 228 19057080 125 54 38 2341
0.97644669 -2.1435771 -0.49037319 240 19057080 139 55 21 2406
0.67589825 -2.0656772 -0.47150385 248 19057080 123 56 62 2224
0.73116863 -1.9828451 -0.47917351 69 19057080 32 57 22 2167
0.86278081 -2.0976977 -0.53743368 264 19057080 143 58 22 2331
0.95873606 -2.1051841 -0.57246345 271 19057080 154 59 26 2383
0.64830875 -1.9892257 -0.53691459 101 19057080 47 60 4 2160
0.74144262 -2.015908 -0.57280594 279 19057080 138 61 23 2223
0.82289654 -2.0018187 -0.6000663 263 19057080 133 62 22 2246
0.92512459 -2.0291266 -0.64329708 229 19057080 123 63 18 2321
0.68000054 -2.094599 0.68738925 27 19153890 14 0 25 2307
0.78129172 -2.1271827 0.68017191 15 19153890 8 1 31 2366
0.85433763 -2.0810468 0.65139502 11 19153890 6 2 11 2342
0.86317331 -1.8960118 0.58192813 13 19153890 6 3 9 2163
0.70310861 -2.1620517 0.61416268 22 19153890 12 4 28 2355
0.83363527 -2.2727594 0.62818646 20 19153890 12 5 13 2501
0.94030279 -2.2929516 0.61734951 23 19153890 15 6 25 2554
0.95415884 -2.1015058 0.55171037 24 19153890 13 7 9 2373
0.74812394 -2.2989726 0.55713314 24 19153890 15 8 27 2481
0.92079645 -2.5074108 0.58758086 25 19153890 19 9 12 2735
0.99421066 -2.4281487 0.55081868 28 19153890 20 10 16 2681
1.0446681 -2.3061938 0.50681674 31 19153890 21 11 6 2582
0.72819519 -2.2365379 0.45128271 53 19153890 30 12 34 2395
0.8351928 -2.2770059 0.44036651 97 19153890 59 13 16 2465
0.94924527 -2.3196001 0.43039337 47 19153890 30 14 30 2543
1.1385798 -2.5151467 0.44819966 176 19153890 138 15 20 2797
0.75390011 -2.3156238 0.3752571 118 19153890 72 16 16 2464
0.83996946 -2.2916367 0.35214895 128 19153890 78 17 19 2466
0.94989133 -2.3247664 0.33811846 99 19153890 63 18 23 2534
1.0817292 -2.3934531 0.32841089 57 19153890 40 19 22 2647
0.7302376 -2.2430768 0.27565205 281 19153890 158 20 27 2375
0.84279424 -2.3004615 0.26243335 262 19153890 159 21 28 2464
0.97803122 -2.3968613 0.25241253 60 19153890 40 22 18 2601
1.0903753 -2.4160659 0.23372577 77 19153890 54 23 34 2661
0.75370753 -2.3166804 0.19507076 292 19153890 174 24 38 2444
0.8589713 -2.3465197 0.1761792 282 19153890 177 25 34 2505
1.0173422 -2.4934497 0.16409795 70 19153890 51 26 39 2698
1.1286447 -2.5048273 0.14143491 33 19153890 25 27 28 2751
0.77587527 -2.3887851 0.10917695 317 19153890 200 28 44 2514
0.87077224 -2.3813319 0.085929111 270 19153890 174 29 15 2537
0.9785099 -2.4047508 0.064039432 16 19153890 11 30 2 2597
1.0154048 -2.255718 0.036960233 9 19153890 5 31 20 2474
0.80055457 -2.4652078 0.018095426 236 19153890 158 32 23 2592
0.87211132 -2.387707 -0.0064331023 111 19153890 72 33 25 2542
0.95207077 -2.3405943 -0.030166743 36 19153890 23 34 27 2527
1.0736575 -2.3892472 -0.056194946 79 19153890 54 35 29 2620
0.7882278 -2.431293 -0.075901203 228 19153890 149 36 51 2557
0.86833006 -2.3827729 -0.099198788 96 19153890 62 37 14 2538
0.96319133 -2.3707781 -0.1245725 63 19153890 41 38 28 2562
1.0938222 -2.4340069 -0.15521932 174 19153890 124 39 21 2673
0.74625891 -2.3080173 -0.16098486 240 19153890 142 40 28 2431
0.85451949 -2.3481874 -0.18933596 148 19153890 93 41 23 2506
0.95342988 -2.3486321 -0.21641587 85 19153890 55 42 46 2544
1.0560358 -2.353328 -0.24478006 198 19153890 133 43 16 2591
0.73702973 -2.2821944 -0.24758166 287 19153890 167 44 36 2411
0.81601888 -2.2451935 -0.26913878 47 19153890 27 45 24 2404
0.92026889 -2.270355 -0.29936263 94 19153890 57 46 35 2468
1.00889 -2.2497373 -0.32556543 196 19153890 121 47 43 2487
0.7127285 -2.2132847 -0.32633203 145 19153890 80 48 22 2348
0.79424626 -2.1882617 -0.34928423 22 19153890 12 49 8 2354
0.8961587 -2.2142031 -0.38179231 157 19153890 92 50 21 2419
0.99783838 -2.2267582 -0.41411555 220 19153890 135 51 24 2475
0.67980528 -2.1175041 -0.39638633 132 19153890 67 52 35 2259
0.79324204 -2.1889491 -0.43752825 24 19153890 13 53 22 2369
0.86532378 -2.13995 -0.45655003 195 19153890 108 54 34 2353
0.96327555 -2.149528 -0.49037319 261 19153890 151 55 24 2406
0.65605378 -2.0474496 -0.46641564 289 19153890 140 56 44 2200
0.71500689 -1.9762894 -0.47652009 105 19153890 49 57 15 2155
0.84551805 -2.0921261 -0.53466696 258 19153890 139 58 22 2319
0.92198718 -2.0578752 -0.5580498 276 19153890 149 59 28 2323
0.6466924 -2.0263855 -0.54586315 255 19153890 123 60 18 2196
0.72118825 -1.9986067 -0.56662184 280 19153890 135 61 21 2199
0.81492907 -2.0175524 -0.60327238 272 19153890 139 62 22 2258
0.89850086 -2.0032046 -0.63331914 240 19153890 125 63 17 2285
0.6428445 -2.022315 0.66236073 16 19251820 8 0 20 2223
0.72536534 -2.012995 0.64222491 25 19251820 12 1 15 2234
0.86311239 -2.1396978 0.66808325 11 19251820 6 2 13 2402
0.93183351 -2.0805881 0.63681179 15 19251820 8 3 13 2367
0.65819383 -2.066978 0.58599734 19 19251820 9 4 23 2247
0.84720421 -2.3543363 0.64928502 23 19251820 15 5 17 2585
0.92621583 -2.2986779 0.61734951 19 19251820 12 6 30 2554
0.99836367 -2.2351987 0.58518964 14 19251820 9 7 25 2517
0.70560205 -2.2143872 0.53557539 21 19251820 12 8 29 2385
0.80210948 -2.226337 0.52055156 28 19251820 16 9 13 2423
0.97052652 -2.4124124 0.54588777 42 19251820 30 10 11 2657
1.0544444 -2.3662992 0.51859409 21 19251820 15 11 8 2642
0.71445835 -2.2409639 0.45128271 97 19251820 55 12 31 2395
0.78922361 -2.1932113 0.42321634 80 19251820 45 13 8 2369
0.86881328 -2.1607845 0.39992902 89 19251820 50 14 18 2363
1.0845773 -2.4355214 0.43281633 357 19251820 260 15 19 2701
0.72887051 -2.2863071 0.36977443 104 19251820 61 16 17 2428
0.8500061 -2.3638058 0.36243069 112 19251820 72 17 32 2538
0.93560892 -2.3305511 0.33811846 117 19251820 75 18 20 2534
1.0573484 -2.3782845 0.32543322 33 19251820 23 19 20 2623
0.70560062 -2.213448 0.27147377 277 19251820 151 20 44 2339
0.82866299 -2.3055897 0.26243335 283 19251820 172 21 20 2464
0.96775025 -2.413903 0.25357708 80 19251820 55 22 9 2613
1.0512792 -2.368084 0.22845575 88 19251820 59 23 49 2601
0.75037092 -2.3554535 0.19794413 267 19251820 164 24 37 2480
0.85264868 -2.3742778 0.17786714 290 19251820 185 25 30 2529
0.93517244 -2.3328786 0.15314998 175 19251820 111 26 34 2518
1.1083981 -2.5007489 0.14081796 51 19251820 38 27 20 2739
0.75756991 -2.382076 0.10865582 312 19251820 195 28 35 2502
0.87234247 -2.4317849 0.087554887 267 19251820 178 29 13 2585
0.92365783 -2.3104568 0.061376259 29 19251820 18 30 10 2489
1.069556 -2.4155035 0.039470062 19 19251820 13 31 17 2642
0.7781409 -2.4472024 0.017927878 217 19251820 143 32 33 2568
0.84530103 -2.3591232 -0.0063419961 165 19251820 104 33 21 2506
0.99112517 -2.4801002 -0.031885784 43 19251820 31 34 23 2671
1.0832285 -2.4506555 -0.057481851 54 19251820 39 35 15 2680
0.76966572 -2.4246511 -0.075544991 210 19251820 136 36 49 2545
0.87791151 -2.4558024 -0.10201294 87 19251820 59 37 36 2610
0.95306963 -2.3877754 -0.12515599 55 19251820 36 38 33 2574
1.0788668 -2.4406726 -0.15521932 163 19251820 116 39 34 2673
0.73569685 -2.3239679 -0.16177951 239 19251820 142 40 35 2443
0.84411806 -2.3646557 -0.19024259 155 19251820 98 41 31 2518
0.93900102 -2.3544378 -0.21641587 109 19251820 71 42 58 2544
1.0271043 -2.3269763 -0.24137904 196 19251820 128 43 14 2555
0.71581548 -2.2639115 -0.24511716 264 19251820 150 44 38 2387
0.80623174 -2.2613904 -0.27048224 108 19251820 63 45 16 2416
0.90632093 -2.275959 -0.29936263 155 19251820 94 46 24 2468
1.0190734 -2.3103096 -0.33341983 178 19251820 115 47 39 2547
0.71342701 -2.2629511 -0.33300325 141 19251820 81 48 23 2396
0.82458776 -2.3160713 -0.36887026 82 19251820 51 49 10 2486
0.8737995 -2.197638 -0.37800437 135 19251820 77 50 17 2395
0.98415643 -2.2328391 -0.41411555 208 19251820 127 51 17 2475
0.67388386 -2.144176 -0.4005976 143 19251820 74 52 26 2283
0.76794595 -2.1604378 -0.43087944 82 19251820 44 53 30 2333
0.85217702 -2.1452193 -0.45655003 223 19251820 123 54 24 2353
0.95006818 -2.1553981 -0.49037319 265 19251820 153 55 24 2406
0.63996863 -2.040247 -0.4638716 252 19251820 120 56 43 2188
0.69895327 -1.9696102 -0.47386658 171 19251820 78 57 20 2143
0.81543016 -2.0538642 -0.5236001 250 19251820 129 58 26 2271
0.90934289 -2.0634935 -0.5580498 274 19251820 148 59 24 2323
0.62384909 -1.9970317 -0.53691459 291 19251820 136 60 22 2160
0.70504284 -1.9920638 -0.56352973 256 19251820 122 61 14 2187
0.7940042 -2.0010178 -0.59686029 273 19251820 136 62 28 2234
0.88619256 -2.0086799 -0.63331914 258 19251820 135 63 28 2285
0.63722998 -2.0480971 0.6695118 30 19351760 15 0 25 2247
0.82789719 -2.342505 0.74571675 15 19351760 10 1 27 2594
0.83298194 -2.1020901 0.6547327 25 19351760 14 2 14 2354
0.86779726 -1.9699222 0.60129881 27 19351760 13 3 11 2235
0.63515693 -2.0377977 0.57660884 22 19351760 11 4 32 2211
0.77089065 -2.1842401 0.60105962 22 19351760 12 5 23 2393
0.89066654 -2.2501836 0.60284644 30 19351760 18 6 31 2494
1.0034071 -2.2840242 0.59634936 19 19351760 12 7 17 2565
0.72681922 -2.3303063 0.56252259 29 19351760 18 8 29 2505
0.80795759 -2.2864676 0.53344178 26 19351760 16 9 10 2483
0.96433866 -2.4401665 0.55081868 49 19351760 35 10 23 2681
0.97850281 -2.2326243 0.48797306 17 19351760 10 11 14 2486
0.69016224 -2.2115557 0.44449934 108 19351760 60 12 31 2359
0.79146951 -2.242548 0.43179142 97 19351760 57 13 17 2417
0.87291723 -2.2100744 0.40805283 111 19351760 64 14 23 2411
1.0791169 -2.46383 0.43666214 161 19351760 119 15 25 2725
0.73249292 -2.3473442 0.37891218 126 19351760 78 16 13 2488
0.80783409 -2.2905712 0.35043535 110 19351760 66 17 30 2454
0.90820271 -2.3030574 0.3333149 119 19351760 74 18 20 2498
1.0045722 -2.2974482 0.31352261 99 19351760 63 19 16 2527
0.6955561 -2.2291136 0.27286652 280 19351760 155 20 32 2351
0.79863364 -2.2656183 0.257321 294 19351760 171 21 26 2416
0.90040606 -2.286443 0.23960267 86 19351760 52 22 21 2469
1.0510783 -2.4073548 0.23161776 80 19351760 55 23 47 2637
0.71809989 -2.3029165 0.19315517 301 19351760 176 24 34 2420
0.82613462 -2.3455935 0.17533523 296 19351760 184 25 29 2493
0.90767527 -2.3051379 0.15096039 258 19351760 159 26 37 2482
1.0643004 -2.4415882 0.13711628 40 19351760 28 27 30 2667
0.75719255 -2.4324672 0.11074035 366 19351760 238 28 36 2550
0.85342473 -2.4257786 0.087148443 265 19351760 175 29 16 2573
0.91384852 -2.3272471 0.06167217 25 19351760 16 30 8 2501
1.0259714 -2.3560157 0.038394421 30 19351760 20 31 20 2570
0.76311052 -2.451931 0.017927878 255 19351760 168 32 38 2568
0.87059325 -2.4774785 -0.0066456837 164 19351760 113 33 17 2626
0.92327642 -2.3521013 -0.030166743 36 19351760 23 34 13 2527
1.0586056 -2.4352508 -0.056967091 87 19351760 61 35 27 2656
0.75121504 -2.4178736 -0.075188793 212 19351760 136 36 51 2533
0.85092545 -2.427196 -0.10060587 215 19351760 142 37 10 2574
0.98214889 -2.505167 -0.13099077 10 19351760 7 38 19 2694
1.0256623 -2.3593545 -0.14964466 105 19351760 70 39 22 2577
0.72142339 -2.3284383 -0.16177951 228 19351760 136 40 26 2443
0.82168579 -2.3472035 -0.18842933 91 19351760 56 41 40 2494
0.88092649 -2.248827 -0.20620757 145 19351760 85 42 40 2424
1.0128068 -2.3332345 -0.24137904 216 19351760 141 43 28 2555
0.70191091 -2.268261 -0.24511716 246 19351760 140 44 31 2387
0.8238247 -2.3563461 -0.28122988 110 19351760 69 45 19 2512
0.87064505 -2.2260118 -0.29208478 130 19351760 75 46 35 2408
0.98120636 -2.2619486 -0.32556543 199 19351760 123 47 39 2487
0.67850751 -2.1991539 -0.32299647 302 19351760 163 48 30 2324
0.84165418 -2.4107189 -0.38311464 258 19351760 172 49 28 2582
0.88185096 -2.2581472 -0.38747421 112 19351760 67 50 15 2455
0.93750137 -2.1628509 -0.40006071 220 19351760 126 51 19 2391
0.66418767 -2.1595626 -0.40270326 150 19351760 79 52 28 2295
0.74303007 -2.1316998 -0.42423064 113 19351760 59 53 28 2297
0.83899814 -2.1504078 -0.45655003 122 19351760 67 54 25 2353
0.92748016 -2.1396291 -0.48548171 255 19351760 145 55 19 2382
0.63087898 -2.0553463 -0.46641564 287 19351760 139 56 34 2200
0.66762418 -1.9185975 -0.46059921 307 19351760 133 57 15 2083
0.79432839 -2.0370712 -0.5180667 234 19351760 118 58 21 2247
0.90129632 -2.0797224 -0.56093252 286 19351760 156 59 23 2335
0.61498147 -2.0119376 -0.53989744 288 19351760 136 60 17 2172
0.67760092 -1.9525367 -0.55116147 143 19351760 65 61 14 2139
0.78171128 -2.005852 -0.59686029 257 19351760 128 62 19 2234
0.89679658 -2.0669658 -0.64994895 259 19351760 142 63 17 2345
0.62465107 -2.0519686 0.6695118 42 19450820 21 0 10 2247
0.74200487 -2.1412034 0.68017191 25 19450820 14 1 26 2366
0.83260953 -2.1393867 0.66474557 17 19450820 10 2 17 2390
0.98892921 -2.2827592 0.69492388 19 19450820 13 3 19 2583
0.67333114 -2.20787 0.62355119 25 19450820 14 4 32 2391
0.76127237 -2.1999056 0.60407376 30 19450820 17 5 16 2405
1.0329448 -2.6571658 0.71016949 15 19450820 13 6 21 2938
1.0078883 -2.3329945 0.60750914 30 19450820 20 7 15 2613
0.68520141 -2.2452478 0.54096484 28 19450820 16 8 30 2409
0.82844472 -2.3910475 0.55664426 32 19450820 21 9 8 2591
0.9748432 -2.5117273 0.56561124 49 19450820 37 10 12 2753
1.0672404 -2.4763124 0.53979325 26 19450820 20 11 8 2750
0.66625428 -2.1819348 0.43771595 244 19450820 132 12 38 2323
0.78155571 -2.2585199 0.4339352 117 19450820 69 13 18 2429
0.88500261 -2.2815475 0.42023855 106 19450820 65 14 38 2483
0.97495604 -2.2637069 0.40012676 70 19450820 44 15 19 2497
0.6765154 -2.2156777 0.35698158 282 19450820 155 16 14 2344
0.79764563 -2.3067095 0.35214895 116 19450820 70 17 24 2466
0.91982371 -2.3751273 0.34292206 85 19450820 56 18 28 2570
1.0374902 -2.4129586 0.32841089 81 19450820 57 19 17 2647
0.68186545 -2.2333393 0.27286652 283 19450820 156 20 27 2351
0.78471702 -2.2704761 0.257321 268 19450820 156 21 33 2416
0.91651541 -2.3699002 0.24775441 91 19450820 59 22 13 2553
1.0127085 -2.3588383 0.22634774 37 19450820 24 23 42 2577
0.71093732 -2.3301613 0.19507076 273 19450820 163 24 23 2444
0.81563401 -2.361933 0.1761792 273 19450820 171 25 38 2505
0.90647405 -2.3441789 0.15314998 282 19450820 179 26 59 2518
1.0587416 -2.4701028 0.13835017 48 19450820 35 27 22 2691
0.72478819 -2.3797245 0.10813468 319 19450820 198 28 32 2490
0.83852434 -2.4309695 0.087148443 257 19450820 170 29 17 2573
0.92113215 -2.3887756 0.06315171 66 19450820 43 30 1 2561
1.0445564 -2.4394767 0.039649334 35 19450820 25 31 8 2654
0.74455589 -2.4450879 0.017844103 240 19450820 157 32 29 2556
0.84755778 -2.4600828 -0.0065849465 215 19450820 145 33 19 2602
0.89156371 -2.3129375 -0.029593728 82 19450820 50 34 15 2479
1.0342127 -2.4196367 -0.05645233 70 19450820 48 35 23 2632
0.7328766 -2.4109612 -0.074832588 195 19450820 124 36 47 2521
0.82042634 -2.3870127 -0.098729767 213 19450820 136 37 15 2526
0.95384014 -2.4775898 -0.12924033 19 19450820 13 38 21 2658
1.0394177 -2.4316971 -0.15382566 75 19450820 53 39 12 2649
0.70017606 -2.3099036 -0.16019019 218 19450820 127 40 47 2419
0.81892079 -2.3861542 -0.19114923 117 19450820 75 41 29 2530
0.87140405 -2.2653494 -0.20722841 35 19450820 21 42 27 2436
1.0031608 -2.3503926 -0.24251272 155 19450820 102 43 18 2567
0.68106264 -2.2496762 -0.24265264 239 19450820 133 44 35 2363
0.80161828 -2.3387959 -0.27854297 122 19450820 75 45 23 2488
0.86978191 -2.2646704 -0.29645148 30 19450820 18 46 34 2444
0.98131078 -2.3007553 -0.33027804 184 19450820 117 47 34 2523
0.67186844 -2.2260289 -0.32633203 254 19450820 140 48 38 2348
0.78841829 -2.3035605 -0.36530915 181 19450820 110 49 26 2462
0.79585332 -2.0754271 -0.35527676 47 19450820 24 50 9 2251
0.92885119 -2.1794462 -0.40206856 211 19450820 122 51 20 2403
0.66453844 -2.208849 -0.41112581 157 19450820 86 52 17 2343
0.72230947 -2.1138988 -0.41979805 142 19450820 73 53 34 2273
0.80473065 -2.1005511 -0.44490829 88 19450820 46 54 25 2293
0.9005155 -2.1128573 -0.47814447 261 19450820 144 55 25 2346
0.61825573 -2.0591786 -0.46641564 255 19450820 123 56 56 2200
0.6860652 -2.0112679 -0.48182702 290 19450820 138 57 20 2179
0.79016465 -2.0637162 -0.5236001 250 19450820 129 58 32 2271
0.88851839 -2.0852134 -0.56093252 257 19450820 140 59 30 2335
0.60262489 -2.0156732 -0.53989744 291 19450820 137 60 22 2172
0.69174647 -2.0334969 -0.57280594 68 19450820 34 61 7 2223
0.76525605 -1.9998106 -0.59365422 286 19450820 141 62 27 2222
0.86147624 -2.0194037 -0.63331914 242 19450820 126 63 29 2285
0.61531723 -2.0667412 0.67308724 31 19547790 16 0 21 2259
0.7879988 -2.3198397 0.7353676 17 19547790 11 1 31 2558
0.79889446 -2.0906196 0.64805746 16 19547790 9 2 19 2330
0.87073296 -2.0442219 0.62066954 26 19547790 14 3 15 2307
0.66639382 -2.234163 0.62981021 29 19547790 17 4 26 2415
0.71418047 -2.1055374 0.57694691 27 19547790 14 5 15 2297
0.92527068 -2.4241235 0.64635575 16 19547790 11 6 40 2674
0.97530305 -2.2961657 0.59634936 31 19547790 20 7 19 2565
0.68813449 -2.3054349 0.55443841 24 19547790 14 8 32 2469
0.80998915 -2.3849885 0.55406624 31 19547790 21 9 16 2579
0.89668369 -2.3530488 0.52862978 46 19547790 30 10 17 2573
0.9923473 -2.3419707 0.5091722 31 19547790 21 11 3 2594
0.65959859 -2.2085662 0.44223818 265 19547790 146 12 40 2347
0.76009786 -2.2409105 0.42964768 120 19547790 69 13 20 2405
0.85835856 -2.2537775 0.41414568 128 19547790 76 14 37 2447
0.97028494 -2.2914612 0.40397257 86 19547790 54 15 27 2521
0.65272635 -2.1856947 0.35149893 341 19547790 182 16 25 2308
0.79491448 -2.3453059 0.35728982 95 19547790 59 17 24 2502
0.87564546 -2.3029127 0.33171368 91 19547790 56 18 10 2486
0.99484801 -2.3534732 0.31947792 83 19547790 55 19 16 2575
0.67155951 -2.2489018 0.2742593 311 19547790 174 20 27 2363
0.77077091 -2.2752483 0.257321 290 19547790 169 21 31 2416
0.88499862 -2.3308167 0.24309628 176 19547790 110 22 24 2505
1.0121607 -2.3980463 0.22950976 19 19547790 13 23 34 2613
0.70004678 -2.345942 0.19602855 293 19547790 177 24 32 2456
0.8126393 -2.4009085 0.17871113 242 19547790 156 25 49 2541
0.90482742 -2.3832905 0.15533957 263 19547790 172 26 61 2554
1.0389118 -2.4655087 0.13773324 43 19547790 31 27 13 2679
0.72044039 -2.4185963 0.10969808 336 19547790 214 28 27 2526
0.82743347 -2.4474299 0.087554887 264 19547790 176 29 26 2585
0.91070497 -2.405602 0.063447617 50 19547790 33 30 16 2573
1.0062925 -2.3905461 0.038752969 21 19547790 14 31 18 2594
0.72611398 -2.4381099 0.017760327 244 19547790 158 32 18 2544
0.8401252 -2.4879756 -0.0066456837 211 19547790 145 33 19 2626
0.92407179 -2.4418111 -0.031169515 71 19547790 48 34 26 2611
0 -0 -0 8 19547790 0 35 30 0
0.72490543 -2.4384074 -0.075544991 229 19547790 148 36 55 2545
0.80576444 -2.3920016 -0.098729767 206 19547790 131 37 28 2526
0.90048188 -2.3824904 -0.12398903 33 19547790 21 38 27 2550
0.99199122 -2.3607187 -0.14894782 88 19547790 58 39 20 2565
0.67578053 -2.2797165 -0.15780622 239 19547790 136 40 40 2383
0.80426419 -2.391134 -0.19114923 244 19547790 156 41 23 2530
0.82369512 -2.1811697 -0.19906177 23 19547790 12 42 36 2340
0.96098828 -2.2904077 -0.23571065 106 19547790 66 43 18 2495
0.66046917 -2.2309217 -0.24018812 252 19547790 138 44 39 2339
0.77206445 -2.298455 -0.27316916 112 19547790 67 45 16 2440
0.81804907 -2.1696553 -0.28335136 28 19547790 15 46 35 2336
0.93497431 -2.2299335 -0.31928188 194 19547790 115 47 47 2439
0.6481055 -2.1959169 -0.32132867 265 19547790 141 48 32 2312
0.7629475 -2.2746012 -0.35996753 91 19547790 53 49 17 2426
0.86659771 -2.3020682 -0.39315611 24 19547790 15 50 11 2491
0.9200325 -2.1960166 -0.4040764 203 19547790 118 51 25 2415
0.62763435 -2.1335497 -0.39638633 309 19547790 158 52 36 2259
0.72430444 -2.1630239 -0.42866313 123 19547790 66 53 29 2321
0.78768283 -2.0944307 -0.44257993 26 19547790 13 54 22 2281
0.89207405 -2.1291785 -0.48059016 256 19547790 142 55 8 2358
0.60230595 -2.051681 -0.4638716 305 19547790 146 56 42 2188
0.69968277 -2.0931344 -0.50040132 99 19547790 51 57 25 2263
0.77337879 -2.0575955 -0.52083337 259 19547790 132 58 28 2259
0.8622058 -2.0583937 -0.5522843 292 19547790 154 59 26 2299
0.58046252 -1.9858633 -0.53094888 303 19547790 138 60 12 2136
0.66458935 -1.9937042 -0.56043768 123 19547790 58 61 18 2175
0.74483818 -1.9828181 -0.58724213 294 19547790 142 62 18 2198
0.84461015 -2.0140188 -0.62999314 245 19547790 126 63 21 2273
0.58661842 -2.0154853 0.65520978 81 19645890 39 0 16 2199
0.67574549 -2.0301902 0.64222491 30 19645890 15 1 31 2234
0.79414827 -2.1170664 0.6547327 21 19645890 12 2 19 2354
0.88049263 -2.1028297 0.63681179 27 19645890 15 3 7 2367
0.62348485 -2.1381159 0.60164475 25 19645890 13 4 28 2307
0.73788226 -2.2201045 0.60708779 25 19645890 15 5 12 2417
0.8858664 -2.364332 0.62895203 26 19645890 17 6 34 2602
0.97018939 -2.323647 0.60192931 25 19645890 17 7 20 2589
0.69362986 -2.376966 0.57060671 28 19645890 18 8 28 2541
0.83234674 -2.5011153 0.57984674 24 19645890 17 9 11 2699
0.97274894 -2.6004984 0.58286929 70 19645890 56 10 21 2837
0.9689104 -2.3262916 0.50446129 32 19645890 21 11 6 2570
0.63942844 -2.1899467 0.43771595 291 19645890 157 12 34 2323
0.768677 -2.3127582 0.44251031 98 19645890 60 13 17 2477
0.84451348 -2.259002 0.41414568 116 19645890 69 14 21 2447
0.93800026 -2.2536294 0.39628091 123 19645890 75 15 20 2473
0.62933105 -2.1555045 0.34601626 326 19645890 168 16 25 2272
0.780509 -2.3501391 0.35728982 84 19645890 52 17 24 2502
0.86149859 -2.3082423 0.33171368 101 19645890 62 18 21 2486
0.94840705 -2.2825623 0.30905613 87 19645890 54 19 27 2491
0.65774786 -2.25298 0.2742593 274 19645890 153 20 32 2363
0.7530368 -2.2686105 0.2560429 263 19645890 152 21 31 2404
0.86650938 -2.3250117 0.24193174 284 19645890 176 22 29 2493
1.0020081 -2.4152529 0.23056377 32 19645890 22 23 40 2625
0.6789391 -2.3272271 0.19411297 285 19645890 168 24 31 2432
0.78658807 -2.3717642 0.1761792 279 19645890 175 25 33 2505
0.87345654 -2.3439023 0.1524201 238 19645890 149 26 42 2506
1.0191784 -2.4607649 0.13711628 62 19645890 44 27 24 2667
0.70223469 -2.4114609 0.10917695 342 19645890 216 28 29 2514
0.81617206 -2.4638457 0.087961331 300 19645890 202 29 18 2597
0.88757038 -2.3886542 0.062855795 103 19645890 67 30 5 2549
0.96408206 -2.3301525 0.037677325 33 19645890 21 31 17 2522
0.71449482 -2.4540408 0.017844103 236 19645890 154 32 29 2556
0.81730497 -2.4702985 -0.0065849465 212 19645890 143 33 28 2602
0.89235961 -2.4024422 -0.030596504 41 19645890 27 34 17 2563
0.96322638 -2.3323467 -0.054135896 17 19645890 11 35 20 2524
0.70323521 -2.4197731 -0.074832588 194 19645890 123 36 53 2521
0.7985884 -2.4196744 -0.099667817 206 19645890 134 37 24 2550
0.92336446 -2.4891083 -0.12924033 45 19645890 32 38 23 2658
0.97291446 -2.3556886 -0.148251 125 19645890 81 39 17 2553
0.66177976 -2.2838202 -0.15780622 208 19645890 118 40 28 2383
0.77459717 -2.3505657 -0.18752268 200 19645890 123 41 23 2482
0.89340347 -2.4104066 -0.21947837 32 19645890 21 42 47 2580
0.93780792 -2.274173 -0.23344329 96 19645890 59 43 17 2471
0.65340441 -2.2578645 -0.24265264 272 19645890 152 44 45 2363
0.76540208 -2.325803 -0.27585608 98 19645890 59 45 22 2464
0.84605926 -2.2863445 -0.29790705 42 19645890 25 46 29 2456
0.94393766 -2.2906253 -0.32713628 127 19645890 79 47 47 2499
0.63461941 -2.1998522 -0.32132867 259 19645890 138 48 35 2312
0.75268126 -2.290514 -0.36174807 94 19645890 56 49 18 2438
0.82781672 -2.2406507 -0.38179231 64 19645890 37 50 19 2419
0.89302701 -2.1688011 -0.3980529 208 19645890 118 51 23 2379
0.604738 -2.1032991 -0.39006943 279 19645890 138 52 41 2223
0.72572315 -2.2122514 -0.43752825 140 19645890 78 53 27 2369
0.77889305 -2.1102684 -0.44490829 40 19645890 21 54 19 2293
0.87451971 -2.123749 -0.47814447 266 19645890 146 55 16 2346
0.58970577 -2.0553381 -0.4638716 284 19645890 136 56 50 2188
0.68318439 -2.0862665 -0.49774787 225 19645890 114 57 28 2251
0.75669801 -2.051347 -0.5180667 227 19645890 114 58 23 2247
0.84512514 -2.0528738 -0.54940158 277 19645890 145 59 18 2287
0.57145905 -2.0005639 -0.53393167 294 19645890 136 60 22 2148
0.6271497 -1.9205902 -0.53879315 110 19645890 48 61 10 2091
0.74065769 -2.0090508 -0.59365422 276 19645890 136 62 30 2222
0.82784283 -2.0085034 -0.62666726 246 19645890 126 63 19 2261
0.58364153 -2.0521007 0.66593629 77 19742800 38 0 22 2235
0.71315503 -2.1872804 0.69052112 31 19742800 18 1 32 2402
0.86078399 -2.3382356 0.72148538 10 19742800 7 2 13 2594
0.85877669 -2.086817 0.63035488 23 19742800 13 3 16 2343
0.61670345 -2.1641839 0.60790372 22 19742800 12 4 22 2331
0.71705455 -2.2025008 0.60105962 15 19742800 9 5 13 2393
0.87937939 -2.3915803 0.63475329 23 19742800 16 6 25 2626
0.92932957 -2.2647715 0.58518964 38 19742800 24 7 15 2517
0.63413733 -2.2237442 0.53288066 42 19742800 24 8 24 2373
0.77702826 -2.383606 0.55148816 31 19742800 20 9 9 2567
0.93653935 -2.5512948 0.57054216 68 19742800 52 10 18 2777
0.99919188 -2.4410889 0.52801591 44 19742800 32 11 8 2690
0.62921274 -2.2051613 0.43997705 280 19742800 153 12 27 2335
0.74350649 -2.2837503 0.436079 61 19742800 36 13 13 2441
0.81841642 -2.2308314 0.40805283 100 19742800 58 14 26 2411
0.91518587 -2.2374163 0.39243507 111 19742800 66 15 14 2449
0.61934733 -2.1707304 0.34784383 334 19742800 174 16 23 2284
0.75872576 -2.3322952 0.35386258 78 19742800 48 17 21 2478
0.84322929 -2.3023179 0.33011252 100 19742800 61 18 22 2474
0.94338614 -2.3103859 0.31203377 91 19742800 57 19 28 2515
0.65045136 -2.2798967 0.27704483 312 19742800 178 20 30 2387
0.74279207 -2.2845354 0.257321 282 19742800 164 21 37 2416
0.81940967 -2.2405508 0.23261547 252 19742800 145 22 27 2397
0.97814393 -2.3992174 0.22845575 22 19742800 15 23 31 2601
0.65480822 -2.2968392 0.19123958 303 19742800 174 24 37 2396
0.76092547 -2.342392 0.17364728 286 19742800 174 25 27 2469
0.86317182 -2.360467 0.15314998 291 19742800 184 26 49 2518
1.0447196 -2.5668721 0.1426688 133 19742800 102 27 29 2775
0.69070619 -2.4272552 0.10969808 354 19742800 226 28 37 2526
0.8010388 -2.4688072 0.087961331 248 19742800 167 29 25 2597
0.88933462 -2.4391377 0.064039432 197 19742800 133 30 5 2597
0.98140019 -2.4138298 0.038932241 34 19742800 23 31 12 2606
0.69942367 -2.4583786 0.017844103 222 19742800 145 32 23 2556
0.79103416 -2.4410203 -0.0064938404 226 19742800 149 33 17 2566
0.87760168 -2.4078724 -0.030596504 75 19742800 49 34 23 2563
1.0165683 -2.5049636 -0.057996619 31 19742800 23 35 13 2704
0.67199117 -2.3663502 -0.073051564 187 19742800 113 36 51 2461
0.76897401 -2.3788905 -0.097791716 221 19742800 138 37 30 2502
0.87937659 -2.4158869 -0.12515599 103 19742800 68 38 43 2574
0.94492686 -2.3283129 -0.1461605 199 19742800 126 39 19 2517
0.65101594 -2.2993586 -0.15860088 246 19742800 141 40 35 2395
0.7785359 -2.4122107 -0.19205587 199 19742800 128 41 55 2542
0.83364528 -2.2922418 -0.20824924 81 19742800 48 42 50 2448
0.92383623 -2.2798843 -0.23344329 75 19742800 46 43 12 2471
0.63953811 -2.2618313 -0.24265264 256 19742800 143 44 42 2363
0.7438007 -2.3077564 -0.27316916 272 19742800 162 45 23 2440
0.82794935 -2.2802966 -0.29645148 101 19742800 60 46 30 2444
0.89860898 -2.2191854 -0.31614012 116 19742800 67 47 38 2415
0.60821444 -2.1579533 -0.31465748 250 19742800 128 48 24 2264
0.7204352 -2.2386062 -0.35284531 102 19742800 58 49 13 2378
0.82616764 -2.2791088 -0.38747421 40 19742800 24 50 6 2455
0.897452 -2.2181084 -0.40608421 205 19742800 121 51 26 2427
0.58862633 -2.0955966 -0.3879638 275 19742800 134 52 39 2211
0.69049174 -2.1492927 -0.42423064 142 19742800 75 53 27 2297
0.74989659 -2.0707335 -0.43559489 39 19742800 20 54 18 2245
0.87469167 -2.1617463 -0.48548171 253 19742800 143 55 13 2382
0.56758833 -2.0250418 -0.45623934 268 19742800 124 56 42 2152
0.65607554 -2.0458434 -0.48713395 237 19742800 115 57 17 2203
0.72422779 -2.0010529 -0.50423312 139 19742800 66 58 14 2187
0.82814473 -2.0472221 -0.5465188 277 19742800 143 59 31 2275
0.56229693 -2.0152283 -0.53691459 300 19742800 140 60 18 2160
0.66126215 -2.0679731 -0.5789901 168 19742800 85 61 21 2247
0.72438312 -2.0026832 -0.59044814 270 19742800 132 62 28 2210
0.80684686 -1.9921718 -0.62001526 265 19742800 133 63 18 2237
0.55570918 -2.0004582 0.64805883 77 19840890 36 0 16 2175
0.65427667 -2.0492785 0.64567459 47 19840890 24 1 28 2246
0.70545936 -1.9531957 0.60133058 22 19840890 10 2 19 2162
0.85895407 -2.1241913 0.64004022 25 19840890 14 3 15 2379
0.5692426 -2.0451615 0.57347935 29 19840890 14 4 23 2199
0.78466904 -2.4613903 0.67038369 18 19840890 13 5 13 2669
0.91210467 -2.5283699 0.66956079 19 19840890 14 6 40 2770
0.96778744 -2.4003243 0.61866885 37 19840890 26 7 22 2661
0.66440856 -2.385299 0.57060671 26 19840890 17 8 27 2541
0.77664387 -2.4329879 0.56180036 24 19840890 16 9 8 2615
0.87709546 -2.435451 0.5434224 58 19840890 40 10 21 2645
0.95785207 -2.3816733 0.51388311 40 19840890 27 11 13 2618
0.60934222 -2.186276 0.43545482 288 19840890 154 12 41 2311
0.74023807 -2.322017 0.44251031 60 19840890 37 13 15 2477
0.82473898 -2.2914515 0.41820762 99 19840890 60 14 29 2471
0.89702308 -2.2319989 0.39051214 111 19840890 66 15 15 2437
0.59964836 -2.1516402 0.34418869 337 19840890 172 16 29 2260
0.72637653 -2.2803233 0.34529451 299 19840890 175 17 17 2418
0.8250652 -2.2962561 0.32851133 110 19840890 67 18 18 2462
0.97352737 -2.4266422 0.32692209 357 19840890 248 19 37 2635
0.63005078 -2.2608821 0.2742593 299 19840890 167 20 29 2363
0.73238009 -2.3004198 0.2585991 276 19840890 162 21 52 2428
0.82177961 -2.2905033 0.23727362 279 19840890 167 22 37 2445
0.9500699 -2.3718843 0.22529373 32 19840890 21 23 30 2565
0.65353817 -2.3469067 0.19507076 281 19840890 168 24 25 2444
0.76105201 -2.3926456 0.17702319 298 19840890 189 25 45 2517
0.86080551 -2.3995416 0.15533957 274 19840890 179 26 58 2554
0.97555578 -2.4397039 0.13526544 197 19840890 136 27 33 2631
0.67258942 -2.4198968 0.10917695 324 19840890 205 28 28 2514
0.78587544 -2.473676 0.087961331 291 19840890 196 29 23 2597
0.88647205 -2.4784353 0.064927161 256 19840890 177 30 14 2633
0.95321828 -2.3863783 0.038394421 30 19840890 20 31 22 2570
0.67468774 -2.4279389 0.017592777 259 19840890 164 32 27 2520
0.7796706 -2.4572659 -0.0065242085 230 19840890 153 33 22 2578
0.87896949 -2.4584064 -0.031169515 119 19840890 81 34 35 2611
0.961191 -2.4108565 -0.055680186 44 19840890 30 35 20 2596
0.66066462 -2.3819871 -0.073407769 198 19840890 121 36 34 2473
0.76521707 -2.41786 -0.099198788 203 19840890 131 37 24 2538
0.86856693 -2.4325252 -0.12573947 107 19840890 71 38 19 2586
0.94837004 -2.3785782 -0.14894782 89 19840890 58 39 20 2565
0.64008617 -2.3148503 -0.15939553 230 19840890 133 40 33 2407
0.73487788 -2.3256652 -0.18480277 186 19840890 111 41 24 2446
0.83563447 -2.3423591 -0.21233255 132 19840890 82 42 42 2496
0.90982968 -2.2855101 -0.23344329 85 19840890 52 43 13 2471
0.61929327 -2.2427011 -0.24018812 245 19840890 134 44 27 2339
0.71886158 -2.2781613 -0.26913878 220 19840890 127 45 19 2404
0.81793863 -2.2965548 -0.29790705 178 19840890 107 46 35 2456
0.91135979 -2.2909825 -0.32556543 89 19840890 55 47 29 2487
0.59496206 -2.1616447 -0.31465748 260 19840890 133 48 32 2264
0.70668578 -2.2429845 -0.35284531 106 19840890 60 49 22 2378
0.7724691 -2.1724868 -0.36853451 220 19840890 120 50 6 2335
0.86634529 -2.1795967 -0.3980529 138 19840890 78 51 22 2379
0.57888174 -2.1105618 -0.39006943 252 19840890 124 52 35 2223
0.67375261 -2.1422386 -0.42201436 118 19840890 61 53 34 2285
0.7450574 -2.0974817 -0.44025159 72 19840890 37 54 22 2269
0.84839219 -2.1343207 -0.47814447 255 19840890 140 55 19 2346
0.55515224 -2.0284863 -0.45623934 249 19840890 115 56 47 2152
0.65753126 -2.0944932 -0.49774787 234 19840890 118 57 29 2251
0.69631052 -1.9614434 -0.4931663 79 19840890 36 58 11 2139
0.81126571 -2.0414398 -0.54363608 273 19840890 140 59 24 2263
0.54992115 -2.0186405 -0.53691459 292 19840890 136 60 18 2160
0.62777919 -2.0055993 -0.56043768 313 19840890 148 61 26 2175
0.70821476 -1.9961922 -0.58724213 301 19840890 145 62 27 2198
0.7988705 -2.007798 -0.62334126 261 19840890 132 63 24 2249
0.53742772 -1.9817189 0.64090776 131 19939450 61 0 12 2151
0.65540403 -2.0971353 0.65947354 24 19939450 12 1 31 2294
0.75504541 -2.1313255 0.6547327 11 19939450 6 2 7 2354
0.85443783 -2.1509037 0.64649713 21 19939450 12 3 11 2403
0.59313703 -2.1827681 0.61103326 51 19939450 28 4 26 2343
0.77647132 -2.4883344 0.67641187 22 19939450 16 5 10 2693
0.81889224 -2.3143737 0.6115483 30 19939450 19 6 22 2530
1.0304018 -2.6015363 0.66888779 46 19939450 38 7 26 2877
0.63134903 -2.3216283 0.55443841 30 19939450 18 8 24 2469
0.7372331 -2.3594027 0.54375398 27 19939450 17 9 7 2531
0.9129833 -2.5847425 0.57547301 46 19939450 36 10 17 2801
0.99510109 -2.5188277 0.54214865 112 19939450 85 11 10 2762
0.60829335 -2.23546 0.44449934 309 19939450 172 12 43 2359
0.71190828 -2.2814312 0.4339352 123 19939450 73 13 12 2429
0.7988528 -2.2630117 0.41211477 121 19939450 72 14 29 2435
0.90505844 -2.2925484 0.40012676 107 19939450 67 15 21 2497
0.58332103 -2.1438353 0.34236118 312 19939450 158 16 25 2248
0.69822967 -2.2393825 0.33844 385 19939450 216 17 42 2370
0.80700737 -2.2900589 0.32691011 89 19939450 53 18 20 2450
0.94115692 -2.3882575 0.32096675 138 19939450 92 19 27 2587
0.60990828 -2.2417037 0.27147377 302 19939450 165 20 45 2339
0.71470135 -2.2934787 0.257321 285 19939450 166 21 45 2416
0.81167406 -2.3067687 0.23843813 284 19939450 171 22 28 2457
0.92674524 -2.355422 0.22318572 98 19939450 63 23 48 2541
0.63912553 -2.3508725 0.19507076 278 19939450 166 24 36 2444
0.73568177 -2.3629827 0.17449127 289 19939450 178 25 38 2481
0.83811551 -2.3821807 0.15387985 277 19939450 177 26 46 2530
0.93866193 -2.3898711 0.13218071 260 19939450 172 27 38 2571
0.6640076 -2.4471188 0.11021921 337 19939450 217 28 35 2538
0.76356024 -2.4555469 0.087148443 304 19939450 201 29 22 2573
0.85933572 -2.4498675 0.064039432 266 19939450 179 30 16 2597
0.91226357 -2.3251638 0.037318781 39 19939450 24 31 13 2498
0.65977752 -2.4320331 0.017592777 254 19939450 161 32 26 2520
0.7681374 -2.4734638 -0.0065545775 237 19939450 159 33 22 2590
0.86386842 -2.4637535 -0.031169515 184 19939450 125 34 30 2611
0.9813773 -2.5060785 -0.057739235 61 19939450 44 35 16 2692
0.65544111 -2.4207296 -0.074476376 215 19939450 135 36 53 2509
0.7361756 -2.376694 -0.097322688 191 19939450 118 37 22 2490
0.85758597 -2.449121 -0.12632294 163 19939450 110 38 41 2598
0.89444137 -2.2839587 -0.14267634 37 19939450 22 39 20 2457
0.61962998 -2.2956145 -0.15780622 224 19939450 127 40 24 2383
0.72412932 -2.3415623 -0.18570942 195 19939450 118 41 30 2458
0.80940139 -2.313585 -0.20927006 116 19939450 70 42 48 2460
0.89143866 -2.2799234 -0.23230961 67 19939450 40 43 20 2459
0.60552067 -2.2464585 -0.24018812 269 19939450 147 44 38 2339
0.70135111 -2.2711356 -0.26779535 210 19939450 120 45 23 2392
0.81561434 -2.3352661 -0.30227378 136 19939450 84 46 43 2492
0.88429695 -2.2632885 -0.32085276 93 19939450 56 47 31 2451
0.58477038 -2.1767311 -0.31632528 237 19939450 123 48 31 2276
0.67892343 -2.2019172 -0.34572315 265 19939450 144 49 18 2330
0.7591244 -2.1771858 -0.36853451 200 19939450 109 50 14 2335
0.83574545 -2.1407883 -0.39002153 103 19939450 56 51 17 2331
0.57814032 -2.1597221 -0.39849198 311 19939450 160 52 47 2271
0.65365696 -2.1237891 -0.41758183 126 19939450 64 53 26 2261
0.74766243 -2.1464813 -0.44956499 114 19939450 61 54 24 2317
0.83528024 -2.1394863 -0.47814447 188 19939450 103 55 15 2346
0.5487476 -2.0545144 -0.46132749 282 19939450 133 56 43 2176
0.63779384 -2.0761142 -0.49244088 234 19939450 116 57 27 2227
0.69193971 -1.9877342 -0.49869969 104 19939450 49 58 11 2163
0.81143057 -2.0789332 -0.5522843 282 19939450 149 59 40 2299
0.52557963 -1.977044 -0.52498311 282 19939450 126 60 20 2112
0.61206561 -1.998327 -0.55734563 286 19939450 134 61 21 2163
0.68075478 -1.9568131 -0.57441789 292 19939450 135 62 13 2150
0.77814239 -1.9911841 -0.61668932 275 19939450 136 63 22 2225
0.52232772 -1.9739056 0.63733232 110 20037640 50 0 24 2139
0.64588493 -2.1121082 0.66292322 31 20037640 16 1 31 2306
0.73438913 -2.1141417 0.64805746 18 20037640 10 2 12 2330
0.82862145 -2.1238048 0.63681179 21 20037640 12 3 11 2367
0.55894834 -2.1079819 0.58912677 62 20037640 32 4 26 2259
0.7238782 -2.3708527 0.6432569 25 20037640 16 5 10 2561
0.78177619 -2.2533493 0.59414452 27 20037640 16 6 29 2458
0.96364588 -2.4772832 0.63540852 41 20037640 30 7 28 2733
0.59609729 -2.2463422 0.53557539 51 20037640 29 8 25 2385
0.70560884 -2.3078434 0.53086376 31 20037640 19 9 9 2471
0.84329927 -2.4349337 0.54095691 49 20037640 34 10 19 2633
0.95409012 -2.4590671 0.52801591 54 20037640 39 11 3 2690
0.59154087 -2.2277598 0.44223818 322 20037640 177 12 37 2347
0.7047919 -2.308341 0.43822274 122 20037640 73 13 21 2453
0.79268885 -2.2902234 0.41617665 109 20037640 66 14 25 2459
0.85243827 -2.198663 0.38282052 98 20037640 56 15 18 2389
0.57015574 -2.1473742 0.34236118 325 20037640 164 16 28 2248
0.68101025 -2.2322645 0.33672637 239 20037640 133 17 31 2358
0.83566236 -2.4186146 0.34452322 70 20037640 47 18 15 2582
0.91789001 -2.371778 0.31798911 112 20037640 73 19 29 2563
0.60531723 -2.2799633 0.27565205 286 20037640 161 20 38 2375
0.7040953 -2.3092339 0.2585991 286 20037640 168 21 47 2428
0.80139977 -2.3229961 0.23960267 285 20037640 174 22 33 2469
0.88642555 -2.2941628 0.21686168 280 20037640 170 23 53 2469
0.62775606 -2.3663118 0.19602855 273 20037640 165 24 30 2456
0.73163331 -2.4018047 0.17702319 286 20037640 181 25 35 2517
0.8195771 -2.3759551 0.15314998 282 20037640 178 26 50 2518
0.91104239 -2.3620417 0.13032988 230 20037640 147 27 45 2535
0.63977444 -2.416379 0.10865582 330 20037640 206 28 37 2502
0.73800659 -2.4257643 0.085929111 283 20037640 182 29 14 2537
0.85599107 -2.4891272 0.064927161 283 20037640 196 30 24 2633
0.90660691 -2.3531103 0.037677325 522 20037640 332 31 24 2522
0.65098375 -2.4592359 0.017760327 277 20037640 179 32 29 2544
0.73550332 -2.420722 -0.0064027342 270 20037640 173 33 15 2530
0.85653639 -2.4917026 -0.031456023 232 20037640 161 34 29 2635
0.92722768 -2.4112723 -0.055422802 47 20037640 31 35 23 2584
0.64057547 -2.4247057 -0.074476376 222 20037640 140 36 36 2509
0.72505611 -2.3926418 -0.097791716 213 20037640 133 37 34 2502
0.82697576 -2.4089913 -0.12398903 249 20037640 162 38 34 2550
0.87181062 -2.267041 -0.14128268 31 20037640 18 39 24 2433
0.61163121 -2.322531 -0.15939553 216 20037640 125 40 41 2407
0.71667808 -2.3688674 -0.18752268 189 20037640 116 41 36 2482
0.79906929 -2.3298178 -0.21029089 96 20037640 58 42 41 2472
0.8474592 -2.2072821 -0.22437385 14 20037640 8 43 19 2375
0.58261794 -2.2154996 -0.23649134 239 20037640 127 44 44 2303
0.68395394 -2.2639811 -0.26645187 211 20037640 119 45 23 2380
0.83213764 -2.4303799 -0.31391835 155 20037640 104 46 54 2588
0.82777888 -2.1575983 -0.30514392 24 20037640 13 47 27 2331
0.56839055 -2.1687829 -0.31465748 244 20037640 125 48 35 2264
0.66197294 -2.1946797 -0.34394258 220 20037640 118 49 19 2318
0.74958372 -2.1930153 -0.37042847 106 20037640 58 50 16 2347
0.82682884 -2.1569231 -0.3920294 39 20037640 21 51 18 2343
0.54398388 -2.083215 -0.3837525 279 20037640 133 52 47 2187
0.65421325 -2.172931 -0.42644686 188 20037640 100 53 36 2309
0.70785016 -2.0730455 -0.43326652 92 20037640 46 54 21 2233
0.79690504 -2.0787532 -0.46346995 99 20037640 51 55 12 2274
0.53021777 -2.035146 -0.45623934 269 20037640 124 56 51 2152
0.62167507 -2.0687809 -0.48978746 250 20037640 123 57 31 2215
0.6835013 -2.0029936 -0.50146645 200 20037640 94 58 24 2175
0.79865921 -2.083873 -0.5522843 298 20037640 157 59 26 2299
0.50468707 -1.9464779 -0.5160346 274 20037640 118 60 13 2076
0.59313744 -1.979831 -0.55116147 279 20037640 128 61 21 2139
0.66873515 -1.9609532 -0.57441789 288 20037640 133 62 17 2150
0.76177931 -1.9851567 -0.61336333 260 20037640 127 63 18 2213
0.5130685 -1.9881648 0.64090776 198 20135420 92 0 16 2151
0.60985821 -2.0389516 0.63877511 49 20135420 24 1 24 2222
0.68053401 -1.9985839 0.61134344 11 20135420 5 2 11 2198
0.81557441 -2.128849 0.63681179 28 20135420 16 3 14 2367
0.56050557 -2.1674507 0.60477424 76 20135420 41 4 24 2319
0.67940462 -2.2750828 0.61613005 21 20135420 13 5 17 2453
0.76418608 -2.2470796 0.59124392 22 20135420 13 6 32 2446
0.90678406 -2.3741198 0.60750914 43 20135420 29 7 25 2613
0.56472379 -2.1820343 0.51940709 117 20135420 62 8 32 2313
0.6847192 -2.2896726 0.5257076 27 20135420 16 9 13 2447
0.77926528 -2.2954934 0.50890636 32 20135420 20 10 15 2477
0.94736123 -2.4868667 0.53272682 107 20135420 79 11 10 2714
0.57786041 -2.2313476 0.44223818 289 20135420 159 12 46 2347
0.67372262 -2.2560558 0.42750388 167 20135420 96 13 16 2393
0.78622073 -2.3174438 0.42023855 113 20135420 69 14 27 2483
0.86000133 -2.259202 0.39243507 139 20135420 83 15 20 2449
0.55696899 -2.1508322 0.34236118 323 20135420 163 16 24 2248
0.6537168 -2.1908765 0.32987189 292 20135420 156 17 36 2310
0.79410309 -2.3448467 0.3333149 91 20135420 57 18 20 2498
0.89909035 -2.3662345 0.31650025 91 20135420 59 19 25 2551
0.59430397 -2.2951729 0.27704483 323 20135420 184 20 35 2387
0.67968351 -2.2792082 0.25476483 272 20135420 155 21 30 2392
0.77182829 -2.2826133 0.23494454 311 20135420 182 22 31 2421
0.88081169 -2.3219113 0.21896969 260 20135420 161 23 43 2493
0.62221342 -2.4048603 0.19890194 275 20135420 171 24 43 2492
0.71004671 -2.3833046 0.17533523 297 20135420 184 25 50 2493
0.80114675 -2.3695924 0.1524201 239 20135420 150 26 46 2506
0.90077597 -2.3787949 0.13094683 272 20135420 176 27 43 2547
0.63692498 -2.466691 0.11074035 353 20135420 229 28 39 2550
0.72310853 -2.4302468 0.085929111 282 20135420 181 29 22 2537
0.83687037 -2.4829643 0.064631246 251 20135420 172 30 23 2621
0.90488636 -2.392297 0.038215145 96 20135420 63 31 24 2558
0.63888139 -2.474803 0.017844103 257 20135420 168 32 33 2556
0.72747225 -2.448195 -0.0064634713 253 20135420 165 33 20 2554
0.83740038 -2.4855402 -0.031312767 260 20135420 179 34 24 2623
0.90817767 -2.4056921 -0.055165417 76 20135420 50 35 24 2572
0.61970067 -2.4053597 -0.073763974 215 20135420 133 36 47 2485
0.72398961 -2.4430323 -0.099667817 202 20135420 131 37 20 2550
0.81600082 -2.42538 -0.1245725 189 20135420 124 38 46 2562
0.87480891 -2.3171782 -0.14407001 33 20135420 20 39 21 2481
0.5884344 -2.2914479 -0.15701155 227 20135420 127 40 41 2371
0.69534022 -2.3502722 -0.18570942 182 20135420 110 41 36 2458
0.78856826 -2.3460102 -0.21131173 184 20135420 113 42 57 2484
0.84232646 -2.234798 -0.22664122 32 20135420 18 43 15 2399
0.57494265 -2.2421577 -0.23895586 248 20135420 134 44 42 2327
0.65991431 -2.2338274 -0.26242152 205 20135420 113 45 22 2344
0.82478791 -2.4580255 -0.3168295 323 20135420 220 46 41 2612
0.80613822 -2.1403704 -0.30200216 33 20135420 17 47 41 2307
0.54330409 -2.1261754 -0.30798629 237 20135420 116 48 40 2216
0.66192293 -2.24423 -0.35106477 214 20135420 120 49 20 2366
0.7436409 -2.2200453 -0.37421641 106 20135420 59 50 18 2371
0.7885775 -2.0955191 -0.37998238 20 20135420 10 51 20 2271
0.53119123 -2.0865135 -0.3837525 274 20135420 131 52 64 2187
0.63753748 -2.165591 -0.42423064 247 20135420 130 53 32 2297
0.70632339 -2.1108403 -0.44025159 84 20135420 43 54 32 2269
0.78827292 -2.0945988 -0.46591565 23 20135420 12 55 11 2286
0.52060723 -2.0497272 -0.45878339 272 20135420 127 56 39 2164
0.5924738 -2.0164149 -0.47652009 255 20135420 118 57 31 2155
0.68971407 -2.0625193 -0.51529998 125 20135420 62 58 21 2235
0.77765399 -2.0669293 -0.5465188 291 20135420 150 59 29 2275
0.5098232 -2.0171518 -0.53393167 316 20135420 146 60 4 2148
0.58749694 -2.0056875 -0.55734563 271 20135420 127 61 21 2163
0.67135143 -2.0088899 -0.58724213 281 20135420 136 62 18 2198
0.75364894 -2.0005832 -0.61668932 274 20135420 136 63 13 2225
0.49806553 -1.9801667 0.63733232 135 20232840 62 0 17 2139
0.58443218 -1.9985294 0.62497616 98 20232840 46 1 24 2174
0.69014829 -2.0683253 0.63136929 15 20232840 8 2 7 2270
0.80656511 -2.1446311 0.64004022 32 20232840 18 3 17 2379
0.55852199 -2.2157826 0.61729223 61 20232840 34 4 24 2367
0.66217697 -2.2680593 0.61311603 25 20232840 15 5 13 2441
0.77615345 -2.3290546 0.6115483 28 20232840 18 6 26 2530
0.8921997 -2.3796391 0.60750914 44 20232840 30 7 28 2613
0.56562603 -2.2421496 0.53288066 67 20232840 38 8 36 2373
0.66736829 -2.282582 0.52312958 33 20232840 20 9 4 2435
0.78370023 -2.3559499 0.5212335 71 20232840 46 10 21 2537
0.96093285 -2.5697813 0.54921508 93 20232840 73 11 15 2798
0.5555048 -2.2005715 0.43545482 393 20232840 210 12 45 2311
0.66979396 -2.2941487 0.4339352 172 20232840 101 13 25 2429
0.75706279 -2.2773325 0.41211477 95 20232840 56 14 30 2435
0.84197688 -2.2533407 0.39051214 144 20232840 85 15 19 2437
0.54666382 -2.1657083 0.34418869 331 20232840 169 16 30 2260
0.64691359 -2.2176499 0.33329913 286 20232840 156 17 35 2334
0.75348151 -2.2706628 0.32210654 185 20232840 108 18 22 2414
0.85126668 -2.282454 0.30458963 60 20232840 36 19 28 2455
0.57437623 -2.2756634 0.2742593 295 20232840 165 20 39 2363
0.67570442 -2.3177004 0.2585991 310 20232840 183 21 41 2428
0.76907647 -2.3213181 0.23843813 302 20232840 182 22 40 2457
