# .PCD v0.7 - Point Cloud Data file format
VERSION 0.7
FIELDS x y z intensity t reflectivity ring noise range
SIZE 4 4 4 4 4 2 1 2 4
TYPE F F F F U U U U U
COUNT 1 1 1 1 1 1 1 1 1
WIDTH 790
HEIGHT 1
VIEWPOINT 0 0 0 1 0 0 0
POINTS 790
DATA ascii
5.5001693 -0.34793875 -0.72771138 476 1853080 1472 47 174 5559
1.9977794 -0.34951946 -0.28463715 162 1853080 68 48 173 2048
5.58638 -0.76769125 -0.84605718 453 1853080 1474 49 68 5702
5.6308069 -0.56586945 -0.90452737 485 1853080 1594 50 74 5731
5.6821299 -0.36104265 -0.96626955 532 1853080 1775 51 79 5775
5.75072 -1.0113877 -1.0407115 491 1853080 1727 52 113 5931
5.7996082 -0.79998451 -1.1001923 474 1853080 1683 53 95 5957
5.8338418 -0.58812481 -1.1597108 463 1853080 1655 54 87 5977
5.8212085 -0.36977771 -1.2143157 640 1853080 2273 55 85 5958
5.9168439 -1.0440114 -1.3034197 729 1853080 2755 56 134 6148
7.2635684 -1.0057957 -1.6626239 181 1853080 1025 57 83 7519
8.3675671 -0.84517914 -1.9927238 109 1853080 817 58 71 8643
10.248497 -0.6519081 -2.5413725 64 1853080 717 59 111 10579
6.2599621 -1.1121033 -1.6316237 205 1853080 881 60 56 6564
7.0654478 -0.98439497 -1.902396 163 1853080 886 61 50 7383
8.1474752 -0.82452857 -2.2704201 68 1853080 494 62 68 8498
8.8651257 -0.56018335 -2.5623789 17 1853080 142 63 48 9245
7.8622289 -1.4060338 2.4930151 81 1950710 569 0 89 8367
8.2202682 -1.1490295 2.4912806 28 1950710 211 1 109 8666
2.2609863 -0.22987193 0.65807033 186 1950710 104 2 39 2366
2.2059059 -0.14061026 0.61744106 253 1950710 133 3 57 2295
2.2724171 -0.40519857 0.62355119 205 1950710 117 4 81 2391
2.2363293 -0.31358913 0.58598924 216 1950710 117 5 53 2333
2.1295228 -0.21733235 0.53323144 205 1950710 100 6 108 2206
2.0702145 -0.13406526 0.4959116 262 1950710 119 7 73 2133
2.1499293 -0.38293171 0.5032388 234 1950710 118 8 89 2241
2.0650556 -0.28876382 0.45867828 223 1950710 101 9 55 2135
2.0142872 -0.20667301 0.42508161 238 1950710 102 10 63 2069
1.93927 -0.12728493 0.38904369 227 1950710 89 11 38 1982
2.0256498 -0.36046755 0.39475456 234 1950710 103 12 114 2095
1.9575297 -0.27449447 0.35890317 197 1950710 79 13 33 2009
1.9049314 -0.1958223 0.32884556 206 1950710 78 14 105 1943
1.8920746 -0.12465155 0.30782679 225 1950710 83 15 66 1921
1.8487862 -0.32902771 0.28936219 237 1950710 86 16 11 1900
1.8054006 -0.25357988 0.26304072 193 1950710 66 17 69 1842
1.8000848 -0.1860286 0.24364811 170 1950710 57 18 74 1826
1.8366119 -0.12212446 0.23014818 170 1950710 59 19 76 1855
1.8178663 -0.32355765 0.21576303 186 1950710 64 20 59 1859
1.7880793 -0.2514334 0.19341677 206 1950710 68 21 73 1816
1.7076795 -0.17729239 0.16740163 186 1950710 55 22 80 1725
1.7383387 -0.11653457 0.15362135 165 1950710 50 23 125 1749
1.7389563 -0.30985707 0.14143428 194 1950710 61 24 44 1772
1.7039019 -0.2400516 0.12132101 183 1950710 54 25 52 1725
1.6659331 -0.17301704 0.10205944 170 1950710 48 26 112 1678
1.6410728 -0.11099231 0.084675863 213 1950710 58 27 118 1647
1.6345416 -0.29207608 0.072176643 225 1950710 62 28 16 1662
1.643733 -0.23215999 0.056258675 237 1950710 65 29 3 1661
1.6514493 -0.17308621 0.040958606 182 1950710 50 30 48 1661
1.47443 -0.10026448 0.022080526 461 1950710 101 31 76 1478
1.6773738 -0.29982039 0.011896068 191 1950710 56 32 72 1704
1.5901296 -0.22518353 -0.0040643439 91 1950710 23 33 53 1606
1.5702664 -0.16477148 -0.018849738 107 1950710 27 34 91 1579
1.5599686 -0.10709339 -0.033545382 113 1950710 28 35 76 1564
1.5476407 -0.27741194 -0.046692446 51 1950710 13 36 126 1573
1.7035086 -0.24251343 -0.067305095 213 1950710 63 37 42 1722
1.734336 -0.18272218 -0.084896013 235 1950710 72 38 111 1746
1.7539023 -0.12037638 -0.10226008 203 1950710 63 39 84 1761
1.7862816 -0.32163614 -0.1204572 267 1950710 88 40 59 1819
1.7985411 -0.2568751 -0.13765767 234 1950710 78 41 80 1822
1.8548932 -0.19594732 -0.15924941 222 1950710 78 42 159 1872
1.8462732 -0.12771977 -0.17562568 241 1950710 83 43 79 1859
1.8432854 -0.33256453 -0.19336222 275 1950710 98 44 98 1883
1.8453726 -0.26431972 -0.21002677 239 1950710 84 45 62 1876
1.8556896 -0.19701397 -0.22803961 242 1950710 86 46 103 1880
5.5572715 -0.38580021 -0.73556578 459 1950710 1448 47 151 5619
1.9137465 -0.34693277 -0.2729626 203 1950710 78 48 94 1964
5.6168046 -0.80701739 -0.85139889 475 1950710 1565 49 79 5738
5.6390119 -0.60166597 -0.9064213 517 1950710 1706 50 75 5743
5.6916099 -0.39672339 -0.96827745 488 1950710 1635 51 104 5787
5.7676511 -1.0508897 -1.0449228 463 1950710 1642 52 113 5955
5.7945905 -0.8355552 -1.1001923 467 1950710 1657 53 107 5957
5.8535337 -0.62641478 -1.1643674 485 1950710 1747 54 87 6001
5.8422694 -0.4071224 -1.2192072 723 1950710 2588 55 76 5982
5.8987908 -1.0781882 -1.3008757 713 1950710 2683 56 157 6136
7.095108 -1.0268768 -1.6254752 192 1950710 1039 57 87 7351
8.1532402 -0.87410069 -1.9429229 123 1950710 876 58 75 8427
9.5354624 -0.66532117 -2.3655255 70 1950710 679 59 108 9847
6.1387062 -1.1294601 -1.6017951 209 1950710 866 60 55 6444
6.9445362 -1.011025 -1.8714753 160 1950710 846 61 68 7263
7.9583006 -0.85474688 -2.2191234 92 1950710 637 62 71 8306
8.9075298 -0.61775899 -2.5756826 26 1950710 221 63 51 9293
7.740819 -1.4333922 2.4572601 28 2046860 193 0 76 8247
8.7248402 -1.274187 2.6465182 38 2046860 324 1 87 9206
2.3168333 -0.24992183 0.67475849 179 2046860 105 2 52 2426
2.1934721 -0.15333682 0.61421257 271 2046860 141 3 56 2283
2.326849 -0.42965207 0.63919872 214 2046860 129 4 85 2451
2.2228703 -0.32562155 0.58297509 236 2046860 127 5 39 2321
2.1628788 -0.2341546 0.5419333 210 2046860 106 6 88 2242
2.0693529 -0.14676532 0.4959116 268 2046860 122 7 57 2133
2.1475391 -0.3961162 0.5032388 208 2046860 105 8 93 2241
2.0864384 -0.30481777 0.4638344 236 2046860 110 9 38 2159
2.0013063 -0.21775822 0.42261621 227 2046860 96 10 57 2057
1.9149797 -0.13749632 0.38433278 237 2046860 91 11 29 1958
2.0002203 -0.36861816 0.39023232 276 2046860 118 12 112 2071
1.9674909 -0.28821179 0.36104697 226 2046860 92 13 48 2021
1.9389657 -0.21135175 0.33493844 206 2046860 81 14 96 1979
1.8676454 -0.13455641 0.30398095 227 2046860 82 15 62 1897
1.9167141 -0.3532635 0.30032751 235 2046860 91 16 9 1972
1.8743179 -0.27499756 0.27332243 229 2046860 84 17 56 1914
1.8107314 -0.19836532 0.2452493 202 2046860 68 18 82 1838
1.776448 -0.12907684 0.22270402 167 2046860 54 19 89 1795
1.7924039 -0.33038464 0.21297748 198 2046860 67 20 65 1835
1.7865028 -0.26240012 0.19341677 170 2046860 56 21 101 1816
1.7303029 -0.1903796 0.16973069 175 2046860 54 22 78 1749
1.6779823 -0.12283503 0.14835131 190 2046860 54 23 147 1689
1.7134961 -0.31618011 0.13951869 174 2046860 53 24 33 1748
1.6787114 -0.24701679 0.11963307 182 2046860 53 25 54 1701
1.7124637 -0.18847731 0.1049789 176 2046860 52 26 115 1726
1.6284093 -0.12017762 0.084058918 215 2046860 57 27 102 1635
1.679873 -0.31082484 0.074261166 201 2046860 59 28 30 1710
1.6778717 -0.24749161 0.057478003 189 2046860 54 29 11 1697
1.6503563 -0.18321607 0.040958606 189 2046860 52 30 58 1661
1.5336159 -0.11374699 0.022976896 308 2046860 73 31 52 1538
1.6873018 -0.31229076 0.011979843 219 2046860 64 32 45 1716
1.5768471 -0.23318072 -0.0040339753 90 2046860 23 33 53 1594
1.5930772 -0.1770542 -0.019136243 139 2046860 36 34 88 1603
1.5233908 -0.11397782 -0.032773238 137 2046860 32 35 84 1528
1.6520494 -0.30660123 -0.049898285 56 2046860 16 36 135 1681
1.7494307 -0.2600126 -0.069181189 193 2046860 60 37 52 1770
1.7927418 -0.20000513 -0.087813407 207 2046860 68 38 109 1806
1.7770236 -0.13292305 -0.10365375 219 2046860 70 39 68 1785
1.7489617 -0.32600817 -0.11807322 242 2046860 77 40 49 1783
1.796931 -0.26790592 -0.13765767 228 2046860 76 41 58 1822
1.8180087 -0.20333801 -0.15618692 239 2046860 80 42 156 1836
1.8692799 -0.14084101 -0.17789304 252 2046860 89 43 74 1883
1.8412102 -0.34386846 -0.19336222 270 2046860 96 44 61 1883
1.8201292 -0.27211145 -0.20733987 259 2046860 89 45 64 1852
1.8899565 -0.21238714 -0.23240633 233 2046860 86 46 129 1916
5.5310736 -0.41809827 -0.73242396 421 2046860 1316 47 164 5595
1.9115816 -0.35866874 -0.2729626 220 2046860 85 48 91 1964
5.6234827 -0.84322608 -0.85317945 454 2046860 1502 49 76 5750
5.6352139 -0.63625497 -0.9064213 464 2046860 1531 50 101 5743
5.6890683 -0.43163899 -0.96827745 486 2046860 1629 51 79 5787
5.749485 -1.0840707 -1.0428172 522 2046860 1843 52 133 5943
5.8126793 -0.87460399 -1.1046249 482 2046860 1724 53 110 5981
5.8261857 -0.65967077 -1.1597108 451 2046860 1612 54 81 5977
5.8162322 -0.44118506 -1.2143157 724 2046860 2571 55 82 5958
5.9151101 -1.1187209 -1.3059639 748 2046860 2837 56 148 6160
6.9035254 -1.0424348 -1.5830195 183 2046860 939 57 88 7159
7.9272799 -0.89910895 -1.8903555 125 2046860 843 58 68 8199
9.1943617 -0.69823694 -2.2819264 85 2046860 770 59 70 9499
6.0288954 -1.1475447 -1.5749495 210 2046860 841 60 49 6336
6.8350315 -1.0379496 -1.8436466 162 2046860 828 61 35 7155
7.6886392 -0.87353754 -2.1453841 104 2046860 668 62 42 8030
7.9033213 -0.59686345 -2.2863238 12 2046860 79 63 45 8249
7.7206278 -1.4787072 2.4536848 53 2146440 362 0 67 8235
8.8418436 -1.3467348 2.6844654 121 2146440 1057 1 96 9338
2.3267086 -0.26543948 0.67809618 171 2146440 102 2 74 2438
2.2155385 -0.16854624 0.62066954 228 2146440 122 3 67 2307
2.3014107 -0.43957436 0.6329397 210 2146440 124 4 101 2427
2.2093482 -0.33750066 0.579961 210 2146440 112 5 46 2309
2.1382642 -0.24477279 0.53613204 212 2146440 104 6 88 2218
2.0567765 -0.15856276 0.49312162 258 2146440 116 7 85 2121
2.1680408 -0.41366902 0.50862819 212 2146440 109 8 83 2265
2.0961149 -0.31937951 0.46641243 221 2146440 104 9 56 2171
2.0349336 -0.23405978 0.43001249 217 2146440 95 10 51 2093
1.9727548 -0.15381718 0.39611009 244 2146440 99 11 31 2018
2.0442271 -0.38971218 0.39927685 226 2146440 102 12 105 2119
1.9656855 -0.30027866 0.36104697 217 2146440 89 13 26 2021
1.8671374 -0.21512294 0.32275268 196 2146440 71 14 91 1907
1.8549758 -0.14508988 0.30205804 213 2146440 75 15 54 1885
1.8679098 -0.35613281 0.2930173 251 2146440 93 16 25 1924
1.8373741 -0.28110442 0.26818156 199 2146440 70 17 84 1878
1.7740388 -0.20536919 0.24044572 207 2146440 67 18 79 1802
1.7993635 -0.14184603 0.22568169 162 2146440 54 19 67 1819
1.8020509 -0.34360886 0.21437027 216 2146440 74 20 49 1847
1.7966534 -0.27516329 0.19469486 206 2146440 69 21 71 1828
1.7646927 -0.20513004 0.17322429 195 2146440 62 22 72 1785
1.6771971 -0.13312863 0.14835131 179 2146440 51 23 119 1689
1.7467725 -0.3334161 0.14239207 181 2146440 58 24 42 1784
1.7126597 -0.26275828 0.12216499 188 2146440 57 25 51 1737
1.6874797 -0.19621441 0.10351916 177 2146440 51 26 149 1702
1.6395872 -0.13112244 0.084675863 161 2146440 44 27 105 1647
1.6072844 -0.30760542 0.071134388 232 2146440 62 28 33 1638
1.6289064 -0.25049075 0.055852227 205 2146440 56 29 19 1649
1.6849451 -0.19752936 0.041846327 189 2146440 54 30 41 1697
1.6046499 -0.12892033 0.024052536 180 2146440 47 31 57 1610
1.6499968 -0.31586933 0.011728518 220 2146440 62 32 82 1680
1.5160872 -0.23371045 -0.0038821318 77 2146440 18 33 70 1534
1.532374 -0.17983295 -0.018419977 202 2146440 48 34 86 1543
1.558537 -0.12622854 -0.033545382 119 2146440 29 35 72 1564
1.5441198 -0.29638299 -0.046692446 51 2146440 13 36 136 1573
1.7241033 -0.26707092 -0.068243138 168 2146440 51 37 45 1746
1.7557702 -0.20679541 -0.086062975 215 2146440 67 38 139 1770
1.7642338 -0.14285728 -0.10295692 210 2146440 66 39 95 1773
1.7822001 -0.34353232 -0.1204572 262 2146440 87 40 82 1819
1.7952534 -0.27892664 -0.13765767 243 2146440 81 41 71 1822
1.8048528 -0.21308739 -0.1551661 229 2146440 76 42 184 1824
1.8207531 -0.1484255 -0.17335832 226 2146440 76 43 84 1835
1.8273455 -0.35289606 -0.19212995 265 2146440 93 44 99 1871
1.8655549 -0.29061633 -0.21271369 248 2146440 89 45 52 1900
1.9122746 -0.22678529 -0.23531747 247 2146440 93 46 107 1940
5.5165472 -0.45105892 -0.73085308 360 2146440 1123 47 197 5583
1.944343 -0.37718049 -0.27796596 201 2146440 80 48 86 2000
5.6064782 -0.87588346 -0.85139889 492 2146440 1621 49 72 5738
5.666503 -0.67502505 -0.91210318 460 2146440 1538 50 70 5779
5.6863127 -0.46653834 -0.96827745 512 2146440 1715 51 91 5787
5.7659163 -1.1238487 -1.0470285 502 2146440 1787 52 123 5967
5.7955518 -0.90842712 -1.1024086 458 2146440 1632 53 119 5969
5.8220282 -0.69540715 -1.1597108 441 2146440 1576 54 87 5977
5.8368335 -0.4787854 -1.2192072 671 2146440 2402 55 90 5982
5.9081345 -1.1549942 -1.3059639 714 2146440 2708 56 143 6160
6.8160734 -1.0720463 -1.5644453 191 2146440 957 57 87 7075
7.7592974 -0.92831355 -1.8516215 131 2146440 848 58 65 8031
7.8664188 -0.64595985 -1.9532944 26 2146440 174 59 84 8131
5.9305019 -1.1665685 -1.5510865 223 2146440 866 60 56 6240
6.6567473 -1.0527025 -1.7972656 186 2146440 903 61 47 6975
7.5223913 -0.90143526 -2.1004994 107 2146440 664 62 61 7862
8.025918 -0.65567285 -2.3229094 27 2146440 193 63 63 8381
7.5091424 -1.4860245 2.3893256 51 2243960 331 0 64 8019
8.6971951 -1.3793579 2.6430686 79 2243960 670 1 90 9194
2.325036 -0.27971089 0.67809618 178 2243960 106 2 50 2438
2.2144628 -0.18213737 0.62066954 279 2243960 148 3 40 2307
2.3441322 -0.4626601 0.64545768 215 2243960 132 4 95 2475
2.2416492 -0.3565239 0.58900326 222 2243960 122 5 51 2345
2.1598425 -0.26067883 0.5419333 209 2243960 105 6 103 2242
2.0325031 -0.16924295 0.48754176 247 2243960 109 7 99 2097
2.1654618 -0.4269641 0.50862819 210 2243960 108 8 87 2265
2.0593905 -0.32672581 0.45867828 247 2243960 113 9 67 2135
2.0451176 -0.24795499 0.43247789 228 2243960 101 10 65 2105
1.9834991 -0.16690552 0.39846554 234 2243960 96 11 39 2030
1.9955461 -0.39313617 0.39023232 244 2243960 105 12 108 2071
1.9871267 -0.31604329 0.36533448 255 2243960 107 13 39 2045
1.9479667 -0.23655567 0.33696938 217 2243960 86 14 98 1991
1.8658535 -0.15746516 0.30398095 238 2243960 86 15 72 1897
1.8773257 -0.36987999 0.29484484 236 2243960 88 16 34 1936
1.870802 -0.29797763 0.27332243 202 2243960 74 17 52 1914
1.8199661 -0.22201091 0.24685051 203 2243960 70 18 88 1850
1.8340528 -0.15590979 0.23014818 181 2243960 62 19 81 1855
1.8466849 -0.36387649 0.21994133 210 2243960 75 20 43 1895
1.7949312 -0.28618217 0.19469486 180 2243960 60 21 77 1828
1.7159817 -0.21014696 0.16856617 197 2243960 60 22 92 1737
1.7358992 -0.14851196 0.15362135 198 2243960 61 23 115 1749
1.7212228 -0.33949831 0.1404765 178 2243960 55 24 38 1760
1.7110152 -0.27326202 0.12216499 196 2243960 59 25 49 1737
1.6505773 -0.20219573 0.10132957 163 2243960 45 26 127 1666
1.6626316 -0.14323758 0.085909754 158 2243960 44 27 107 1671
1.6524104 -0.32676464 0.073218912 213 2243960 61 28 24 1686
1.6510235 -0.26427194 0.056665119 207 2243960 58 29 8 1673
1.6717955 -0.2063944 0.04155042 183 2243960 52 30 51 1685
1.6396906 -0.14186664 0.024590356 152 2243960 41 31 77 1646
1.7068857 -0.33763 0.012147394 219 2243960 66 32 65 1740
1.5857153 -0.25441447 -0.0040643439 79 2243960 20 33 69 1606
1.5550587 -0.19217536 -0.018706484 210 2243960 52 34 102 1567
1.5577331 -0.13578917 -0.033545382 105 2243960 26 35 78 1564
1.6246313 -0.3221848 -0.049185876 48 2243960 13 36 110 1657
1.7461082 -0.28146121 -0.069181189 183 2243960 57 37 34 1770
1.7782576 -0.22051474 -0.08722993 226 2243960 73 38 123 1794
1.7752585 -0.15471986 -0.10365375 235 2243960 75 39 65 1785
1.7800586 -0.35446125 -0.1204572 243 2243960 80 40 98 1819
1.8407575 -0.29757515 -0.14128421 241 2243960 84 41 86 1870
1.8153765 -0.22563247 -0.15618692 249 2243960 84 42 185 1836
1.8436095 -0.16168199 -0.17562568 231 2243960 80 43 73 1859
1.81344 -0.36176658 -0.19089769 268 2243960 93 44 80 1859
1.8519658 -0.30014995 -0.21137023 237 2243960 84 45 50 1888
1.9108471 -0.23851451 -0.23531747 252 2243960 95 46 117 1940
5.5847816 -0.49115273 -0.74027836 248 2243960 793 47 225 5655
1.9070363 -0.38209981 -0.2729626 203 2243960 78 48 87 1964
5.6361384 -0.91597867 -0.85674047 461 2243960 1537 49 101 5774
5.6622543 -0.70978135 -0.91210318 479 2243960 1601 50 77 5779
5.695128 -0.50245988 -0.9702853 538 2243960 1810 51 84 5799
5.7936563 -1.1662002 -1.0533454 524 2243960 1888 52 142 6003
5.8015084 -0.94586861 -1.1046249 487 2243960 1742 53 114 5981
5.841012 -0.73405308 -1.1643674 417 2243960 1502 54 96 6001
5.8571916 -0.51665509 -1.2240987 599 2243960 2162 55 80 6006
5.9239268 -1.1958653 -1.3110521 353 2243960 1349 56 134 6184
6.682323 -1.0930674 -1.535257 194 2243960 937 57 78 6943
7.5796762 -0.95403314 -1.8101208 160 2243960 988 58 74 7851
8.5817213 -0.75773692 -2.1320238 53 2243960 420 59 72 8875
5.8321052 -1.1844287 -1.5272236 210 2243960 791 60 54 6144
6.4899864 -1.067189 -1.7539766 194 2243960 897 61 47 6807
7.4134612 -0.93455797 -2.0716448 108 2243960 652 62 69 7754
8.3318558 -0.73215753 -2.4127104 34 2243960 254 63 52 8705
7.353982 -1.5022672 2.3428442 32 2341290 200 0 72 7863
8.5298033 -1.4065175 2.5947723 92 2341290 751 1 88 9026
2.3347111 -0.29541871 0.68143374 171 2341290 102 2 51 2450
2.2133033 -0.19572163 0.62066954 237 2341290 126 3 50 2307
2.3071947 -0.47009602 0.63606918 210 2341290 125 4 88 2439
2.2737985 -0.37595603 0.59804553 215 2341290 122 5 40 2381
2.1697538 -0.27539262 0.54483396 215 2341290 109 6 89 2254
2.0895503 -0.18691014 0.50149143 279 2341290 130 7 66 2157
2.1513426 -0.43791065 0.50593346 217 2341290 110 8 87 2253
2.1267283 -0.35080016 0.4741466 220 2341290 107 9 63 2207
2.0086086 -0.25604385 0.42508161 231 2341290 99 10 55 2069
1.9589998 -0.17695577 0.3937546 243 2341290 98 11 34 2006
2.0161934 -0.41007093 0.39475456 224 2341290 98 12 115 2095
1.996799 -0.33015618 0.36747828 204 2341290 86 13 51 2057
1.8878202 -0.24101491 0.32681462 219 2341290 82 14 96 1931
1.8648523 -0.16891086 0.30398095 217 2341290 78 15 59 1897
1.8750207 -0.38139209 0.29484484 229 2341290 86 16 6 1936
1.9158086 -0.31721157 0.28017691 193 2341290 74 17 63 1962
1.8303657 -0.23468632 0.24845169 210 2341290 73 18 78 1862
1.8093454 -0.16499765 0.22717051 183 2341290 61 19 71 1831
1.821058 -0.3704488 0.21715578 208 2341290 73 20 56 1871
1.8049126 -0.29914117 0.19597293 195 2341290 66 21 51 1840
1.7738882 -0.22829458 0.17438883 214 2341290 69 22 77 1797
1.7706661 -0.16243647 0.15678336 185 2341290 59 23 125 1785
1.7542708 -0.35721335 0.14334987 171 2341290 55 24 52 1796
1.7211149 -0.28571579 0.12300895 191 2341290 59 25 64 1749
1.720584 -0.22149554 0.10570876 155 2341290 47 26 122 1738
1.6617215 -0.15343659 0.085909754 144 2341290 40 27 105 1671
1.6503743 -0.33689749 0.073218912 227 2341290 64 28 25 1686
1.6138793 -0.26849291 0.055445783 195 2341290 52 29 21 1637
1.6704975 -0.21664846 0.04155042 197 2341290 56 30 51 1685
1.6626842 -0.1541401 0.024948904 193 2341290 54 31 79 1670
1.6812676 -0.34329554 0.011979843 197 2341290 58 32 54 1716
1.5012686 -0.25032395 -0.0038517632 89 2341290 21 33 51 1522
1.577649 -0.20480283 -0.01899299 189 2341290 48 34 99 1591
1.5807611 -0.14757502 -0.034060143 69 2341290 17 35 92 1588
1.6226238 -0.33214727 -0.049185876 54 2341290 15 36 144 1657
1.6852179 -0.28226575 -0.066836067 170 2341290 50 37 52 1710
1.7768711 -0.23142177 -0.08722993 208 2341290 67 38 106 1794
1.7623479 -0.16449639 -0.10295692 210 2341290 66 39 74 1773
1.7661216 -0.36296639 -0.11966253 260 2341290 85 40 75 1807
1.7916954 -0.30093616 -0.13765767 219 2341290 73 41 81 1822
1.8376698 -0.23986216 -0.15822859 248 2341290 86 42 164 1860
1.8663708 -0.17522447 -0.17789304 246 2341290 87 43 80 1883
1.8228773 -0.37529382 -0.19212995 269 2341290 94 44 78 1871
1.8736072 -0.3154676 -0.21405713 272 2341290 99 45 51 1912
1.8739165 -0.24559122 -0.23095074 256 2341290 93 46 131 1904
1.9099058 -0.17978255 -0.25330481 134 2341290 50 47 254 1935
1.939568 -0.40101215 -0.27796596 217 2341290 87 48 64 2000
5.6187105 -0.94856858 -0.85495991 460 2341290 1528 49 87 5762
5.6695409 -0.74605685 -0.91399717 468 2341290 1570 50 86 5791
5.6919379 -0.53739506 -0.9702853 517 2341290 1740 51 84 5799
5.7285566 -1.1897162 -1.0428172 702 2341290 2479 52 118 5943
5.8072238 -0.98341733 -1.1068412 451 2341290 1620 53 123 5993
5.8597393 -0.77295798 -1.1690241 461 2341290 1674 54 103 6025
5.8422151 -0.55148035 -1.221653 490 2341290 1761 55 96 5994
5.8590732 -1.2202359 -1.2983315 262 2341290 982 56 134 6124
6.5024261 -1.1046481 -1.4954549 191 2341290 875 57 69 6763
7.3537331 -0.97146708 -1.7575532 158 2341290 921 58 60 7623
8.472538 -0.80051762 -2.1060793 98 2341290 755 59 89 8767
5.7109642 -1.1963598 -1.497395 226 2341290 819 60 42 6024
6.3575931 -1.0855242 -1.7199638 210 2341290 934 61 40 6675
7.2585568 -0.96031171 -2.0299661 141 2341290 811 62 53 7598
8.2583303 -0.77678853 -2.3927546 43 2341290 324 63 59 8633
7.1204476 -1.5001324 2.2713342 41 2439430 240 0 81 7623
8.2944403 -1.4200389 2.5257778 90 2439430 695 1 112 8786
2.3557072 -0.31277287 0.6881091 170 2439430 104 2 49 2474
2.2120609 -0.20929852 0.62066954 230 2439430 123 3 59 2307
2.3609524 -0.49615636 0.65171665 198 2439430 124 4 91 2499
2.2485533 -0.38597062 0.59201735 199 2439430 110 5 55 2357
2.1564808 -0.28716376 0.5419333 241 2439430 121 6 88 2242
2.0999823 -0.20083901 0.5042814 247 2439430 116 7 84 2169
2.2172792 -0.46551886 0.52210176 213 2439430 115 8 97 2325
2.1014326 -0.35988632 0.4689905 221 2439430 106 9 70 2183
2.0419209 -0.27303305 0.43247789 229 2439430 102 10 66 2105
1.9578772 -0.18897264 0.3937546 237 2439430 95 11 30 2006
2.0251734 -0.42485401 0.39701572 244 2439430 108 12 96 2107
1.9830987 -0.3404046 0.36533448 221 2439430 92 13 34 2045
1.9097503 -0.25573325 0.33087653 210 2439430 80 14 101 1955
1.8519909 -0.17920934 0.30205804 225 2439430 80 15 58 1885
1.8958598 -0.39776036 0.29849994 234 2439430 90 16 27 1960
1.843594 -0.31688881 0.2698952 223 2439430 80 17 76 1890
1.8406777 -0.24749763 0.25005287 211 2439430 74 18 76 1874
1.7845964 -0.17378828 0.22419284 186 2439430 61 19 77 1807
1.783756 -0.37427294 0.21297748 194 2439430 65 20 47 1835
1.8030431 -0.31021029 0.19597293 178 2439430 60 21 70 1840
1.7369457 -0.23438318 0.17089522 190 2439430 59 22 85 1761
1.6982559 -0.16630784 0.15045932 162 2439430 48 23 137 1713
1.6935142 -0.3556776 0.13856089 176 2439430 53 24 41 1736
1.7547187 -0.30236918 0.12554087 192 2439430 61 25 37 1785
1.6835822 -0.22724214 0.10351916 159 2439430 46 26 138 1702
1.6965278 -0.16715507 0.08776059 174 2439430 51 27 116 1707
1.6600076 -0.34948751 0.073740043 197 2439430 57 28 24 1698
1.6476562 -0.28451264 0.056665119 204 2439430 57 29 2 1673
1.728572 -0.2349737 0.043029964 177 2439430 54 30 44 1745
1.6736474 -0.16552012 0.025128176 199 2439430 56 31 79 1682
1.643903 -0.34618688 0.011728518 196 2439430 55 32 86 1680
1.5824739 -0.27385449 -0.0040643439 99 2439430 26 33 65 1606
1.5763626 -0.21447925 -0.01899299 141 2439430 36 34 89 1591
1.5678877 -0.15608317 -0.033802763 85 2439430 21 35 72 1576
1.5970832 -0.33714232 -0.04847347 67 2439430 18 36 130 1633
1.6598268 -0.28849408 -0.065898016 129 2439430 37 37 59 1686
1.7397907 -0.2374575 -0.085479498 219 2439430 68 38 123 1758
1.7851471 -0.17767987 -0.10435058 195 2439430 63 39 70 1797
1.7638612 -0.37379625 -0.11966253 273 2439430 89 40 42 1807
1.8016031 -0.31397849 -0.1385643 217 2439430 73 41 86 1834
1.812471 -0.24789295 -0.15618692 258 2439430 87 42 143 1836
1.8295996 -0.18310411 -0.17449202 256 2439430 87 43 69 1847
1.8322167 -0.38895047 -0.19336222 287 2439430 102 44 62 1883
1.8716363 -0.32695788 -0.21405713 238 2439430 87 45 102 1912
1.8959757 -0.26032531 -0.23386189 235 2439430 87 46 117 1928
1.9442787 -0.19506089 -0.25801745 132 2439430 51 47 175 1971
1.9138262 -0.40795073 -0.27463037 222 2439430 87 48 82 1976
5.6361628 -0.98712105 -0.85852104 469 2439430 1571 49 87 5786
5.6648564 -0.7808305 -0.91399717 459 2439430 1540 50 78 5791
5.700305 -0.57349432 -0.97229314 529 2439430 1787 51 85 5811
5.7442532 -1.22979 -1.0470285 482 2439430 1716 52 120 5967
5.835927 -1.0251526 -1.11349 424 2439430 1541 53 116 6029
5.8432255 -0.8072871 -1.1666958 448 2439430 1620 54 107 6013
5.8854775 -0.59202033 -1.2314359 441 2439430 1612 55 63 6042
5.7138839 -1.2266262 -1.2678026 250 2439430 894 56 120 5980
6.4148474 -1.1303098 -1.4768806 198 2439430 885 57 72 6679
7.2088361 -0.99736726 -1.7243528 175 2439430 981 58 68 7479
8.3167963 -0.83731985 -2.0686038 131 2439430 973 59 88 8611
5.6239843 -1.2142084 -1.4765151 197 2439430 697 60 61 5940
6.2708921 -1.1103621 -1.6983193 204 2439430 884 61 46 6591
7.0807123 -0.98102641 -1.9818753 137 2439430 756 62 64 7418
8.1272125 -0.8147943 -2.356169 60 2439430 431 63 36 8501
7.0103617 -1.5219225 2.2391548 42 2535620 238 0 106 7515
8.0818739 -1.4347445 2.4636827 65 2535620 479 1 96 8570
2.3651602 -0.32880846 0.69144666 163 2535620 100 2 53 2486
2.222234 -0.22402677 0.62389797 268 2535620 144 3 55 2319
2.3578634 -0.51063359 0.65171665 204 2535620 128 4 86 2499
2.2690139 -0.40383074 0.59804553 218 2535620 124 5 61 2381
2.2008088 -0.3068215 0.55353582 206 2535620 108 6 93 2290
2.0638771 -0.21017325 0.4959116 273 2535620 124 7 74 2133
2.1915231 -0.47416937 0.51671237 197 2535620 104 8 89 2301
2.0761063 -0.36867541 0.4638344 216 2535620 101 9 65 2159
2.0169458 -0.28230116 0.42754707 225 2535620 97 10 54 2081
1.9683858 -0.20218468 0.39611009 219 2535620 89 11 56 2018
2.0225284 -0.43727225 0.39701572 253 2535620 112 12 111 2107
2.0158455 -0.35877278 0.37176579 221 2535620 96 13 42 2081
1.9315701 -0.27072969 0.33493844 202 2535620 79 14 102 1979
1.8626391 -0.19178274 0.30398095 212 2535620 76 15 68 1897
1.9281601 -0.41690496 0.30398259 226 2535620 90 16 15 1996
1.8766931 -0.33444628 0.27503607 205 2535620 76 17 68 1926
1.8509011 -0.26044428 0.25165406 209 2535620 74 18 98 1886
1.7953404 -0.18596189 0.22568169 178 2535620 59 19 86 1819
1.8396742 -0.39780626 0.21994133 196 2535620 70 20 45 1895
1.777613 -0.31707728 0.19341677 192 2535620 63 21 60 1816
1.747301 -0.24670623 0.17205976 189 2535620 60 22 79 1773
1.7328714 -0.18043903 0.15362135 177 2535620 54 23 130 1749
1.7380641 -0.37618363 0.14239207 177 2535620 56 24 44 1784
1.7410467 -0.31102514 0.1246969 186 2535620 59 25 63 1773
1.7058764 -0.2409181 0.1049789 167 2535620 50 26 147 1726
1.6477944 -0.17256866 0.085292801 172 2535620 47 27 101 1659
1.6812642 -0.36475018 0.074782304 217 2535620 64 28 30 1722
1.6222684 -0.2903907 0.055852227 196 2535620 53 29 21 1649
1.6677132 -0.23713173 0.04155042 169 2535620 48 30 58 1685
1.6845334 -0.17704044 0.025307452 225 2535620 65 31 61 1694
1.688655 -0.3664462 0.012063618 205 2535620 61 32 67 1728
1.5925751 -0.28567794 -0.0040947124 115 2535620 30 33 77 1618
1.575017 -0.22414759 -0.01899299 113 2535620 29 34 86 1591
1.5788311 -0.16696228 -0.034060143 81 2535620 20 35 78 1588
1.5715431 -0.34183663 -0.04776106 74 2535620 19 36 116 1609
1.6226227 -0.29229578 -0.064490944 112 2535620 30 37 42 1650
1.809494 -0.25829041 -0.088980362 216 2535620 72 38 141 1830
1.7959367 -0.18988962 -0.10504742 205 2535620 67 39 76 1809
1.7732326 -0.38716623 -0.1204572 273 2535620 90 40 61 1819
1.8114178 -0.32715368 -0.13947093 214 2535620 73 41 75 1846
1.8345879 -0.26239514 -0.15822859 261 2535620 90 42 171 1860
1.8403211 -0.19558942 -0.17562568 272 2535620 94 43 67 1859
1.8414565 -0.40273571 -0.19459447 318 2535620 114 44 67 1895
1.9047965 -0.3448081 -0.21808749 234 2535620 89 45 54 1948
1.8825521 -0.27026123 -0.23240633 261 2535620 96 46 117 1916
1.9075558 -0.20320651 -0.25330481 179 2535620 67 47 109 1935
1.9345009 -0.42478344 -0.27796596 206 2535620 83 48 77 2000
5.6183233 -1.0195663 -0.85674047 456 2535620 1521 49 96 5774
5.6599588 -0.81557471 -0.91399717 503 2535620 1688 50 90 5791
5.7084427 -0.60971642 -0.97430098 469 2535620 1591 51 106 5823
5.6904521 -1.2548368 -1.0386059 315 2535620 1103 52 125 5919
5.817924 -1.0588301 -1.1112736 473 2535620 1713 53 93 6017
5.861464 -0.84649044 -1.1713525 435 2535620 1585 54 114 6037
5.8817339 -0.62812179 -1.2314359 441 2535620 1611 55 86 6042
5.6260953 -1.2439405 -1.249994 264 2535620 917 56 124 5896
6.246613 -1.1402285 -1.4397318 222 2535620 942 57 100 6511
7.0754585 -1.0231978 -1.6939189 194 2535620 1050 58 63 7347
8.1030149 -0.86605185 -2.0167146 99 2535620 700 59 77 8395
5.5370045 -1.2310354 -1.4556351 221 2535620 759 60 66 5856
6.1271067 -1.1237193 -1.6612146 181 2535620 750 61 51 6447
6.9601154 -1.0078819 -1.9498148 135 2535620 716 62 57 7298
7.8583632 -0.83657432 -2.2796719 71 2535620 483 63 64 8225
6.7661309 -1.5124327 2.1640694 31 2634230 165 0 86 7263
7.8920546 -1.4510528 2.4084868 33 2634230 233 1 92 8378
2.4201319 -0.35160056 0.70813483 181 2634230 117 2 45 2546
2.2552936 -0.24134731 0.63358331 257 2634230 142 3 56 2355
2.388607 -0.53265589 0.6611051 188 2634230 121 4 98 2535
2.2779162 -0.41985095 0.60105962 236 2634230 135 5 56 2393
2.1758397 -0.31696254 0.5477345 214 2634230 110 6 114 2266
2.0857558 -0.22534026 0.50149143 271 2634230 126 7 84 2157
2.1999862 -0.49015033 0.51940709 205 2634230 110 8 93 2313
2.0738051 -0.38140723 0.4638344 219 2634230 102 9 79 2159
2.0500371 -0.29976925 0.43494335 241 2634230 108 10 53 2117
2.0022004 -0.21808092 0.40317646 242 2634230 102 11 40 2054
2.0658209 -0.45991817 0.40606022 244 2634230 113 12 111 2155
2.0136063 -0.37113503 0.37176579 222 2634230 96 13 52 2081
1.8947662 -0.27743614 0.32884556 230 2634230 87 14 92 1943
1.8496523 -0.20192263 0.30205804 227 2634230 80 15 55 1885
1.9139891 -0.42615056 0.30215505 238 2634230 94 16 14 1984
1.8979652 -0.3502661 0.27846327 216 2634230 82 17 62 1950
1.8257358 -0.26833761 0.24845169 205 2634230 71 18 99 1862
1.7586571 -0.19307606 0.2212152 178 2634230 57 19 72 1783
1.8022968 -0.40131524 0.21576303 175 2634230 61 20 59 1859
1.7873673 -0.33014578 0.19469486 202 2634230 68 21 58 1828
1.7457544 -0.25742283 0.17205976 198 2634230 62 22 80 1773
1.7436131 -0.19237925 0.15467535 184 2634230 57 23 153 1761
1.7473984 -0.38944322 0.14334987 203 2634230 65 24 36 1796
1.7391055 -0.32170215 0.1246969 179 2634230 56 25 78 1773
1.7162156 -0.25312835 0.10570876 164 2634230 49 26 148 1738
1.6467046 -0.18267609 0.085292801 160 2634230 44 27 98 1659
1.7023951 -0.38028666 0.075824559 224 2634230 68 28 23 1746
1.6322485 -0.30252489 0.056258675 186 2634230 51 29 33 1661
1.6780931 -0.24912177 0.041846327 180 2634230 52 30 37 1697
1.6237901 -0.18073662 0.024411082 222 2634230 59 31 52 1634
1.662953 -0.37156737 0.011896068 230 2634230 67 32 50 1704
1.5553976 -0.28887087 -0.0040036067 176 2634230 44 33 56 1582
1.6092185 -0.23909792 -0.019422751 96 2634230 25 34 94 1627
1.5896996 -0.17798153 -0.034317523 86 2634230 22 35 78 1600
1.5460064 -0.34623039 -0.047048651 102 2634230 26 36 128 1585
1.5382853 -0.28685942 -0.061207768 121 2634230 30 37 57 1566
1.7723104 -0.26408896 -0.08722993 215 2634230 69 38 110 1794
1.7828323 -0.199573 -0.10435058 212 2634230 69 39 69 1797
1.7708236 -0.39803931 -0.1204572 261 2634230 86 40 80 1819
1.7976145 -0.3360633 -0.1385643 231 2634230 78 41 63 1834
1.8211179 -0.27188155 -0.15720776 252 2634230 86 42 141 1848
1.8390863 -0.20687774 -0.17562568 224 2634230 78 43 67 1859
1.8273058 -0.4114053 -0.19336222 285 2634230 101 44 87 1883
1.8440419 -0.34550908 -0.21137023 258 2634230 92 45 58 1888
1.8455187 -0.27651235 -0.22803961 263 2634230 93 46 133 1880
1.9653823 -0.22157101 -0.26115921 164 2634230 65 47 151 1995
1.9318581 -0.43664533 -0.27796596 189 2634230 76 48 76 2000
5.6236253 -1.0562111 -0.85852104 458 2634230 1534 49 85 5786
5.6431298 -0.84852624 -0.91210318 482 2634230 1610 50 90 5779
5.7045941 -0.64473128 -0.97430098 503 2634230 1706 51 93 5823
5.6250415 -1.2766553 -1.0280777 285 2634230 978 52 115 5859
5.8113179 -1.0945083 -1.1112736 446 2634230 1615 53 112 6017
5.8678002 -0.88419384 -1.1736809 446 2634230 1633 54 91 6049
5.9011173 -0.66683799 -1.2363275 450 2634230 1657 55 79 6066
5.5040078 -1.2524184 -1.2245532 260 2634230 867 56 128 5776
6.1130033 -1.1546427 -1.4105436 213 2634230 869 57 62 6379
6.8843112 -1.0387193 -1.6496515 185 2634230 949 58 67 7155
7.8429027 -0.88695675 -1.9532944 116 2634230 768 59 90 8131
5.427371 -1.2416569 -1.4287893 233 2634230 769 60 43 5748
6.0517473 -1.148324 -1.6426622 187 2634230 758 61 49 6375
6.7937231 -1.0263853 -1.90493 150 2634230 764 62 76 7130
7.7155933 -0.86928624 -2.2397602 93 2634230 610 63 59 8081
5.9529495 -1.3690673 1.9066336 141 2732280 579 0 63 6399
7.7136374 -1.4672347 2.356741 41 2732280 277 1 90 8198
2.4065328 -0.36471647 0.70479721 209 2732280 134 2 68 2534
2.2537701 -0.25518098 0.63358331 252 2732280 140 3 49 2355
2.4078763 -0.55248362 0.66736406 229 2732280 150 4 93 2559
2.2867069 -0.43599555 0.60407376 205 2732280 119 5 73 2405
2.196878 -0.33380571 0.55353582 202 2732280 106 6 100 2290
2.0727384 -0.23680918 0.49870154 247 2732280 114 7 65 2145
2.2083349 -0.50625288 0.52210176 209 2732280 113 8 82 2325
2.0829389 -0.39631525 0.46641243 217 2732280 102 9 54 2171
2.0713787 -0.31588334 0.4398742 225 2732280 103 10 67 2141
1.9774458 -0.22767043 0.39846554 248 2732280 102 11 25 2030
2.0629601 -0.47258514 0.40606022 238 2732280 111 12 102 2155
1.9880952 -0.37906066 0.36747828 232 2732280 98 13 47 2057
1.9397937 -0.29619783 0.33696938 244 2732280 97 14 98 1991
1.8954459 -0.21869877 0.30974969 222 2732280 83 15 81 1933
1.9460198 -0.44583207 0.30763769 242 2732280 99 16 14 2020
1.8957803 -0.36190522 0.27846327 230 2732280 88 17 61 1950
1.8710767 -0.28674111 0.25485647 207 2732280 76 18 74 1910
1.8165791 -0.21072356 0.22865933 197 2732280 67 19 94 1843
1.8230362 -0.4176901 0.21854857 200 2732280 71 20 74 1883
1.8087475 -0.34558508 0.19725104 187 2732280 64 21 68 1852
1.7913607 -0.27538875 0.17671789 193 2732280 64 22 76 1821
1.7067802 -0.19892281 0.15151332 178 2732280 53 23 125 1725
1.7682941 -0.405505 0.14526546 176 2732280 58 24 64 1820
1.7488558 -0.33461657 0.12554087 188 2732280 60 25 53 1785
1.6791141 -0.2581929 0.10351916 181 2732280 52 26 124 1702
1.6693581 -0.19556546 0.086526699 168 2732280 48 27 119 1683
1.6766616 -0.38535443 0.074782304 203 2732280 60 28 19 1722
1.6656973 -0.31930825 0.057478003 184 2732280 53 29 8 1697
1.6883882 -0.26124808 0.042142238 195 2732280 57 30 57 1709
1.6584007 -0.19489799 0.024948904 229 2732280 64 31 70 1670
1.7074203 -0.39251798 0.012231168 201 2732280 62 32 57 1752
1.5889494 -0.30519977 -0.0040947124 224 2732280 59 33 39 1618
1.5721477 -0.2434586 -0.01899299 71 2732280 18 34 82 1591
1.6124064 -0.19054838 -0.034832288 91 2732280 24 35 83 1624
1.5555415 -0.35840306 -0.047404855 82 2732280 21 36 134 1597
1.5835918 -0.30537453 -0.063083865 114 2732280 30 37 47 1614
1.746969 -0.27128032 -0.086062975 207 2732280 65 38 107 1770
1.7815741 -0.2105085 -0.10435058 206 2732280 67 39 82 1797
1.756682 -0.40619987 -0.11966253 265 2732280 87 40 76 1807
1.8307632 -0.35389999 -0.14128421 210 2732280 74 41 89 1870
1.807601 -0.2812126 -0.15618692 227 2732280 76 42 167 1836
1.8259194 -0.21675004 -0.17449202 242 2732280 83 43 75 1847
1.8131181 -0.41991645 -0.19212995 271 2732280 95 44 76 1871
1.8418872 -0.35681739 -0.21137023 243 2732280 87 45 71 1888
1.8673249 -0.29150546 -0.23095074 260 2732280 94 46 129 1904
1.9639858 -0.2336262 -0.26115921 184 2732280 73 47 137 1995
1.9291426 -0.44849077 -0.27796596 150 2732280 60 48 89 2000
5.6286879 -1.0929592 -0.86030161 466 2732280 1567 49 88 5798
5.661231 -0.88680351 -0.91589117 512 2732280 1726 50 67 5803
5.7122784 -0.68112266 -0.97630882 487 2732280 1659 51 98 5835
5.5135612 -1.2869773 -1.009127 277 2732280 916 52 115 5751
5.8044925 -1.1301453 -1.1112736 433 2732280 1568 53 115 6017
5.8622642 -0.92018133 -1.1736809 470 2732280 1720 54 97 6049
5.8735833 -0.70025241 -1.2314359 431 2732280 1574 55 83 6042
5.4391251 -1.2728062 -1.2118326 301 2732280 983 56 133 5716
6.002429 -1.1719463 -1.3866624 274 2732280 1079 57 76 6271
6.7509217 -1.0609992 -1.6192178 200 2732280 988 58 73 7023
7.6291142 -0.91022325 -1.9014051 141 2732280 885 59 80 7915
5.3065052 -1.2483187 -1.3989607 258 2732280 816 60 56 5628
5.9194288 -1.1608897 -1.6086494 230 2732280 895 61 49 6243
6.6159496 -1.041088 -1.8568392 162 2732280 784 62 72 6950
7.5498252 -0.89755601 -2.1931968 112 2732280 699 63 44 7913
5.7883711 -1.3686663 1.8565767 156 2830100 607 0 78 6231
7.4451046 -1.4635476 2.2773972 36 2830100 226 1 110 7922
2.3700929 -0.37408468 0.69478434 219 2830100 137 2 64 2498
2.263638 -0.27037579 0.63681179 233 2830100 130 3 54 2367
2.3706152 -0.55926764 0.65797561 222 2830100 141 4 84 2523
2.2725925 -0.44777286 0.60105962 240 2830100 137 5 52 2393
2.1487839 -0.33999997 0.5419333 223 2830100 112 6 108 2242
2.0944209 -0.25231466 0.5042814 254 2830100 120 7 75 2169
2.2165687 -0.52247626 0.52479649 217 2830100 119 8 96 2337
2.1034672 -0.41361088 0.47156858 210 2830100 101 9 78 2195
2.0346053 -0.32306209 0.43247789 224 2830100 99 10 51 2105
1.9643308 -0.23838198 0.39611009 251 2830100 102 11 27 2018
2.0600214 -0.48523432 0.40606022 240 2830100 112 12 95 2155
1.9509791 -0.38440484 0.36104697 226 2830100 92 13 33 2021
1.9613003 -0.31180847 0.34103131 204 2830100 83 14 107 2015
1.8587934 -0.22603534 0.30398095 220 2830100 79 15 55 1897
1.9432476 -0.45776424 0.30763769 222 2830100 91 16 24 2020
1.8935241 -0.37353069 0.27846327 221 2830100 84 17 66 1950
1.857538 -0.29634282 0.25325528 206 2830100 74 18 77 1898
1.8625293 -0.22764431 0.23461466 178 2830100 64 19 82 1891
1.8320403 -0.43160126 0.21994133 196 2830100 70 20 45 1895
1.8182987 -0.35898793 0.19852911 192 2830100 67 21 65 1864
1.7542572 -0.28071368 0.17322429 205 2830100 65 22 103 1785
1.7529857 -0.21521823 0.15572935 170 2830100 53 23 122 1773
1.7774152 -0.4190926 0.14622326 186 2830100 62 24 35 1832
1.7115407 -0.33837619 0.12300895 198 2830100 61 25 68 1749
1.6656711 -0.26659787 0.1027893 187 2830100 53 26 104 1690
1.6919147 -0.20873961 0.08776059 168 2830100 49 27 100 1707
1.6742655 -0.39563498 0.074782304 223 2830100 66 28 36 1722
1.6637068 -0.32952276 0.057478003 167 2830100 48 29 28 1697
1.710441 -0.27541709 0.042734053 183 2830100 55 30 45 1733
1.6809893 -0.2080172 0.025307452 226 2830100 65 31 62 1694
1.7166578 -0.40574729 0.012314944 196 2830100 61 32 71 1764
1.5635061 -0.31027207 -0.0040339753 260 2830100 66 33 32 1594
1.5824705 -0.2550095 -0.019136243 56 2830100 14 34 102 1603
1.5516795 -0.19303298 -0.033545382 85 2830100 21 35 72 1564
1.5766565 -0.37347043 -0.048117261 72 2830100 19 36 136 1621
1.5581686 -0.31040022 -0.062145814 102 2830100 26 37 54 1590
1.7334392 -0.28008258 -0.085479498 218 2830100 67 38 136 1758
1.7921371 -0.22291477 -0.10504742 213 2830100 70 39 73 1809
1.7308584 -0.41143295 -0.11807322 292 2830100 93 40 73 1783
1.8050891 -0.36044055 -0.13947093 221 2830100 75 41 104 1846
1.8176444 -0.29420897 -0.15720776 249 2830100 85 42 149 1848
1.8008466 -0.2249876 -0.17222466 243 2830100 81 43 72 1823
1.8337315 -0.43656266 -0.19459447 283 2830100 102 44 70 1895
1.8513559 -0.37045199 -0.21271369 248 2830100 89 45 51 1900
1.8655012 -0.30295768 -0.23095074 269 2830100 98 46 131 1904
1.8916876 -0.23680621 -0.25173393 177 2830100 65 47 144 1923
1.6258432 -0.38850951 -0.23460329 12 2830100 3 48 97 1688
5.6335115 -1.1298091 -0.86208218 445 2830100 1503 49 85 5810
5.655683 -0.92152345 -0.91589117 475 2830100 1600 50 83 5803
5.6962528 -0.71468693 -0.97430098 475 2830100 1611 51 93 5823
5.4021697 -1.2959802 -0.9901762 58 2830100 185 52 114 5643
5.809011 -1.1680646 -1.11349 501 2830100 1821 53 106 6029
5.8565078 -0.9561342 -1.1736809 449 2830100 1643 54 101 6049
5.9041462 -0.74066579 -1.2387731 448 2830100 1656 55 93 6078
5.3399963 -1.2842193 -1.19148 269 2830100 850 56 117 5620
5.9033484 -1.19025 -1.3654345 421 2830100 1606 57 92 6175
6.5944757 -1.0779147 -1.5832505 225 2830100 1063 58 65 6867
7.4962492 -0.94105709 -1.8696949 135 2830100 819 59 85 7783
5.2083616 -1.259007 -1.3750979 270 2830100 825 60 48 5532
5.8553734 -1.1856829 -1.593189 235 2830100 900 61 59 6183
6.5067291 -1.0648546 -1.8279848 163 2830100 765 62 61 6842
7.384006 -0.92382485 -2.1466331 89 2830100 531 63 48 7745
5.7242084 -1.3906363 1.8386992 149 2928240 569 0 74 6171
7.3120823 -1.4840554 2.2394502 46 2928240 280 1 98 7790
2.3563786 -0.38675338 0.69144666 115 2928240 71 2 90 2486
2.250469 -0.282819 0.63358331 240 2928240 133 3 45 2355
2.412174 -0.58471954 0.6704936 240 2928240 159 4 95 2571
2.2925665 -0.46633938 0.60708779 218 2928240 127 5 43 2417
2.2155955 -0.36452031 0.55933702 245 2928240 131 6 99 2314
2.0928333 -0.26516104 0.5042814 228 2928240 107 7 73 2169
2.2246861 -0.53881961 0.52749127 208 2928240 115 8 103 2349
2.1468318 -0.43583658 0.48188075 200 2928240 101 9 85 2243
2.0789335 -0.34319139 0.44233966 241 2928240 112 10 57 2153
1.997847 -0.25489792 0.40317646 242 2928240 102 11 57 2054
2.0684595 -0.50063753 0.40832132 241 2928240 113 12 107 2167
1.9948636 -0.40578255 0.36962202 232 2928240 99 13 46 2069
1.9710188 -0.32576549 0.34306228 189 2928240 78 14 105 2027
1.9043688 -0.24344431 0.3116726 228 2928240 86 15 54 1945
1.9173479 -0.46409881 0.30398259 212 2928240 84 16 14 1996
1.8911965 -0.38514209 0.27846327 245 2928240 93 17 70 1950
1.9026145 -0.31551743 0.25966004 213 2928240 81 18 72 1946
1.7784257 -0.22844864 0.22419284 162 2928240 53 19 97 1807
1.8525262 -0.44844279 0.22272688 189 2928240 69 20 53 1919
1.8160617 -0.37013802 0.19852911 173 2928240 60 21 58 1864
1.7760649 -0.29539129 0.17555337 204 2928240 67 22 91 1809
1.7279214 -0.22291148 0.15362135 182 2928240 56 23 137 1749
1.7515594 -0.42435765 0.14430767 195 2928240 64 24 37 1808
1.7446178 -0.35605252 0.12554087 180 2928240 57 25 52 1785
1.6640038 -0.27681324 0.1027893 168 2928240 48 26 122 1690
1.6906021 -0.21911708 0.08776059 174 2928240 51 27 104 1707
1.6834567 -0.4087292 0.075303435 233 2928240 70 28 8 1734
1.6851537 -0.34452948 0.058290895 151 2928240 45 29 13 1721
1.696887 -0.28392726 0.042438146 210 2928240 62 30 44 1721
1.6320869 -0.21214125 0.024590356 231 2928240 63 31 74 1646
1.6558319 -0.40211394 0.011896068 194 2928240 56 32 56 1704
1.5968405 -0.32708365 -0.0041250815 177 2928240 47 33 60 1630
1.5927105 -0.26669621 -0.019279499 66 2928240 17 34 98 1615
1.5980505 -0.20876665 -0.034574907 87 2928240 22 35 56 1612
1.6209534 -0.39448279 -0.049542081 79 2928240 22 36 138 1669
1.5914704 -0.3271994 -0.063552886 86 2928240 23 37 63 1626
1.7553288 -0.29468226 -0.086646453 202 2928240 64 38 117 1782
1.7669779 -0.23080367 -0.10365375 226 2928240 72 39 85 1785
1.7864606 -0.43624786 -0.12204652 254 2928240 86 40 70 1843
1.8145629 -0.37392458 -0.14037757 217 2928240 75 41 62 1858
1.804014 -0.30337349 -0.15618692 253 2928240 85 42 163 1836
1.823122 -0.23914056 -0.17449202 263 2928240 90 43 69 1847
1.8310183 -0.447806 -0.19459447 293 2928240 105 44 84 1895
1.8724045 -0.38662753 -0.21540061 233 2928240 86 45 65 1924
1.8988434 -0.32034299 -0.23531747 265 2928240 100 46 113 1940
1.9019943 -0.24995907 -0.25330481 181 2928240 68 47 138 1935
1.6234287 -0.39847818 -0.23460329 10 2928240 3 48 99 1688
5.6264729 -1.1643544 -0.86208218 448 2928240 1513 49 83 5810
5.6966562 -0.96411806 -0.92346698 471 2928240 1613 50 111 5851
5.6917601 -0.74962503 -0.97430098 471 2928240 1598 51 97 5823
1.1499418 -0.28334412 -0.21109021 11 2928240 2 52 124 1203
5.8017344 -1.2036861 -1.11349 625 2928240 2273 53 90 6029
5.8621373 -0.99401909 -1.1760092 422 2928240 1551 54 106 6061
5.8645477 -0.77227759 -1.2314359 428 2928240 1563 55 89 6042
5.2637053 -1.3000886 -1.1762155 286 2928240 880 56 112 5548
5.8042727 -1.2073829 -1.3442067 206 2928240 762 57 79 6079
6.5301776 -1.1085858 -1.5694169 223 2928240 1035 58 59 6807
7.317102 -0.96420795 -1.8264538 161 2928240 933 59 73 7603
5.121572 -1.2713392 -1.3542179 302 2928240 895 60 42 5448
5.7231398 -1.195509 -1.5591762 220 2928240 804 61 53 6051
6.3746696 -1.0834454 -1.7927182 178 2928240 800 62 48 6710
7.1724281 -0.94208723 -2.0867658 122 2928240 689 63 45 7529
5.5821953 -1.3924638 1.7957933 319 3026030 1160 0 87 6027
7.224092 -1.5124073 2.215302 36 3026030 216 1 72 7706
8.2738991 -1.4101874 2.4303546 55 3026030 423 2 75 8738
2.2601497 -0.29813376 0.63681179 237 3026030 133 3 55 2367
6.2082458 -1.545293 1.7282618 142 3026030 622 4 167 6627
2.2782943 -0.47801247 0.60407376 235 3026030 136 5 48 2405
2.2133172 -0.37810808 0.55933702 232 3026030 124 6 99 2314
2.1143057 -0.28107348 0.50986129 216 3026030 104 7 77 2193
2.2440338 -0.55810446 0.53288066 213 3026030 120 8 102 2373
2.17853 -0.45620751 0.4896149 216 3026030 112 9 75 2279
2.0652134 -0.35395715 0.4398742 226 3026030 104 10 62 2141
1.9729202 -0.26403016 0.39846554 258 3026030 106 11 33 2030
2.0653489 -0.51331997 0.40832132 240 3026030 113 12 115 2167
2.0038917 -0.42043963 0.37176579 227 3026030 99 13 59 2081
1.9689828 -0.33785331 0.34306228 205 3026030 84 14 101 2027
1.9028392 -0.25512472 0.3116726 230 3026030 87 15 68 1945
1.9720131 -0.49015895 0.31312034 222 3026030 94 16 20 2056
1.9004211 -0.3991805 0.28017691 227 3026030 88 17 65 1962
1.877202 -0.32315052 0.25645766 221 3026030 82 18 81 1922
1.8241934 -0.24571469 0.23014818 178 3026030 61 19 64 1855
1.8844403 -0.46842697 0.22690517 219 3026030 84 20 56 1955
1.8137565 -0.38127419 0.19852911 188 3026030 65 21 71 1864
1.8095267 -0.31237862 0.17904694 194 3026030 66 22 93 1845
1.7739041 -0.2399181 0.15783736 170 3026030 55 23 132 1797
1.7605305 -0.43798482 0.14526546 207 3026030 68 24 54 1820
1.7306867 -0.36428505 0.1246969 179 3026030 56 25 46 1773
1.7094866 -0.29517013 0.10570876 193 3026030 58 26 110 1738
1.6773506 -0.22787301 0.087143645 162 3026030 47 27 87 1695
1.7041824 -0.424851 0.076345697 183 3026030 56 28 48 1758
1.694743 -0.35733724 0.058697339 167 3026030 50 29 19 1733
1.7069324 -0.29638609 0.042734053 206 3026030 62 30 50 1733
1.6426435 -0.22377114 0.02476963 217 3026030 60 31 75 1658
1.6882629 -0.42097622 0.012147394 191 3026030 58 32 67 1740
1.5713217 -0.33191538 -0.0040643439 122 3026030 32 33 73 1606
1.6501541 -0.286735 -0.019995764 51 3026030 14 34 84 1675
1.6086258 -0.22019523 -0.034832288 92 3026030 24 35 72 1624
1.5603179 -0.38988253 -0.04776106 81 3026030 21 36 132 1609
1.6246231 -0.34441864 -0.064959966 82 3026030 23 37 61 1662
1.7534876 -0.30544722 -0.086646453 192 3026030 61 38 125 1782
1.8011358 -0.24651474 -0.10574425 203 3026030 67 39 70 1821
1.7837503 -0.44720116 -0.12204652 269 3026030 91 40 48 1843
1.7537124 -0.37261713 -0.13584439 229 3026030 74 41 71 1798
1.8021185 -0.314437 -0.15618692 259 3026030 87 42 168 1836
1.8216203 -0.25032252 -0.17449202 268 3026030 92 43 75 1847
1.8745451 -0.4706597 -0.19952351 289 3026030 109 44 66 1943
1.88166 -0.40059209 -0.21674405 259 3026030 97 45 65 1936
1.8968421 -0.33198804 -0.23531747 244 3026030 92 46 142 1940
1.8650681 -0.25675735 -0.24859215 169 3026030 61 47 129 1899
0 -0 -0 8 3026030 0 48 98 0
5.6308289 -1.2013321 -0.86386269 439 3026030 1489 49 92 5822
5.6672907 -0.99495596 -0.91967905 466 3026030 1583 50 90 5827
5.7222128 -0.78938514 -0.98032445 477 3026030 1638 51 94 5859
0 -0 -0 9 3026030 0 52 99 0
5.8057723 -1.2417288 -1.1157062 294 3026030 1073 53 115 6041
5.8791161 -1.0340482 -1.180666 442 3026030 1637 54 94 6085
5.8946123 -0.81306303 -1.2387731 445 3026030 1645 55 88 6078
5.141953 -1.3035434 -1.1507747 261 3026030 768 56 142 5428
5.7280979 -1.2282526 -1.3282859 205 3026030 741 57 71 6007
6.3622556 -1.1202846 -1.530683 190 3026030 839 58 82 6639
7.2187347 -0.9963454 -1.8033921 158 3026030 891 59 95 7507
5.0686202 -1.2912626 -1.3422863 269 3026030 783 60 50 5400
5.6023464 -1.2061983 -1.5282556 229 3026030 804 61 43 5931
6.2426319 -1.1004565 -1.7574517 196 3026030 850 62 73 6578
7.0294456 -0.96721894 -2.0468543 129 3026030 701 63 57 7385
5.6290321 -1.4408923 1.8136708 244 3123310 904 0 110 6087
6.9787431 -1.5057981 2.1428578 45 3123310 251 1 105 7454
7.9699764 -1.4087644 2.343576 33 3123310 231 2 55 8426
2.2811754 -0.31515962 0.64326864 261 3123310 149 3 55 2391
6.1200767 -1.5632873 1.7063553 167 3123310 716 4 97 6543
