# .PCD v0.7 - Point Cloud Data file format
VERSION 0.7
FIELDS x y z intensity t reflectivity ring noise range
SIZE 4 4 4 4 4 2 1 2 4
TYPE F F F F U U U U U
COUNT 1 1 1 1 1 1 1 1 1
WIDTH 769
HEIGHT 1
VIEWPOINT 0 0 0 1 0 0 0
POINTS 769
DATA ascii
-0.85402793 -1.1565069 0.30181003 148 35448790 32 10 23 1469
-0.79763579 -1.1674867 0.28304791 163 35448790 34 11 18 1442
-0.9492802 -1.1045682 0.27943724 148 35448790 33 12 70 1483
-0.93055254 -1.1670114 0.27100852 127 35448790 29 13 20 1517
-0.86379236 -1.1692598 0.24963829 125 35448790 27 14 64 1475
-0.802679 -1.1742522 0.23091015 171 35448790 35 15 31 1441
-0.96886671 -1.1273191 0.22905302 144 35448790 33 16 1 1504
-0.8999238 -1.1280745 0.20820487 110 35448790 23 17 55 1458
-0.87807459 -1.1872481 0.19881473 141 35448790 31 18 60 1490
-0.83789015 -1.2241575 0.18548331 169 35448790 38 19 47 1495
-0.94715303 -1.1020153 0.16980167 126 35448790 27 20 30 1463
-0.94021994 -1.178207 0.16146466 130 35448790 30 21 35 1516
-0.88652253 -1.19749 0.1452755 141 35448790 32 22 41 1497
-0.8226707 -1.2005277 0.12832521 170 35448790 36 23 68 1461
-0.980012 -1.1398041 0.1203628 115 35448790 26 24 21 1508
-0.90933412 -1.1388917 0.10275362 127 35448790 27 25 23 1461
-0.87545907 -1.1824594 0.089651734 139 35448790 30 26 75 1474
-0.83565468 -1.2179247 0.076038614 187 35448790 41 27 51 1479
-0.93455267 -1.0858587 0.062275156 152 35448790 31 28 1 1434
-0.9314304 -1.1657313 0.05056845 139 35448790 31 29 1 1493
-0.87495393 -1.179451 0.036224078 134 35448790 29 30 22 1469
-0.80938077 -1.1787055 0.021363433 224 35448790 46 31 42 1430
-0.9941808 -1.1550184 0.010639441 133 35448790 31 32 33 1524
-0.92801803 -1.160588 -0.003760657 156 35448790 34 33 13 1486
-0.89079386 -1.200497 -0.017846966 177 35448790 40 34 63 1495
-0.82477391 -1.1994619 -0.031228948 229 35448790 48 35 38 1456
-1.355135 -1.5728121 -0.061653029 35 35448790 15 36 97 2077
-1.2854353 -1.6051636 -0.080437794 278 35448790 118 37 31 2058
-0.91829538 -1.2364774 -0.074976891 143 35448790 34 38 53 1542
-0.81959134 -1.1919695 -0.084142461 234 35448790 49 39 38 1449
-1.310964 -1.5191314 -0.13317177 315 35448790 127 40 54 2011
-1.2709953 -1.5856565 -0.15397713 301 35448790 125 41 48 2038
-1.1838249 -1.593081 -0.16945772 293 35448790 116 42 60 1992
-1.0290675 -1.4948874 -0.17222466 214 35448790 71 43 4 1823
-1.3256347 -1.5350482 -0.2093816 371 35448790 154 44 54 2039
-1.2635285 -1.5750452 -0.22749169 308 35448790 127 45 20 2032
-1.1991485 -1.6119386 -0.24550648 287 35448790 117 46 57 2024
-0.79797089 -1.1585758 -0.18575685 175 35448790 35 47 72 1419
-1.303533 -1.5069011 -0.27963376 350 35448790 142 48 37 2012
-1.2717525 -1.5838804 -0.30477053 291 35448790 123 49 25 2054
-1.164866 -1.5641439 -0.31171548 286 35448790 111 50 29 1975
-1.1295475 -1.6390127 -0.33781788 304 35448790 124 51 57 2019
-1.3017315 -1.5021141 -0.35427359 364 35448790 148 52 28 2019
-1.2369545 -1.5389458 -0.37104017 300 35448790 121 53 37 2009
-1.1823412 -1.5865684 -0.39135632 300 35448790 122 54 51 2017
-1.1232886 -1.6299918 -0.41210914 339 35448790 138 55 46 2022
-1.3013474 -1.4999774 -0.43079847 342 35448790 141 56 55 2032
-1.2294729 -1.5279984 -0.44467837 325 35448790 131 57 17 2011
-1.1672608 -1.5657046 -0.46273249 309 35448790 124 58 42 2007
-1.1012434 -1.5977037 -0.48021588 317 35448790 127 59 46 1999
-1.3042725 -1.4998024 -0.51006883 368 35448790 155 60 7 2052
-1.2096758 -1.5008184 -0.51405662 352 35448790 140 61 17 1995
-1.1556952 -1.5495701 -0.53594524 352 35448790 141 62 51 2006
-1.107885 -1.6087812 -0.56347388 312 35448790 129 63 46 2033
-0.95777208 -1.0988145 0.45498195 150 35548210 35 0 14 1527
-0.92493296 -1.1464969 0.44214049 150 35548210 35 1 27 1538
-0.85618132 -1.1468686 0.41442302 113 35548210 25 2 34 1490
-0.80856365 -1.1727474 0.39790648 188 35548210 41 3 14 1479
-0.93763179 -1.0768082 0.38570985 144 35548210 31 4 25 1479
-0.92247468 -1.1424294 0.38103113 150 35548210 34 5 1 1517
-0.89091998 -1.1924461 0.37079644 131 35548210 31 6 58 1534
-0.83429694 -1.2074538 0.35083479 179 35548210 41 7 20 1509
-0.95006597 -1.0915111 0.33347145 120 35548210 26 8 36 1485
-0.94136971 -1.166746 0.32977575 131 35548210 31 9 1 1535
-0.88221079 -1.1794579 0.30920631 130 35548210 29 10 22 1505
-0.81817883 -1.1819198 0.28775886 156 35548210 33 11 18 1466
-0.93283182 -1.0720512 0.27265388 135 35548210 28 12 58 1447
-0.93027818 -1.1520935 0.26886475 128 35548210 29 13 14 1505
-0.86386484 -1.1544684 0.24760734 138 35548210 30 14 60 1463
-0.83684582 -1.2082547 0.23860182 153 35548210 34 15 25 1489
-0.95240945 -1.0945121 0.22357036 146 35548210 31 16 15 1468
-0.936683 -1.1594872 0.21505934 111 35548210 25 17 39 1506
-0.87108225 -1.1628016 0.19561234 127 35548210 27 18 50 1466
-0.81824279 -1.1798549 0.17952797 137 35548210 29 19 36 1447
-0.96954542 -1.1141654 0.17258722 124 35548210 27 20 36 1487
-0.9174338 -1.1352944 0.15635233 132 35548210 28 21 41 1468
-0.90101862 -1.201583 0.14644003 136 35548210 31 22 49 1509
-0.81638664 -1.1758194 0.12621719 153 35548210 32 23 74 1437
-0.94771725 -1.0886593 0.11557384 108 35548210 23 24 17 1448
-0.94640958 -1.170524 0.10612951 130 35548210 30 25 23 1509
-0.86832571 -1.1579001 0.088192001 146 35548210 31 26 74 1450
-0.81574935 -1.1734145 0.073570833 182 35548210 37 27 63 1431
-0.98057848 -1.1252966 0.064880811 150 35548210 33 28 9 1494
-0.96119684 -1.1879646 0.051787782 126 35548210 29 29 1 1529
-0.89658701 -1.1932416 0.036815893 153 35548210 34 30 35 1493
-0.82345045 -1.1835663 0.021542706 225 35548210 47 31 22 1442
-0.9854815 -1.1308037 0.010471892 125 35548210 28 32 22 1500
-0.93512177 -1.1548719 -0.003760657 144 35548210 32 33 15 1486
-0.87651569 -1.1662325 -0.017417205 168 35548210 36 34 71 1459
-0.85269248 -1.22391 -0.032001093 213 35548210 47 35 31 1492
-1.3805299 -1.582545 -0.062365435 57 35548210 25 36 78 2101
-1.2650499 -1.5599924 -0.078561686 291 35548210 117 37 35 2010
-1.1636357 -1.5469055 -0.094231665 184 35548210 69 38 56 1938
-0.84743351 -1.2164067 -0.086232953 226 35548210 50 39 32 1485
-1.3281386 -1.5200756 -0.13396642 335 35548210 137 40 24 2023
-1.2807007 -1.577828 -0.15397713 306 35548210 127 41 48 2038
-1.1791971 -1.5666813 -0.16741605 310 35548210 120 42 110 1968
-1.1338986 -1.6257229 -0.18809615 295 35548210 117 43 43 1991
-1.3271718 -1.5178994 -0.20814934 360 35548210 148 44 28 2027
-1.2581316 -1.5487518 -0.22480479 297 35548210 120 45 34 2008
-1.2090167 -1.6045504 -0.24550648 300 35548210 123 46 82 2024
-0.86633819 -1.2414626 -0.1998948 144 35548210 34 47 65 1527
-1.3205843 -1.507814 -0.28130159 330 35548210 135 48 31 2024
-1.2739605 -1.5668396 -0.30298996 281 35548210 117 49 24 2042
-1.1815773 -1.566427 -0.31360945 298 35548210 118 50 31 1987
-1.13281 -1.6223511 -0.33581007 291 35548210 117 51 53 2007
-1.3109237 -1.4940985 -0.35427359 359 35548210 146 52 33 2019
-1.246374 -1.531327 -0.37104017 314 35548210 127 53 56 2009
-1.1849619 -1.5698879 -0.38902795 290 35548210 116 54 48 2005
-1.1265432 -1.6134362 -0.40966338 325 35548210 131 55 53 2010
-1.3260051 -1.5095857 -0.43588662 323 35548210 136 56 57 2056
-1.231433 -1.511353 -0.44202486 368 35548210 147 57 25 1999
-1.1838821 -1.5678313 -0.46549916 362 35548210 147 58 38 2019
-1.1176955 -1.6004668 -0.48309863 353 35548210 143 59 55 2011
-1.3211317 -1.5004951 -0.51305169 349 35548210 149 60 9 2064
-1.2261934 -1.5023504 -0.51714873 358 35548210 144 61 13 2007
-1.1791219 -1.5609039 -0.54235739 327 35548210 135 62 40 2030
-1.1045403 -1.5830418 -0.55682194 337 35548210 136 63 29 2009
-0.95691669 -1.0843283 0.45140648 130 35646660 30 0 18 1515
-0.92467886 -1.1318991 0.43869072 131 35646660 30 1 29 1526
-0.90491402 -1.1967577 0.43444878 121 35646660 29 2 24 1562
-0.80912566 -1.1582893 0.39467803 141 35646660 30 3 19 1467
-0.96720433 -1.0971045 0.39509833 132 35646660 30 4 22 1515
-0.90005755 -1.1007794 0.36897478 145 35646660 31 5 5 1469
-0.89821994 -1.1869571 0.37079644 151 35646660 35 6 53 1534
-0.82830328 -1.1831896 0.3452549 171 35646660 38 7 42 1485
-0.94901419 -1.0768881 0.33077675 130 35646660 28 8 30 1473
-0.948511 -1.1609479 0.32977575 133 35646660 31 9 12 1535
-0.8610639 -1.1365786 0.29934457 155 35646660 33 10 47 1457
-0.85244143 -1.2154108 0.29718068 152 35646660 35 11 6 1514
-0.96276349 -1.092836 0.27943724 140 35646660 31 12 29 1483
-0.929856 -1.1372232 0.26672098 124 35646660 28 13 1 1493
-0.8780759 -1.1585717 0.24963829 123 35646660 27 14 63 1475
-0.82383227 -1.1740096 0.23283306 153 35646660 32 15 36 1453
-0.98262769 -1.1153446 0.22905302 136 35646660 31 16 8 1504
-0.92873955 -1.1353321 0.2116321 138 35646660 30 17 39 1482
-0.85663503 -1.1290122 0.19080876 142 35646660 29 18 46 1430
-0.84600371 -1.2040402 0.18399446 135 35646660 30 19 52 1483
-0.98424274 -1.1171385 0.17397998 118 35646660 26 20 47 1499
-0.94705135 -1.1573462 0.16018659 125 35646660 28 21 35 1504
-0.8939271 -1.1770095 0.14411096 144 35646660 32 22 69 1485
-0.87860638 -1.2490035 0.13464925 145 35646660 34 23 59 1533
-1.0097438 -1.1456394 0.1222784 118 35646660 28 24 8 1532
-0.953574 -1.1646949 0.10612951 132 35646660 30 25 44 1509
-0.89714855 -1.1811655 0.0903816 133 35646660 29 26 61 1486
-0.80223119 -1.1389937 0.071719989 192 35646660 37 27 65 1395
-1.0033276 -1.1372389 0.06592308 150 35646660 35 28 10 1518
-0.94566554 -1.1542134 0.05056845 118 35646660 26 29 14 1493
-0.88209665 -1.1590788 0.035928167 125 35646660 26 30 31 1457
-0.85834873 -1.2177202 0.022259802 172 35646660 38 31 34 1490
-0.95270532 -1.0797461 0.010053015 123 35646660 25 32 35 1440
-0.94219035 -1.1491125 -0.003760657 159 35646660 35 33 23 1486
-0.88365507 -1.1608323 -0.017417205 146 35646660 31 34 63 1459
-0.82559425 -1.1696473 -0.030714184 207 35646660 42 35 39 1432
-1.3822739 -1.5650542 -0.062009227 247 35646660 108 36 65 2089
-1.2822077 -1.5614679 -0.079030715 314 35646660 128 37 20 2022
-1.2312161 -1.6160083 -0.098899491 263 35646660 109 38 71 2034
-0.82034063 -1.1622474 -0.082748793 219 35646660 44 39 35 1425
-1.3533076 -1.5298343 -0.13555574 342 35646660 143 40 51 2047
-1.2751625 -1.5514522 -0.15216386 310 35646660 126 41 56 2014
-1.2105341 -1.5879425 -0.17047855 306 35646660 123 42 100 2004
-1.1438525 -1.6187348 -0.18809615 307 35646660 122 43 38 1991
-1.3443724 -1.5186651 -0.2093816 374 35646660 155 44 42 2039
-1.2979122 -1.5778395 -0.23017858 293 35646660 124 45 24 2056
-1.2188393 -1.5971018 -0.24550648 304 35646660 125 46 63 2024
-1.1074477 -1.566404 -0.25330481 250 35646660 94 47 74 1935
-1.3455796 -1.5174655 -0.28463715 334 35646660 140 48 42 2048
-1.2986362 -1.5773163 -0.30655104 296 35646660 126 49 22 2066
-1.205554 -1.5779797 -0.31739742 288 35646660 116 50 45 2011
-1.1427432 -1.6153698 -0.33581007 296 35646660 119 51 42 2007
-1.3279126 -1.4948591 -0.35637924 356 35646660 147 52 55 2031
-1.2632474 -1.5327516 -0.37325647 314 35646660 128 53 42 2021
-1.2017219 -1.5719397 -0.39135632 291 35646660 119 54 67 2017
-1.1228527 -1.5873115 -0.40477189 344 35646660 135 55 54 1986
-1.3352429 -1.5014211 -0.43588662 363 35646660 153 56 42 2056
-1.2555789 -1.5218229 -0.44733182 332 35646660 136 57 38 2023
-1.2005734 -1.5698128 -0.46826589 349 35646660 144 58 41 2031
-1.1207668 -1.5840695 -0.48021588 351 35646660 140 59 50 1999
-1.3380481 -1.5010371 -0.5160346 381 35646660 164 60 1 2076
-1.2501614 -1.5126734 -0.52333283 357 35646660 147 61 10 2031
-1.1816504 -1.5444554 -0.53915131 357 35646660 145 62 48 2018
-1.1341993 -1.6044798 -0.56679988 327 35646660 137 63 54 2045
-1.0093446 -1.1296889 0.47285947 69 35742970 17 0 20 1587
-0.91695493 -1.1084919 0.43179128 164 35742970 37 1 30 1502
-0.88420719 -1.1545779 0.42109826 108 35742970 25 2 22 1514
-0.80286431 -1.1344349 0.38822111 165 35742970 34 3 21 1443
-0.95848942 -1.0738636 0.38883933 143 35742970 32 4 10 1491
-0.93642461 -1.1310232 0.38103113 136 35742970 31 5 1 1517
-0.89840275 -1.1721815 0.36789584 135 35742970 31 6 63 1522
-0.83554763 -1.178085 0.3452549 170 35742970 37 7 31 1485
-0.99452883 -1.1146718 0.34425035 132 35742970 31 8 36 1533
-0.90332228 -1.0918951 0.31172937 130 35742970 27 9 9 1451
-0.88946897 -1.1592257 0.30674085 124 35742970 28 10 31 1493
-0.82580578 -1.1621988 0.2854034 159 35742970 34 11 22 1454
-0.96160638 -1.0781131 0.27717614 128 35742970 28 12 38 1471
-0.95187575 -1.1496853 0.27100852 104 35742970 24 13 18 1517
-0.9283765 -1.2094522 0.26182404 128 35742970 31 14 55 1547
-0.83788353 -1.1785864 0.23475598 155 35742970 33 15 24 1465
-0.98155826 -1.1004437 0.22722548 131 35742970 29 16 1 1492
-0.95084119 -1.1479053 0.21505934 132 35742970 30 17 23 1506
-0.87079293 -1.1331646 0.19240995 126 35742970 26 18 63 1442
-0.86718619 -1.2182277 0.18697213 138 35742970 31 19 36 1507
-0.96727705 -1.0843946 0.16980167 128 35742970 27 20 23 1463
-0.92368376 -1.114763 0.15507425 137 35742970 29 21 23 1456
-0.87200481 -1.1336356 0.13945283 161 35742970 33 22 59 1437
-0.85850388 -1.2046506 0.13043322 145 35742970 32 23 69 1485
-0.98489779 -1.1037222 0.11844722 134 35742970 29 24 20 1484
-0.93778312 -1.1311761 0.1035976 129 35742970 28 25 32 1473
-0.91168231 -1.1851321 0.091111459 131 35742970 29 26 53 1498
-0.82312661 -1.1535603 0.07295388 169 35742970 34 27 74 1419
-1.0023003 -1.1221199 0.065401942 147 35742970 33 28 20 1506
-0.96038753 -1.1576195 0.050974898 109 35742970 25 29 7 1505
-0.88186854 -1.1441431 0.03563226 152 35742970 32 30 19 1445
-0.83093977 -1.1636077 0.021363433 213 35742970 44 31 30 1430
-0.98329538 -1.1007271 0.010304341 93 35742970 20 32 24 1476
-0.95688874 -1.1525422 -0.0037910256 150 35742970 34 33 18 1498
-0.88343477 -1.1458856 -0.017273951 167 35742970 35 34 59 1447
-0.82577717 -1.1548008 -0.030456804 193 35742970 39 35 44 1420
-1.3438791 -1.5028952 -0.059872009 293 35742970 119 36 75 2017
-1.276432 -1.535131 -0.078092672 277 35742970 111 37 27 1998
-1.226464 -1.5894446 -0.097732522 276 35742970 112 38 84 2010
-0.82745659 -1.157192 -0.082748793 163 35742970 33 39 35 1425
-1.3387041 -1.4947436 -0.13317177 369 35742970 149 40 38 2011
-1.2999666 -1.561993 -0.15397713 305 35742970 127 41 40 2038
-1.2275615 -1.5899487 -0.17149937 294 35742970 119 42 101 2016
-1.1607171 -1.6213996 -0.18922982 287 35742970 115 43 40 2003
-1.3536654 -1.5103875 -0.2093816 360 35742970 150 44 29 2039
-1.2770424 -1.533196 -0.22480479 314 35742970 126 45 48 2008
-1.2431844 -1.6084419 -0.24841762 297 35742970 125 46 80 2048
-1.1586025 -1.6176103 -0.26273012 298 35742970 120 47 74 2007
-1.3389881 -1.491495 -0.28130159 311 35742970 127 48 24 2024
-1.300691 -1.5602033 -0.30477053 276 35742970 116 49 17 2054
-1.2152137 -1.5705528 -0.31739742 277 35742970 112 50 39 2011
-1.1526334 -1.6083276 -0.33581007 318 35742970 128 51 56 2007
-1.3449596 -1.4954668 -0.35848483 343 35742970 143 52 55 2043
-1.2952976 -1.5521358 -0.37990525 326 35742970 138 53 52 2057
-1.2113445 -1.5645366 -0.39135632 270 35742970 110 54 63 2017
-1.1394145 -1.5899411 -0.40721765 321 35742970 128 55 51 1998
-1.3679708 -1.5193455 -0.44351888 343 35742970 150 56 59 2092
-1.2648931 -1.5140902 -0.44733182 318 35742970 130 57 26 2023
-1.2173332 -1.5716479 -0.47103256 340 35742970 142 58 34 2043
-1.1304653 -1.5771627 -0.48021588 332 35742970 133 59 59 1999
-1.3550204 -1.5014275 -0.5190174 368 35742970 160 60 17 2088
-1.2668606 -1.5138659 -0.52642488 388 35742970 162 61 18 2043
-1.1840218 -1.528035 -0.53594524 361 35742970 145 62 45 2006
-1.1373097 -1.5881162 -0.56347388 338 35742970 140 63 36 2033
-1.0008885 -1.1064842 0.46570846 143 35841610 35 0 16 1563
-0.92373925 -1.1028446 0.43179128 143 35841610 32 1 30 1502
-0.89127487 -1.1491308 0.42109826 104 35841610 24 2 20 1514
-0.85021627 -1.1858442 0.40759182 177 35841610 41 3 14 1515
-0.97282755 -1.0765575 0.39196882 135 35841610 30 4 20 1503
-0.93588459 -1.1163549 0.37801704 145 35841610 33 5 7 1505
-0.88415849 -1.1390522 0.35919395 146 35841610 32 6 46 1486
-0.85638088 -1.1918926 0.35083479 178 35841610 40 7 31 1509
-0.96999615 -1.0738386 0.33347145 108 35841610 24 8 37 1485
-0.93258268 -1.1132843 0.31946355 143 35841610 32 9 1 1487
-0.88935894 -1.144473 0.30427542 136 35841610 30 10 29 1481
-0.86041802 -1.1953088 0.29482526 154 35841610 35 11 11 1502
-0.98400015 -1.0896858 0.28169838 133 35841610 30 12 62 1495
-0.92857087 -1.1076308 0.26243344 126 35841610 27 13 6 1469
-0.9067449 -1.1663837 0.2537002 129 35841610 29 14 62 1499
-0.83817714 -1.1638114 0.23283306 153 35841610 32 15 33 1453
-0.98034322 -1.085598 0.22539791 138 35841610 30 16 12 1480
-0.92733705 -1.1056495 0.20820487 121 35841610 26 17 36 1458
-0.91425085 -1.1747268 0.20041592 113 35841610 25 18 25 1502
-0.84678614 -1.1742519 0.18101682 115 35841610 24 19 57 1459
-0.97391254 -1.0784391 0.16980167 112 35841610 24 20 45 1463
-0.93050641 -1.1090744 0.15507425 116 35841610 25 21 44 1456
-0.88628411 -1.1376857 0.14061737 133 35841610 28 22 38 1449
-0.87987339 -1.2187439 0.13254122 149 35841610 34 23 87 1509
-1.007689 -1.1154101 0.1203628 114 35841610 26 24 27 1508
-0.99088335 -1.1804101 0.10866143 113 35841610 27 25 32 1545
-0.89685303 -1.1511697 0.088921867 125 35841610 27 26 65 1462
-0.83720988 -1.1582004 0.073570833 156 35841610 32 27 57 1431
-1.0011255 -1.1070567 0.064880811 134 35841610 30 28 13 1494
-0.96747243 -1.1517048 0.050974898 121 35841610 27 29 1 1505
-0.92578048 -1.1859926 0.0371118 157 35841610 36 30 19 1505
-0.8380639 -1.1584873 0.021363433 187 35841610 38 31 35 1430
-1.0785701 -1.1925706 0.011225867 76 35841610 20 32 29 1608
-0.97166449 -1.1558347 -0.0038213946 136 35841610 31 33 32 1510
-0.92737174 -1.187732 -0.017990218 160 35841610 36 34 53 1507
-0.83284736 -1.1497121 -0.030456804 190 35841610 38 35 64 1420
-1.4013754 -1.5479738 -0.062009227 290 35841610 127 36 92 2089
-1.3012727 -1.5456157 -0.079030715 266 35841610 109 37 33 2022
-1.2361937 -1.5818893 -0.097732522 293 35841610 118 38 54 2010
-1.0172621 -1.4043409 -0.10086642 128 35841610 39 39 18 1737
-1.3639362 -1.5042417 -0.13476108 343 35841610 142 40 45 2035
-1.2941051 -1.5356871 -0.15216386 302 35841610 122 41 31 2014
-1.2446591 -1.5918056 -0.17252021 298 35841610 123 42 108 2028
-1.1566174 -1.5949051 -0.18696247 302 35841610 118 43 59 1979
-1.3789496 -1.5197332 -0.21184613 346 35841610 147 44 50 2063
-1.3018014 -1.5435623 -0.22749169 292 35841610 120 45 36 2032
-1.2310044 -1.5726448 -0.24405089 293 35841610 119 46 84 2012
-1.1615194 -1.6008416 -0.26115921 277 35841610 110 47 81 1995
-1.3641 -1.5008389 -0.28463715 330 35841610 138 48 27 2048
-1.3102398 -1.552193 -0.30477053 297 35841610 125 49 30 2054
-1.2467538 -1.5910482 -0.32307932 306 35841610 128 50 36 2047
-1.1694307 -1.6107986 -0.33781788 304 35841610 124 51 58 2019
-1.3461568 -1.478451 -0.35637924 347 35841610 143 52 50 2031
-1.2819614 -1.5171342 -0.37325647 315 35841610 128 53 47 2021
-1.2281852 -1.5663379 -0.39368463 281 35841610 115 54 54 2029
-1.1560504 -1.5924269 -0.40966338 312 35841610 126 55 52 2010
-1.3614672 -1.4935895 -0.43843073 333 35841610 142 56 87 2068
-1.2968336 -1.5331056 -0.45529222 342 35841610 145 57 28 2059
-1.2197471 -1.5549617 -0.46826589 344 35841610 142 58 58 2031
-1.1538095 -1.5890484 -0.48598135 363 35841610 149 59 65 2023
-1.3485271 -1.4759232 -0.51305169 386 35841610 164 60 6 2064
-1.2686301 -1.497218 -0.52333283 322 35841610 133 61 13 2031
-1.2076532 -1.5389357 -0.54235739 385 35841610 158 62 44 2030
-1.1402624 -1.5717753 -0.56014794 325 35841610 133 63 37 2021
-1.2706946 -1.3875461 0.58727533 141 35938830 55 0 1 1971
-0.9156208 -1.0796248 0.4248918 166 35938830 36 1 23 1478
-0.89118904 -1.1345758 0.41776064 101 35938830 23 2 37 1502
-0.85068452 -1.1712537 0.40436336 153 35938830 35 3 10 1503
-0.97941488 -1.0705681 0.39196882 149 35938830 34 4 13 1503
-0.94271684 -1.1105915 0.37801704 170 35938830 38 5 1 1505
-0.91991574 -1.1702226 0.37079644 138 35938830 32 6 52 1534
-0.84994161 -1.1677428 0.3452549 174 35938830 38 7 37 1485
-0.98445833 -1.0764959 0.3361662 136 35938830 30 8 31 1497
-0.93181521 -1.0986032 0.31688547 130 35938830 28 9 13 1475
-0.89636457 -1.1389943 0.30427542 148 35938830 32 10 37 1481
-0.84693819 -1.1614847 0.28775886 147 35938830 32 11 8 1466
-0.99066776 -1.0836276 0.28169838 125 35938830 28 12 52 1495
-0.92770892 -1.092911 0.26028964 135 35938830 29 13 22 1457
-0.89925265 -1.142213 0.24963829 124 35938830 27 14 70 1475
-0.84530234 -1.1586466 0.23283306 143 35938830 30 15 40 1453
-1.0029911 -1.0970688 0.22905302 111 35938830 25 16 5 1504
-0.96485615 -1.1361506 0.21505934 147 35938830 33 17 34 1506
-0.89935648 -1.1410741 0.19561234 133 35938830 28 18 52 1466
-0.8539753 -1.169034 0.18101682 137 35938830 29 19 31 1459
-0.9965964 -1.090036 0.17258722 114 35938830 25 20 37 1487
-0.98364377 -1.157905 0.16274275 111 35938830 26 21 35 1528
-0.87845314 -1.1134728 0.1382883 125 35938830 25 22 74 1425
-0.87322217 -1.1940248 0.13043322 135 35938830 30 23 52 1485
-0.9822219 -1.0738997 0.11653163 104 35938830 22 24 35 1460
-0.98260295 -1.1560663 0.10697348 125 35938830 29 25 31 1521
-0.93357629 -1.1832585 0.091841333 125 35938830 29 26 69 1510
-0.86554098 -1.1820489 0.075421669 143 35938830 31 27 86 1467
-1.0078993 -1.1008931 0.064880811 134 35938830 30 28 11 1494
-0.98229122 -1.1548823 0.051381342 118 35938830 27 29 10 1517
-0.91816109 -1.1614679 0.036519986 148 35938830 32 30 42 1481
-0.84515643 -1.1533232 0.021363433 205 35938830 42 31 36 1430
-1.3856964 -1.5133884 0.014325546 193 35938830 81 32 11 2052
-0.96318215 -1.1315751 -0.003760657 159 35938830 35 33 21 1486
-0.92719972 -1.1726072 -0.017846966 159 35938830 35 34 45 1495
-0.89666718 -1.2219602 -0.032515854 179 35938830 41 35 52 1516
-1.3865341 -1.5128183 -0.06094062 286 35938830 121 36 74 2053
-1.310732 -1.5376021 -0.079030715 195 35938830 80 37 30 2022
-1.2533147 -1.5836731 -0.098316006 285 35938830 117 38 71 2022
-1.1676021 -1.5912433 -0.11480306 270 35938830 105 39 36 1977
-1.3812375 -1.5046651 -0.13555574 329 35938830 138 40 41 2047
-1.3035035 -1.5277177 -0.15216386 293 35938830 119 41 43 2014
-1.2395577 -1.5653914 -0.17047855 336 35938830 135 42 101 2004
-1.194672 -1.6262894 -0.19149719 294 35938830 121 43 43 2027
-1.3963236 -1.520034 -0.21307838 365 35938830 157 44 38 2075
-1.3112481 -1.5355456 -0.22749169 302 35938830 125 45 35 2032
-1.2480302 -1.5743964 -0.24550648 289 35938830 119 46 81 2024
-1.1854112 -1.6128566 -0.26430097 317 35938830 129 47 85 2019
-1.3571901 -1.4749511 -0.28130159 336 35938830 138 48 26 2024
-1.3274493 -1.5531454 -0.30655104 287 35938830 122 49 19 2066
-1.2638586 -1.5926503 -0.32497326 302 35938830 128 50 43 2059
-1.1863016 -1.6131239 -0.33982572 318 35938830 131 51 56 2031
-1.3712173 -1.487536 -0.36059049 379 35938830 160 52 31 2055
-1.3065802 -1.5271623 -0.37768897 319 35938830 133 53 55 2045
-1.2377729 -1.5587726 -0.39368463 299 35938830 123 54 63 2029
-1.1657996 -1.5853034 -0.40966338 326 35938830 132 55 46 2010
-1.3865125 -1.502444 -0.44351888 364 35938830 159 56 48 2092
-1.2909907 -1.5073425 -0.4499853 298 35938830 123 57 35 2035
-1.2292651 -1.5474482 -0.46826589 345 35938830 142 58 36 2031
-1.1635381 -1.5819389 -0.48598135 347 35938830 142 59 61 2023
-1.3575578 -1.467621 -0.51305169 376 35938830 160 60 9 2064
-1.2928925 -1.5070057 -0.52951694 340 35938830 144 61 21 2055
-1.2170732 -1.5314966 -0.54235739 365 35938830 150 62 39 2030
-1.1498852 -1.5647492 -0.56014794 335 35938830 137 63 54 2021
-1.4037931 -1.5141255 0.64448327 284 36036210 133 0 35 2163
-0.93720335 -1.0914259 0.43179128 150 36036210 34 1 36 1502
-0.90530938 -1.1381069 0.42109826 93 36036210 21 2 19 1514
-0.81676042 -1.1101551 0.38499269 158 36036210 32 3 17 1431
-1.0095812 -1.0900363 0.40135729 127 36036210 30 4 23 1539
-0.94951355 -1.1047862 0.37801704 140 36036210 32 5 9 1505
-0.8980698 -1.1281164 0.35919395 155 36036210 34 6 62 1486
-0.86401677 -1.1718998 0.34804484 143 36036210 32 7 27 1497
-1.022822 -1.1047577 0.34694505 111 36036210 26 8 33 1545
-0.93853855 -1.0928651 0.31688547 123 36036210 27 9 1 1475
-0.91797531 -1.1518412 0.30920631 129 36036210 29 10 27 1505
-0.83307642 -1.1278721 0.28069246 166 36036210 34 11 23 1430
-0.99729818 -1.0775286 0.28169838 146 36036210 33 12 38 1495
-0.97287643 -1.1319696 0.27100852 142 36036210 33 13 5 1517
-0.92098993 -1.1551688 0.2537002 119 36036210 27 14 58 1499
-0.86647528 -1.1724901 0.2366789 143 36036210 31 15 18 1477
-1.025816 -1.1083018 0.23270813 125 36036210 29 16 10 1528
-0.99503976 -1.157226 0.2202002 136 36036210 32 17 32 1542
-0.93601662 -1.172714 0.20201711 133 36036210 30 18 44 1514
-0.85404956 -1.1542002 0.17952797 132 36036210 28 19 49 1447
-0.99516958 -1.0751535 0.17119443 78 36036210 17 20 40 1475
-0.97516882 -1.1337558 0.16018659 104 36036210 23 21 34 1504
-0.92254317 -1.154717 0.14411096 108 36036210 24 22 31 1485
-0.88764763 -1.1982496 0.13148722 138 36036210 31 23 75 1497
-0.99691981 -1.0766296 0.11748943 111 36036210 24 24 27 1472
-0.9506374 -1.1046499 0.10275362 112 36036210 24 25 44 1461
-0.92586559 -1.1587926 0.0903816 134 36036210 30 26 76 1486
-0.85849899 -1.1574649 0.074187778 134 36036210 28 27 57 1443
-1.0309347 -1.1122735 0.06592308 118 36036210 27 28 20 1518
-0.98935896 -1.1488334 0.051381342 123 36036210 28 29 3 1517
-0.88028765 -1.0996215 0.034744535 142 36036210 28 30 23 1409
-0.87367159 -1.1770194 0.021901254 174 36036210 37 31 65 1466
-1.403114 -1.5136579 0.014409322 287 36036210 122 32 48 2064
-0.96227324 -1.1165539 -0.0037302885 105 36036210 23 33 28 1474
-0.91187716 -1.1387967 -0.017417205 151 36036210 32 34 55 1459
-0.85405016 -1.1490339 -0.030714184 172 36036210 35 35 53 1432
-1.3957905 -1.5042822 -0.06094062 291 36036210 123 36 85 2053
-1.3593152 -1.5749172 -0.081375837 76 36036210 33 37 36 2082
-1.2779995 -1.5946587 -0.099482961 283 36036210 119 38 71 2046
-1.1844901 -1.5936638 -0.11549989 283 36036210 112 39 32 1989
-1.3741416 -1.4786199 -0.13396642 358 36036210 146 40 48 2023
-1.33632 -1.5468551 -0.15488377 292 36036210 123 41 67 2050
-1.2640992 -1.5764118 -0.17252021 313 36036210 129 42 94 2028
-1.1903652 -1.5997599 -0.18922982 298 36036210 119 43 36 2003
-1.3893663 -1.493956 -0.21061386 359 36036210 151 44 70 2051
-1.3128462 -1.5184505 -0.22614822 294 36036210 120 45 28 2020
-1.2651234 -1.5759976 -0.24696203 326 36036210 135 46 89 2036
-1.1810768 -1.5864675 -0.26115921 302 36036210 120 47 105 1995
-1.390515 -1.4926816 -0.28630495 333 36036210 141 48 37 2060
-1.3214234 -1.5270237 -0.30298996 310 36036210 129 49 33 2042
-1.2587618 -1.5663921 -0.32118532 303 36036210 125 50 42 2035
-1.2103121 -1.6247901 -0.34384137 300 36036210 127 51 44 2055
-1.3722584 -1.4704572 -0.35848483 379 36036210 158 52 57 2043
-1.3159261 -1.5191165 -0.37768897 313 36036210 131 53 67 2045
-1.262068 -1.5694962 -0.39834136 312 36036210 131 54 53 2053
-1.1965587 -1.6063852 -0.41700062 296 36036210 124 55 36 2046
-1.3876994 -1.485339 -0.44097483 349 36036210 151 56 74 2080
-1.2925482 -1.4905511 -0.44733182 324 36036210 132 57 28 2023
-1.2460558 -1.5489745 -0.47103256 350 36036210 146 58 40 2043
-1.1871414 -1.5934522 -0.49174684 353 36036210 148 59 58 2047
-1.3744824 -1.4677477 -0.5160346 408 36036210 176 60 10 2076
-1.302115 -1.4990443 -0.52951694 376 36036210 159 61 12 2055
-1.2191974 -1.5149912 -0.53915131 365 36036210 149 62 37 2018
-1.1732335 -1.5761619 -0.56679988 349 36036210 146 63 52 2045
-1.4757725 -1.5723009 0.67308724 204 36136550 104 0 42 2259
-0.92125952 -1.0596337 0.42144209 142 36136550 30 1 38 1466
-0.89781421 -1.1145778 0.41442302 103 36136550 23 2 18 1490
-0.87189972 -1.1699936 0.40759182 151 36136550 35 3 10 1515
-1.0320985 -1.1007228 0.40761629 143 36136550 35 4 8 1563
-0.9486497 -1.0901769 0.37500292 138 36136550 31 5 13 1493
-0.94151497 -1.1679112 0.3736971 127 36136550 30 6 47 1546
-0.83627367 -1.1198196 0.33409515 154 36136550 32 7 44 1437
-1.013588 -1.0813974 0.34155563 142 36136550 33 8 17 1521
-0.96060658 -1.104774 0.32204157 132 36136550 30 9 6 1499
-0.94715244 -1.173604 0.31660262 118 36136550 28 10 35 1541
-0.87522525 -1.1698472 0.2924698 139 36136550 31 11 6 1490
-1.0280648 -1.0971882 0.28848174 127 36136550 30 12 49 1531
-0.97205317 -1.117072 0.26886475 115 36136550 26 13 11 1505
-0.91320169 -1.1310917 0.24963829 111 36136550 24 14 51 1475
-0.88075125 -1.176634 0.23860182 132 36136550 29 15 32 1489
-1.0325971 -1.1019866 0.23270813 132 36136550 31 16 4 1528
-0.93973279 -1.079435 0.20649125 122 36136550 25 17 35 1446
-0.90581572 -1.1207024 0.19401115 128 36136550 27 18 46 1454
-0.88968056 -1.1870508 0.18548331 142 36136550 32 19 43 1495
-1.042497 -1.1125128 0.17815828 94 36136550 22 20 24 1535
-0.97427112 -1.118753 0.1589085 108 36136550 24 21 33 1492
-0.93712306 -1.1583198 0.1452755 140 36136550 31 22 51 1497
-0.90933162 -1.2119032 0.13359523 121 36136550 28 23 77 1521
-1.0198686 -1.0879461 0.11940502 86 36136550 19 24 27 1496
-0.95739752 -1.0987961 0.10275362 115 36136550 24 25 35 1461
-0.95556033 -1.1810247 0.092571191 131 36136550 30 26 81 1522
-0.87278312 -1.1617569 0.074804723 155 36136550 33 27 56 1455
-1.0213331 -1.0884417 0.064880811 117 36136550 26 28 11 1494
-0.99638939 -1.1427412 0.051381342 99 36136550 23 29 23 1517
-0.92479056 -1.1407943 0.036224078 127 36136550 27 30 36 1469
-0.85924584 -1.1428649 0.021363433 177 36136550 36 31 55 1430
-1.4205867 -1.5137702 0.014493098 300 36136550 129 32 31 2076
-1.0401126 -1.1920042 -0.0040036067 91 36136550 23 33 26 1582
-0.90373284 -1.1145397 -0.017130699 125 36136550 26 34 50 1435
-0.86830026 -1.1533567 -0.030971566 168 36136550 35 35 39 1444
-1.4214189 -1.5131744 -0.061653029 299 36136550 129 36 65 2077
-1.329502 -1.5214016 -0.079030715 254 36136550 104 37 29 2022
-1.2802074 -1.5774804 -0.098899491 297 36136550 123 38 95 2034
-1.1870412 -1.5767951 -0.11480306 284 36136550 111 39 32 1977
-1.4078027 -1.4963225 -0.13635039 352 36136550 149 40 36 2059
-1.3457862 -1.5386264 -0.15488377 307 36136550 129 41 37 2050
-1.2586741 -1.5500623 -0.17047855 316 36136550 127 42 91 2004
-1.2073489 -1.6019661 -0.19036351 327 36136550 133 43 47 2015
-1.3985069 -1.4854029 -0.21061386 368 36136550 155 44 42 2051
-1.3692642 -1.5642012 -0.23420896 301 36136550 132 45 23 2092
-1.259743 -1.5497197 -0.24405089 290 36136550 118 46 75 2012
-1.190789 -1.5791906 -0.26115921 306 36136550 122 47 77 1995
-1.3996477 -1.4841214 -0.28630495 358 36136550 152 48 37 2060
-1.3620498 -1.5545905 -0.31011218 293 36136550 128 49 34 2090
-1.2608701 -1.5494479 -0.31929135 312 36136550 128 50 37 2023
-1.2060077 -1.5984447 -0.33982572 296 36136550 122 51 50 2031
-1.3812551 -1.4620094 -0.35848483 376 36136550 157 52 42 2043
-1.3407751 -1.5287466 -0.3821215 294 36136550 126 53 48 2069
-1.2493753 -1.5343374 -0.39135632 291 36136550 119 54 58 2017
-1.1922417 -1.5802563 -0.41210914 319 36136550 130 55 49 2022
-1.4048455 -1.4853163 -0.44351888 369 36136550 162 56 75 2092
-1.3325547 -1.5177698 -0.45794573 341 36136550 146 57 25 2071
-1.2776607 -1.5684592 -0.47933272 343 36136550 148 58 38 2079
-1.1968963 -1.586138 -0.49174684 383 36136550 160 59 53 2047
-1.3834624 -1.4592865 -0.5160346 408 36136550 176 60 14 2076
-1.3036312 -1.4823197 -0.52642488 369 36136550 154 61 14 2043
-1.2284702 -1.5074817 -0.53915131 374 36136550 152 62 43 2018
-1.1828827 -1.5689334 -0.56679988 325 36136550 136 63 43 2045
-1.4775017 -1.5549123 0.6695118 151 36234640 76 0 52 2247
-0.92774397 -1.053961 0.42144209 159 36234640 34 1 27 1466
-0.94106454 -1.1537075 0.43111116 109 36234640 26 2 35 1550
-0.85121083 -1.1277229 0.39467803 155 36234640 33 3 11 1467
-1.038833 -1.0943693 0.40761629 125 36234640 30 4 17 1563
-0.96299946 -1.093051 0.37801704 130 36234640 29 5 1 1505
-0.93393642 -1.1440716 0.36789584 141 36234640 33 6 68 1522
-0.87129194 -1.1519004 0.3452549 158 36234640 35 7 44 1485
-1.0121553 -1.0666753 0.3388609 106 36234640 24 8 42 1509
-0.9828555 -1.1164525 0.3271977 135 36234640 31 9 4 1523
-0.93204105 -1.1404895 0.30920631 119 36234640 27 10 31 1505
-0.87528026 -1.1550767 0.29011431 156 36234640 34 11 8 1478
-1.0023353 -1.0566587 0.27943724 161 36234640 35 12 35 1483
-0.96327889 -1.0933682 0.26457721 113 36234640 25 13 20 1481
-0.94258201 -1.1529362 0.25573117 113 36234640 26 14 65 1511
-0.87364215 -1.1523299 0.23475598 164 36234640 35 15 20 1465
-1.0148523 -1.0698167 0.22722548 124 36234640 28 16 5 1492
-1.0013124 -1.1360183 0.21848658 132 36234640 31 17 30 1530
-0.9352724 -1.142733 0.19881473 139 36234640 31 18 46 1490
-0.89694744 -1.1815696 0.18548331 129 36234640 29 19 37 1495
-1.0246946 -1.0801543 0.17397998 119 36234640 27 20 28 1499
-0.99689931 -1.1306534 0.16146466 107 36234640 25 21 30 1516
-0.90636849 -1.1063535 0.13945283 111 36234640 23 22 65 1437
-0.90951782 -1.1967838 0.13254122 126 36234640 29 23 99 1509
-1.0429933 -1.0990207 0.12132061 101 36234640 23 24 30 1520
-0.95620275 -1.0839244 0.10190965 102 36234640 21 25 48 1449
-0.93242508 -1.1380783 0.089651734 108 36234640 23 26 95 1474
-0.87989509 -1.1563797 0.074804723 178 36234640 38 27 76 1455
-1.0610203 -1.1169225 0.066965334 120 36234640 29 28 3 1542
-0.97957104 -1.1096331 0.050162006 110 36234640 24 29 9 1481
-0.92416137 -1.1258259 0.035928167 143 36234640 30 30 18 1457
-0.88078052 -1.1566634 0.02172198 173 36234640 37 31 44 1454
-1.4133182 -1.487626 0.014325546 274 36234640 115 32 55 2052
-1.3254796 -1.5003607 -0.0050665112 175 36234640 70 33 7 2002
-0.94101202 -1.1460681 -0.017703712 148 36234640 33 34 61 1483
-0.88263524 -1.1575475 -0.031228948 183 36234640 39 35 28 1456
-1.4306768 -1.5044242 -0.061653029 301 36234640 130 36 73 2077
-1.3388121 -1.5132153 -0.079030715 305 36234640 125 37 26 2022
-1.3050821 -1.5881158 -0.10006644 287 36234640 122 38 88 2058
-1.1966939 -1.569482 -0.11480306 289 36234640 113 39 51 1977
-1.4169575 -1.4876562 -0.13635039 346 36234640 147 40 34 2059
-1.3552017 -1.53034 -0.15488377 292 36234640 123 41 36 2050
-1.283349 -1.5607808 -0.17252021 320 36234640 132 42 111 2028
-1.2099071 -1.5850319 -0.18922982 325 36234640 130 43 38 2003
-1.4158305 -1.4854343 -0.21184613 377 36234640 160 44 42 2063
-1.3471996 -1.5200738 -0.22883515 295 36234640 123 45 33 2044
-1.2919381 -1.5695506 -0.24841762 334 36234640 140 46 72 2048
-1.2076771 -1.5813092 -0.26273012 312 36234640 126 47 110 2007
-1.4087278 -1.4755055 -0.28630495 343 36234640 145 48 39 2060
-1.3558128 -1.5284482 -0.30655104 294 36234640 125 49 31 2066
-1.2929599 -1.569117 -0.32497326 291 36234640 123 50 33 2059
-1.2157929 -1.5910146 -0.33982572 295 36234640 122 51 50 2031
-1.3983656 -1.4620442 -0.36059049 390 36234640 165 52 43 2055
-1.3422996 -1.5116724 -0.37990525 323 36234640 136 53 56 2057
-1.2812331 -1.5538905 -0.39834136 300 36234640 126 54 57 2053
-1.2161815 -1.5915807 -0.41700062 324 36234640 135 55 44 2046
-1.4058223 -1.4681981 -0.44097483 386 36234640 167 56 50 2080
-1.3340673 -1.5008179 -0.45529222 306 36234640 130 57 40 2059
-1.2649703 -1.5335668 -0.47103256 328 36234640 137 58 39 2043
-1.1783124 -1.5417438 -0.48021588 368 36234640 147 59 56 1999
-1.3843418 -1.4423841 -0.51305169 422 36234640 180 60 19 2064
-1.328123 -1.4916121 -0.53260905 369 36234640 158 61 23 2067
-1.2450569 -1.508835 -0.54235739 357 36234640 147 62 49 2030
-1.1854897 -1.552482 -0.56347388 357 36234640 147 63 26 2033
-1.4473079 -1.5045403 0.65163428 71 36332390 34 0 55 2187
-1.0030154 -1.125473 0.45248967 161 36332390 40 1 5 1574
-0.97014683 -1.1745727 0.44112408 119 36332390 30 2 30 1586
-0.89321107 -1.1683878 0.41082028 166 36332390 39 3 19 1527
-1.0615827 -1.1046804 0.41387528 98 36332390 25 4 20 1587
-0.96968818 -1.0871216 0.37801704 140 36332390 32 5 1 1505
-0.91126394 -1.1024199 0.35629335 111 36332390 24 6 68 1474
-0.88544124 -1.1557975 0.34804484 162 36332390 36 7 43 1497
-1.0429838 -1.0857437 0.34694505 113 36332390 27 8 28 1545
-0.98188943 -1.1016517 0.32461962 140 36332390 32 9 1 1511
-0.95399576 -1.1528448 0.31413716 125 36332390 29 10 38 1529
-0.85369569 -1.1123469 0.28069246 154 36332390 31 11 14 1430
-1.0496145 -1.0929899 0.29074287 115 36332390 27 12 49 1543
-1.0171254 -1.1403036 0.27743983 131 36332390 32 13 20 1553
-0.94209677 -1.1380206 0.2537002 118 36332390 27 14 68 1499
-0.89512408 -1.1657373 0.23860182 148 36332390 33 15 21 1489
-1.0131824 -1.0550153 0.22539791 133 36332390 29 16 6 1480
-1.0161719 -1.1387144 0.2202002 108 36332390 26 17 37 1542
-0.93467766 -1.1278158 0.19721353 109 36332390 24 18 43 1478
-0.89692283 -1.1666038 0.18399446 128 36332390 28 19 51 1483
-1.0230471 -1.06525 0.17258722 102 36332390 22 20 34 1487
-0.94819754 -1.062207 0.15251808 101 36332390 21 21 49 1432
-0.95889223 -1.1559248 0.14644003 129 36332390 29 22 40 1509
-0.88768005 -1.15329 0.12832521 138 36332390 30 23 72 1461
-1.0745789 -1.1184778 0.12419399 84 36332390 20 24 31 1556
-0.99473071 -1.1137482 0.10528554 106 36332390 24 25 31 1497
-0.94703829 -1.1415541 0.0903816 135 36332390 30 26 92 1486
-0.89428926 -1.1604515 0.075421669 140 36332390 30 27 57 1467
-1.0096827 -1.0499029 0.063317418 100 36332390 21 28 15 1458
-0.97836912 -1.0946596 0.049755566 109 36332390 24 29 7 1469
-0.93872023 -1.1293597 0.036224078 121 36332390 26 30 29 1469
-0.88786107 -1.1512372 0.02172198 187 36332390 39 31 31 1454
-1.439056 -1.4962234 0.014493098 284 36332390 122 32 35 2076
-1.3746605 -1.5369207 -0.0052183545 278 36332390 118 33 26 2062
-0.97871107 -1.1771796 -0.018276723 119 36332390 28 34 51 1531
-0.88972121 -1.1521099 -0.031228948 185 36332390 39 35 51 1456
-1.4481997 -1.5042584 -0.062009227 297 36332390 130 36 74 2089
-1.3640727 -1.5228351 -0.079968765 296 36332390 124 37 30 2046
-1.2994691 -1.5616516 -0.098899491 299 36332390 124 38 78 2034
-1.2282674 -1.5905546 -0.11689355 303 36332390 123 39 43 2013
-1.4343702 -1.4875534 -0.13714506 349 36332390 150 40 43 2071
-1.3645661 -1.5219958 -0.15488377 303 36332390 127 41 55 2050
-1.2852513 -1.5436882 -0.17149937 299 36332390 122 42 109 2016
-1.2196099 -1.5775782 -0.18922982 342 36332390 137 43 51 2003
-1.4249183 -1.476719 -0.21184613 363 36332390 155 44 67 2063
-1.3724288 -1.5295297 -0.23152205 295 36332390 126 45 35 2068
-1.293918 -1.5524439 -0.24696203 291 36332390 121 46 82 2036
-1.2537503 -1.6209207 -0.27058452 294 36332390 126 47 94 2067
-1.4094959 -1.4582891 -0.28463715 365 36332390 153 48 48 2048
-1.3810245 -1.5377589 -0.31011218 282 36332390 123 49 28 2090
-1.3025635 -1.561154 -0.32497326 319 36332390 135 50 49 2059
-1.2327732 -1.5928807 -0.34183353 289 36332390 121 51 59 2043
-1.3990923 -1.4449493 -0.35848483 375 36332390 156 52 51 2043
-1.3436651 -1.4946373 -0.37768897 322 36332390 134 53 46 2045
-1.2907435 -1.5459998 -0.39834136 317 36332390 134 54 62 2053
-1.2187343 -1.5747976 -0.41455492 337 36332390 139 55 32 2034
-1.3984798 -1.4427035 -0.43588662 377 36332390 159 56 76 2056
-1.3589083 -1.5100021 -0.46059921 364 36332390 158 57 39 2083
-1.2668712 -1.5168145 -0.46826589 331 36332390 136 58 44 2031
-1.2091404 -1.5621192 -0.48886409 359 36332390 148 59 54 2035
-1.4174656 -1.4588721 -0.52200031 400 36332390 176 60 22 2100
-1.3294868 -1.4748226 -0.52951694 385 36332390 162 61 28 2055
-1.2542914 -1.5011669 -0.54235739 361 36332390 149 62 30 2030
-1.1879396 -1.5360583 -0.56014794 364 36332390 149 63 42 2021
-1.5524144 -1.5941093 0.69454026 77 36430360 42 0 51 2331
-0.96370596 -1.0680971 0.43179128 107 36430360 24 1 36 1502
-0.9699409 -1.1597561 0.43778646 88 36430360 22 2 22 1574
-0.90036333 -1.1628851 0.41082028 158 36430360 37 3 22 1527
-1.456094 -1.4967169 0.56409085 110 36430360 51 4 13 2163
-0.99190986 -1.0983921 0.38404521 134 36430360 31 5 1 1529
-0.97032648 -1.1593122 0.3765977 128 36430360 31 6 46 1558
-0.88536191 -1.1411215 0.3452549 156 36430360 34 7 42 1485
-1.0251688 -1.0541743 0.3388609 124 36430360 28 8 35 1509
-0.99648207 -1.1043073 0.3271977 137 36430360 32 9 1 1523
-0.95350897 -1.1379677 0.31167173 153 36430360 35 10 31 1517
-0.89661002 -1.1535391 0.2924698 150 36430360 33 11 22 1490
-1.0316565 -1.061179 0.28395951 122 36430360 28 12 38 1507
-1.0161898 -1.1252785 0.27529606 123 36430360 29 13 6 1541
-0.95665938 -1.1412824 0.25573117 101 36430360 23 14 52 1511
-0.89498866 -1.1508726 0.2366789 137 36430360 30 15 27 1477
-1.0609734 -1.0912968 0.23453568 119 36430360 28 16 7 1540
-1.0470264 -1.1588967 0.22534107 91 36430360 23 17 29 1578
-0.94922507 -1.1311697 0.19881473 111 36430360 25 18 48 1490
-0.90406412 -1.1610785 0.18399446 112 36430360 25 19 36 1483
-1.0877236 -1.1187725 0.18233658 120 36430360 30 20 28 1571
-1.0186994 -1.127187 0.16274275 90 36430360 21 21 38 1528
-0.95060349 -1.1317288 0.14411096 127 36430360 28 22 43 1485
-0.89473981 -1.1478217 0.12832521 149 36430360 32 23 93 1461
-1.0814215 -1.1118633 0.12419399 91 36430360 22 24 47 1556
-0.98548895 -1.0898662 0.1035976 122 36430360 26 25 33 1473
-0.96943319 -1.1540645 0.091841333 109 36430360 25 26 75 1510
-0.91613948 -1.1738371 0.076655559 134 36430360 30 27 70 1491
-1.0579208 -1.086638 0.06592308 116 36430360 27 28 1 1518
-1.0253016 -1.1331002 0.051787782 121 36430360 28 29 1 1529
-0.9301827 -1.105222 0.03563226 120 36430360 25 30 22 1445
-0.90967971 -1.16468 0.022080526 168 36430360 37 31 52 1478
-1.4565806 -1.4959627 0.014576872 298 36430360 130 32 25 2088
-1.384065 -1.528457 -0.0052183545 271 36430360 115 33 30 2062
-0.95500523 -1.1344341 -0.017703712 101 36430360 22 34 50 1483
-0.9263376 -1.1844299 -0.032258473 167 36430360 38 35 37 1504
-1.4490306 -1.4867544 -0.061653029 303 36430360 131 36 68 2077
-1.3653359 -1.5055544 -0.079499744 275 36430360 114 37 18 2034
-1.3090267 -1.5536488 -0.098899491 305 36430360 126 38 91 2034
-1.2084837 -1.545242 -0.11410623 268 36430360 103 39 39 1965
-1.4267428 -1.4615879 -0.13555574 379 36430360 159 40 34 2047
-1.3899636 -1.5313144 -0.15669703 300 36430360 129 41 56 2074
-1.2869925 -1.5266316 -0.17047855 309 36430360 124 42 91 2004
-1.2292668 -1.5700651 -0.18922982 314 36430360 126 43 48 2003
-1.4339525 -1.4679481 -0.21184613 357 36430360 152 44 61 2063
-1.3737698 -1.5122534 -0.23017858 312 36430360 132 45 30 2056
-1.3034194 -1.5444753 -0.24696203 325 36430360 135 46 67 2036
-1.2343274 -1.5757354 -0.26430097 298 36430360 121 47 104 2019
-1.4267284 -1.4581071 -0.28630495 382 36430360 162 48 54 2060
-1.3984172 -1.5380365 -0.31189269 293 36430360 129 49 21 2102
-1.3121181 -1.5531322 -0.32497326 317 36430360 134 50 44 2059
-1.2425237 -1.5852866 -0.34183353 290 36430360 121 51 39 2043
-1.4162018 -1.444774 -0.36059049 396 36430360 167 52 40 2055
-1.3686872 -1.5038084 -0.3821215 333 36430360 142 53 38 2069
-1.2850055 -1.5200706 -0.39368463 291 36430360 120 54 58 2029
-1.2283741 -1.5672901 -0.41455492 301 36430360 124 55 40 2034
-1.4401611 -1.4675763 -0.44606298 373 36430360 165 56 71 2104
-1.3602661 -1.4929848 -0.45794573 347 36430360 149 57 41 2071
-1.2912344 -1.5268443 -0.47379929 344 36430360 145 58 42 2055
-1.2115161 -1.545503 -0.48598135 370 36430360 152 59 73 2023
-1.434541 -1.4584337 -0.52498311 383 36430360 171 60 33 2112
-1.3385111 -1.4666373 -0.52951694 369 36430360 156 61 16 2055
-1.2709476 -1.5022707 -0.5455634 370 36430360 154 62 35 2042
-1.190233 -1.5196632 -0.55682194 326 36430360 131 63 37 2009
-1.5219563 -1.5437675 0.67666274 87 36528720 45 0 38 2271
-0.99349636 -1.0876218 0.44214049 57 36528720 13 1 36 1538
-0.95469224 -1.1273938 0.42777354 103 36528720 24 2 20 1538
-0.90748167 -1.1573387 0.41082028 142 36528720 33 3 9 1527
-1.4977663 -1.5207696 0.57660884 172 36528720 84 4 45 2211
-0.97511822 -1.0665675 0.37500292 144 36528720 32 5 1 1493
-0.93225193 -1.1000373 0.35919395 130 36528720 29 6 48 1486
-0.90676886 -1.1540219 0.35083479 161 36528720 37 7 23 1509
-1.056229 -1.0728629 0.34694505 107 36528720 25 8 26 1545
-1.0032392 -1.0981722 0.3271977 113 36528720 26 9 1 1523
-0.94527805 -1.1141851 0.30674085 141 36528720 31 10 31 1493
-0.91094899 -1.1572616 0.29482526 157 36528720 35 11 25 1502
-1.0216151 -1.03803 0.27943724 135 36528720 30 12 59 1483
-1.0390089 -1.1364501 0.2795836 104 36528720 25 13 25 1565
-0.92537898 -1.090306 0.2455764 129 36528720 27 14 59 1451
-0.90936208 -1.1546649 0.23860182 140 36528720 31 15 18 1489
-1.0260527 -1.0425025 0.22539791 116 36528720 25 16 6 1480
-1.0220531 -1.1173949 0.21848658 95 36528720 22 17 40 1530
-0.98694998 -1.1615762 0.20521949 106 36528720 25 18 35 1538
-0.92591721 -1.1742095 0.18697213 133 36528720 30 19 49 1507
-1.086207 -1.1035827 0.18094382 101 36528720 24 20 33 1559
-1.0417053 -1.1385212 0.16529892 106 36528720 25 21 26 1552
-1.0039555 -1.1804626 0.15109816 107 36528720 26 22 32 1557
-0.87954575 -1.1141628 0.12516318 131 36528720 27 23 70 1425
-1.0882233 -1.1052068 0.12419399 97 36528720 23 24 32 1556
-0.98407495 -1.0749695 0.10275362 84 36528720 18 25 52 1461
-0.98425633 -1.1572183 0.092571191 118 36528720 27 26 61 1522
-0.95304948 -1.2058015 0.079123341 126 36528720 30 27 69 1539
-1.0477372 -1.0630492 0.064880811 111 36528720 25 28 19 1494
-1.0079311 -1.1002576 0.05056845 88 36528720 20 29 6 1493
-0.96807021 -1.1360166 0.036815893 120 36528720 27 30 27 1493
-0.93169624 -1.1778977 0.022439074 161 36528720 36 31 38 1502
-1.474156 -1.4955432 0.014660648 299 36528720 132 32 51 2100
-1.3690901 -1.4933996 -0.0051272484 282 36528720 116 33 28 2026
-1.2343811 -1.4481702 -0.022717575 107 36528720 39 34 32 1903
-0.88889468 -1.1222954 -0.030714184 181 36528720 37 35 40 1432
-1.4581259 -1.4778353 -0.061653029 296 36528720 128 36 81 2077
-1.390767 -1.514814 -0.080437794 311 36528720 132 37 23 2058
-1.3185351 -1.5455875 -0.098899491 251 36528720 104 38 83 2034
-1.2402558 -1.5659711 -0.11619673 277 36528720 111 39 37 2001
-1.4609331 -1.4783561 -0.13793972 368 36528720 159 40 51 2083
-1.3831406 -1.5051358 -0.15488377 313 36528720 131 41 48 2050
-1.335148 -1.5641762 -0.17558269 291 36528720 124 42 110 2064
-1.2611438 -1.5905757 -0.19263086 316 36528720 131 43 47 2039
-1.4429326 -1.4591218 -0.21184613 375 36528720 160 44 59 2063
-1.4072393 -1.5301267 -0.23420896 320 36528720 140 45 34 2092
-1.3128715 -1.5364486 -0.24696203 304 36528720 126 46 82 2036
-1.2661535 -1.5960928 -0.26901361 305 36528720 129 47 101 2055
-1.4440112 -1.457768 -0.28797275 372 36528720 159 48 55 2072
-1.3756799 -1.4945021 -0.30477053 282 36528720 119 49 25 2054
-1.3062183 -1.5270426 -0.32118532 310 36528720 128 50 34 2035
-1.2522274 -1.5776328 -0.34183353 310 36528720 129 51 56 2043
-1.4583259 -1.4696002 -0.36901307 399 36528720 177 52 69 2103
-1.3778887 -1.495382 -0.3821215 349 36528720 149 53 47 2069
-1.3096181 -1.530044 -0.39834136 298 36528720 126 54 65 2053
-1.2452712 -1.5689251 -0.41700062 339 36528720 142 55 34 2046
-1.4408739 -1.4503922 -0.44351888 388 36528720 170 56 67 2092
-1.3852706 -1.5018147 -0.46325266 361 36528720 158 57 39 2095
-1.2853894 -1.5011538 -0.46826589 333 36528720 137 58 45 2031
-1.228219 -1.5471636 -0.48886409 351 36528720 145 59 56 2035
-1.4434627 -1.449604 -0.52498311 401 36528720 179 60 28 2112
-1.3474851 -1.4583968 -0.52951694 404 36528720 171 61 22 2055
-1.2951871 -1.5120084 -0.55197549 375 36528720 160 62 36 2066
-1.2138649 -1.530398 -0.56347388 334 36528720 138 63 31 2033
-1.4909405 -1.493861 0.65878528 115 36626450 56 0 33 2211
-1.0703828 -1.1574497 0.47318804 109 36626450 29 1 33 1646
-0.95408911 -1.1127642 0.42443588 86 36626450 20 2 34 1526
-0.90737879 -1.1426977 0.40759182 147 36626450 34 3 19 1515
-1.482531 -1.4869394 0.56722039 74 36626450 35 4 43 2175
-0.99742419 -1.0776129 0.38103113 144 36626450 33 5 3 1517
-0.96931463 -1.1296438 0.37079644 149 36626450 35 6 57 1534
-0.9283669 -1.1667017 0.35641468 160 36626450 38 7 29 1533
-1.0627921 -1.0663618 0.34694505 119 36626450 28 8 35 1545
-1.0179162 -1.1005998 0.32977575 117 36626450 28 9 12 1535
-0.95974934 -1.1172726 0.30920631 117 36626450 26 10 32 1505
