# .PCD v0.7 - Point Cloud Data file format
VERSION 0.7
FIELDS x y z intensity t reflectivity ring noise range
SIZE 4 4 4 4 4 2 1 2 4
TYPE F F F F U U U U U
COUNT 1 1 1 1 1 1 1 1 1
WIDTH 766
HEIGHT 1
VIEWPOINT 0 0 0 1 0 0 0
POINTS 766
DATA ascii
-0.38265669 -1.3393887 -0.34472725 293 30327570 60 59 71 1435
-0.75229478 -1.827161 -0.50708604 385 30327570 160 60 1 2040
-0.66675681 -1.8086478 -0.51405662 359 30327570 143 61 11 1995
-0.61438692 -1.8815678 -0.54876947 384 30327570 162 62 39 2054
-0.42195129 -1.4792747 -0.44373915 264 30327570 68 63 69 1601
-0.47777885 -1.15666 0.39062303 306 30425980 53 0 10 1311
-0.44247952 -1.1986241 0.38349506 337 30425980 60 1 18 1334
-0.40546623 -1.2397972 0.377709 328 30425980 60 2 49 1358
-0.37560621 -1.3140537 0.3817642 249 30425980 50 3 16 1419
-0.48701781 -1.18072 0.34502646 362 30425980 63 4 1 1323
-0.46078786 -1.2465447 0.34486204 333 30425980 63 5 1 1373
-0.41250172 -1.2596724 0.33018771 313 30425980 58 6 46 1366
-0.36615631 -1.2761035 0.31735551 294 30425980 55 7 28 1365
-0.49804723 -1.2081175 0.30113485 415 30425980 75 8 6 1341
-0.44618344 -1.2084628 0.28337079 429 30425980 75 9 1 1319
-0.41886172 -1.2767581 0.28208655 381 30425980 72 10 10 1373
-0.37813789 -1.3135359 0.27362609 318 30425980 62 11 13 1394
-0.49651578 -1.2049397 0.25004265 485 30425980 85 12 22 1327
-0.46429721 -1.2560384 0.24313948 531 30425980 98 13 1 1361
-0.4202202 -1.2800691 0.23135971 413 30425980 77 14 70 1367
-0.37086767 -1.2870983 0.21744974 346 30425980 64 15 31 1357
-0.48952851 -1.1879243 0.19798467 626 30425980 106 16 1 1300
-0.45944113 -1.2420349 0.19106865 567 30425980 102 17 1 1338
-0.4241837 -1.2897874 0.18280281 442 30425980 83 18 40 1370
-0.38517368 -1.3336847 0.17357266 374 30425980 73 19 34 1399
-0.47646344 -1.1561624 0.14612462 853 30425980 135 20 1 1259
-0.46106395 -1.2458205 0.14229341 618 30425980 110 21 1 1336
-0.42504421 -1.2903547 0.13246563 518 30425980 97 22 75 1365
-0.39127374 -1.3520617 0.12410919 367 30425980 73 23 88 1413
-0.48637736 -1.179576 0.10216472 846 30425980 139 24 1 1280
-0.47292796 -1.2768507 0.096001841 649 30425980 121 25 1 1365
-0.43037456 -1.3063833 0.08381281 464 30425980 88 26 81 1378
-0.38139287 -1.3149952 0.070486099 310 30425980 58 27 69 1371
-0.49643978 -1.2023122 0.056542717 762 30425980 129 28 1 1302
-0.47705615 -1.2866173 0.046504006 537 30425980 101 29 1 1373
-0.44952804 -1.3602078 0.035336353 382 30425980 78 30 5 1433
-0.36867294 -1.2693992 0.019749969 342 30425980 60 31 42 1322
-0.51757073 -1.2533025 0.0094665894 570 30425980 105 32 2 1356
-0.47536433 -1.2806143 -0.0034569702 499 30425980 93 33 6 1366
-0.42406029 -1.28262 -0.016127925 371 30425980 68 34 72 1351
-0.36665422 -1.2594113 -0.02814037 320 30425980 55 35 40 1312
-0.5504359 -1.3310417 -0.0427742 315 30425980 65 36 33 1441
-0.49127096 -1.3204983 -0.05511044 398 30425980 79 37 2 1410
-0.431346 -1.3028252 -0.066808209 350 30425980 66 38 105 1374
-0.38088676 -1.3083835 -0.079264633 288 30425980 54 39 37 1365
-0.52529883 -1.2674366 -0.091054782 308 30425980 58 40 22 1375
-0.49223176 -1.321246 -0.10683202 284 30425980 57 41 52 1414
-0.45134071 -1.3619418 -0.12249955 308 30425980 64 42 89 1440
-0.4011595 -1.3752493 -0.13594693 289 30425980 60 43 43 1439
-0.53021109 -1.2780274 -0.14283952 303 30425980 59 44 30 1391
-0.50148654 -1.3444377 -0.1616624 257 30425980 54 45 13 1444
-0.44159159 -1.3301905 -0.17127229 266 30425980 53 46 96 1412
-0.40427443 -1.3846692 -0.1904695 299 30425980 63 47 84 1455
-0.5232178 -1.2581917 -0.19124059 276 30425980 52 48 4 1376
-0.49481231 -1.3247792 -0.212182 245 30425980 50 49 7 1430
-0.44342101 -1.333366 -0.22459298 323 30425980 65 50 85 1423
-0.4123762 -1.4109536 -0.24947324 146 30425980 32 51 46 1491
-0.52391309 -1.2567072 -0.24267477 307 30425980 59 52 35 1383
-0.49757484 -1.330121 -0.26687559 293 30425980 61 53 35 1445
-0.43535411 -1.3077368 -0.2726106 305 30425980 60 54 113 1405
-0.39381492 -1.3475332 -0.29226729 314 30425980 65 55 86 1434
-0.52566439 -1.2589279 -0.29596192 291 30425980 57 56 57 1396
-0.48691502 -1.2995512 -0.31465805 320 30425980 65 57 12 1423
-0.45114747 -1.3543099 -0.33823046 175 30425980 38 58 77 1467
-0.397405 -1.3593769 -0.35049275 189 30425980 40 59 61 1459
-0.75450951 -1.8010691 -0.50112027 362 30425980 147 60 15 2016
-0.69822812 -1.8587939 -0.52951694 358 30425980 151 61 16 2055
-0.63323402 -1.8997033 -0.55518156 376 30425980 163 62 71 2078
-0.52793896 -1.8086984 -0.54351813 334 30425980 128 63 49 1961
-0.48930511 -1.1642668 0.39419851 273 30523090 48 0 4 1323
-0.43768656 -1.1636137 0.37314588 309 30523090 52 1 25 1298
-0.42401603 -1.2700859 0.3877219 274 30523090 53 2 16 1394
-0.37068403 -1.2673531 0.36885041 295 30523090 55 3 19 1371
-0.50770247 -1.209756 0.35441494 370 30523090 68 4 3 1359
-0.4643338 -1.2328241 0.34184796 374 30523090 69 5 1 1361
-0.41653159 -1.2460742 0.32728711 325 30523090 60 6 47 1354
-0.38055491 -1.2962298 0.3229354 334 30523090 64 7 42 1389
-0.48283547 -1.1511221 0.28766122 366 30523090 60 8 20 1281
-0.44946337 -1.1947331 0.28079274 410 30523090 70 9 1 1307
-0.41922942 -1.2518916 0.2771557 378 30523090 69 10 41 1349
-0.37954161 -1.2886168 0.26891518 321 30523090 60 11 15 1370
-0.50389981 -1.2018706 0.25004265 493 30523090 87 12 2 1327
-0.45534897 -1.208969 0.23456439 636 30523090 110 13 1 1313
-0.4243089 -1.2662525 0.22932874 388 30523090 71 14 56 1355
-0.37205943 -1.2620754 0.2136039 366 30523090 65 15 14 1333
-0.49680826 -1.1848983 0.19798467 586 30523090 99 16 1 1300
-0.4586758 -1.2169647 0.18764141 593 30523090 102 17 1 1314
-0.42073551 -1.2533373 0.17799923 471 30523090 84 18 49 1334
-0.38997582 -1.319877 0.17208384 374 30523090 72 19 30 1387
-0.48354855 -1.1532171 0.14612462 901 30523090 143 20 1 1259
-0.47290936 -1.2541324 0.14357148 645 30523090 117 21 1 1348
-0.42914751 -1.2764018 0.13130111 535 30523090 98 22 44 1353
-0.38598919 -1.3037879 0.11989316 468 30523090 87 23 88 1365
-0.49360594 -1.1765695 0.10216472 942 30523090 154 24 1 1280
-0.4680745 -1.240327 0.093469933 700 30523090 124 25 1 1329
-0.4383823 -1.303718 0.08381281 499 30523090 95 26 70 1378
-0.37581918 -1.2666738 0.068018317 539 30523090 94 27 75 1323
-0.49916431 -1.1881906 0.056021586 801 30523090 133 28 1 1290
-0.48494169 -1.2836659 0.046504006 565 30523090 106 29 1 1373
-0.43486053 -1.2892212 0.033560906 551 30523090 102 30 21 1361
-0.37303776 -1.2556114 0.019570697 350 30523090 60 31 46 1310
-0.51130635 -1.2169145 0.0092152636 615 30523090 107 32 8 1320
-0.47472322 -1.2552252 -0.0033962326 505 30523090 91 33 2 1342
-0.43575877 -1.2913631 -0.01627118 533 30523090 99 34 64 1363
-0.38807154 -1.3031307 -0.029169895 308 30523090 57 35 31 1360
-0.5446375 -1.2944713 -0.041705586 307 30523090 61 36 43 1405
-0.48236451 -1.2726095 -0.053234342 386 30523090 72 37 1 1362
-0.43933186 -1.300154 -0.066808209 490 30523090 92 38 133 1374
-0.38548875 -1.2945403 -0.078567803 332 30523090 61 39 41 1353
-0.5423702 -1.2862554 -0.092644103 341 30523090 67 40 18 1399
-0.49608344 -1.3070139 -0.10592538 258 30523090 51 41 25 1402
-0.44819668 -1.3251681 -0.11943706 295 30523090 58 42 133 1404
-0.39934346 -1.3384191 -0.1325459 292 30523090 57 43 42 1403
-0.53804296 -1.2747501 -0.14283952 296 30523090 57 44 32 1391
-0.49701858 -1.3078948 -0.15763204 242 30523090 48 45 27 1408
-0.45356736 -1.3387374 -0.17272787 259 30523090 53 46 84 1424
-0.40595454 -1.359364 -0.18732774 320 30523090 66 47 93 1431
-0.53555828 -1.2659019 -0.19290838 262 30523090 50 48 32 1388
-0.50715208 -1.3328094 -0.21396255 246 30523090 51 49 1 1442
-0.45540228 -1.3418411 -0.22648695 287 30523090 59 50 72 1435
-0.41763735 -1.3970616 -0.24746542 104 30523090 23 51 56 1479
-0.52238882 -1.2317168 -0.23846351 292 30523090 54 52 34 1359
-0.4931275 -1.2939816 -0.26022679 285 30523090 56 53 45 1409
-0.44715682 -1.3161871 -0.27493897 301 30523090 60 54 107 1417
-0.40207583 -1.3450915 -0.29226729 361 30523090 74 55 68 1434
-0.52420932 -1.2340913 -0.29087377 262 30523090 49 56 42 1372
-0.48653319 -1.2746719 -0.30935106 268 30523090 52 57 12 1399
-0.46696541 -1.3736269 -0.34376386 136 30523090 30 58 56 1491
-0.40907559 -1.3680731 -0.35337546 68 30523090 15 59 56 1471
-0.7655465 -1.7964057 -0.50112027 344 30523090 140 60 8 2016
-0.70133281 -1.8328166 -0.52333283 371 30523090 153 61 9 2031
-0.63743037 -1.8738866 -0.54876947 377 30523090 159 62 50 2054
-0.56541485 -1.893809 -0.57012582 339 30523090 143 63 40 2057
-0.50544542 -1.1823082 0.40134951 297 30619990 54 0 6 1347
-0.4694922 -1.2253016 0.39384428 339 30619990 64 1 2 1370
-0.42436701 -1.245639 0.38104665 299 30619990 56 2 27 1370
-0.37845337 -1.2650548 0.36885041 327 30619990 61 3 2 1371
-0.49237341 -1.1533456 0.33876747 341 30619990 58 4 14 1299
-0.47188953 -1.2299517 0.34184796 388 30619990 72 5 1 1361
-0.42792878 -1.2545155 0.33018771 370 30619990 69 6 48 1366
-0.38514492 -1.2826923 0.32014546 356 30619990 67 7 31 1377
-0.49906781 -1.1696485 0.29305068 357 30619990 61 8 10 1305
-0.46097955 -1.2028965 0.28337079 414 30619990 72 9 1 1319
-0.43829548 -1.282635 0.28455198 432 30619990 83 10 8 1385
-0.3908349 -1.2975302 0.27127063 350 30619990 67 11 22 1382
-0.51126486 -1.198756 0.25004265 466 30619990 82 12 25 1327
-0.4500705 -1.1730819 0.22813308 657 30619990 107 13 1 1277
-0.44354984 -1.2971975 0.2354216 445 30619990 86 14 59 1391
-0.39005345 -1.2937911 0.21937266 404 30619990 76 15 26 1369
-0.49941638 -1.1709185 0.19615711 587 30619990 97 16 1 1288
-0.46613434 -1.2141274 0.18764141 608 30619990 105 17 1 1314
-0.44383326 -1.2957358 0.184404 517 30619990 99 18 66 1382
-0.38773513 -1.2832643 0.16761735 428 30619990 78 19 68 1351
-0.49061546 -1.1502284 0.14612462 968 30619990 154 20 1 1259
-0.46776074 -1.217792 0.13973723 684 30619990 118 21 1 1312
-0.43697128 -1.2737446 0.13130111 575 30619990 105 22 72 1353
-0.40090901 -1.3242767 0.12200117 422 30619990 82 23 76 1389
-0.47734016 -1.1185099 0.097375743 1071 30619990 159 24 1 1220
-0.47997123 -1.2486047 0.094313897 723 30619990 130 25 1 1341
-0.44637349 -1.3010036 0.08381281 526 30619990 100 26 102 1378
-0.38358426 -1.264344 0.068018317 498 30619990 87 27 69 1323
-0.50644553 -1.1851053 0.056021586 902 30619990 150 28 1 1290
-0.48850185 -1.2694732 0.046097565 622 30619990 115 29 1 1361
-0.44276285 -1.2865286 0.033560906 500 30619990 93 30 15 1361
-0.38771033 -1.2762601 0.019929245 328 30619990 58 31 43 1334
-0.53291172 -1.2468567 0.0094665894 616 30619990 113 32 1 1356
-0.49535733 -1.2858822 -0.0034873388 538 30619990 102 33 1 1378
-0.45148653 -1.3113562 -0.016557686 403 30619990 78 34 65 1387
-0.38557619 -1.2662941 -0.028397752 327 30619990 57 35 32 1324
-0.54313105 -1.2690506 -0.040993176 297 30619990 57 36 55 1381
-0.49016401 -1.2696258 -0.053234342 374 30619990 69 37 1 1362
-0.44339463 -1.2861025 -0.066224732 442 30619990 82 38 126 1362
-0.38295656 -1.2577697 -0.076477304 318 30619990 55 39 36 1317
-0.54081267 -1.2608949 -0.091054782 317 30619990 60 40 22 1375
-0.50840843 -1.315106 -0.10683202 325 30619990 65 41 16 1414
-0.45241919 -1.3110907 -0.11841623 294 30619990 57 42 130 1392
-0.41451994 -1.3587965 -0.13481326 289 30619990 59 43 35 1427
-0.53172749 -1.2385194 -0.13914275 296 30619990 54 44 27 1355
-0.49642575 -1.2825793 -0.15494512 265 30619990 51 45 12 1384
-0.4812299 -1.3922184 -0.18000573 250 30619990 55 46 93 1484
-0.40386546 -1.322713 -0.1826151 270 30619990 53 47 83 1395
-0.52922386 -1.2298447 -0.187905 264 30619990 48 48 32 1352
-0.49816698 -1.2854116 -0.20684037 231 30619990 45 49 10 1394
-0.45587301 -1.3166268 -0.222699 243 30619990 48 50 71 1411
-0.41928563 -1.3718443 -0.24344975 120 30619990 25 51 56 1455
-0.52993667 -1.2284883 -0.23846351 306 30619990 57 52 14 1359
-0.50105792 -1.2909315 -0.26022679 266 30619990 53 53 18 1409
-0.47835505 -1.3801556 -0.28890905 184 30619990 41 54 59 1489
-0.40002066 -1.3088937 -0.28493008 337 30619990 66 55 67 1398
-0.55037594 -1.2739134 -0.30105013 245 30619990 49 56 36 1420
-0.49434528 -1.2716626 -0.30935106 230 30619990 45 57 20 1399
-0.45242879 -1.3045433 -0.32716361 176 30619990 36 58 66 1419
-0.42767885 -1.3989564 -0.36202368 88 30619990 20 59 50 1507
-0.78117698 -1.8023393 -0.50410312 360 30619990 148 60 4 2028
-0.7167756 -1.839282 -0.52642488 376 30619990 157 61 13 2043
-0.6375429 -1.8371661 -0.53915131 371 30619990 151 62 49 2018
-0.58712304 -1.9233866 -0.58010375 341 30619990 149 63 38 2093
-0.51269042 -1.1791847 0.40134951 280 30719420 51 0 9 1347
-0.4728235 -1.2116907 0.39039451 330 30719420 61 1 14 1358
-0.43957001 -1.264787 0.3877219 281 30719420 55 2 18 1394
-0.39973 -1.3069174 0.3817642 304 30719420 61 3 13 1419
-0.51789606 -1.1928083 0.35128546 361 30719420 65 4 12 1347
-0.47520036 -1.2162144 0.33883387 370 30719420 67 5 1 1349
-0.42413786 -1.2188741 0.32148585 402 30719420 71 6 58 1330
-0.39300811 -1.2803049 0.32014546 349 30719420 66 7 35 1377
-0.51089025 -1.1772913 0.2957454 393 30719420 68 8 6 1317
-0.47261268 -1.2109631 0.28594887 444 30719420 79 9 1 1331
-0.43456048 -1.2466528 0.2771557 410 30719420 75 10 28 1349
-0.38493818 -1.2501256 0.26184878 349 30719420 62 11 13 1334
-0.52799022 -1.2172198 0.25456488 469 30719420 86 12 12 1351
-0.47015059 -1.2032901 0.23456439 636 30719420 110 13 1 1313
-0.44371089 -1.2721174 0.23135971 455 30719420 85 14 61 1367
-0.39798465 -1.2913734 0.21937266 387 30719420 72 15 30 1369
-0.51603115 -1.1895928 0.1998122 572 30719420 99 16 1 1312
-0.48222509 -1.2333677 0.19106865 676 30719420 121 17 1 1338
-0.440007 -1.2593068 0.17960042 531 30719420 96 18 42 1346
-0.40614337 -1.314992 0.17208384 408 30719420 78 19 42 1387
-0.51189417 -1.1799995 0.15030292 826 30719420 139 20 1 1295
-0.47087762 -1.2037872 0.13845915 716 30719420 121 21 1 1300
-0.43688896 -1.2484933 0.12897204 580 30719420 103 22 82 1329
-0.41609448 -1.3446306 0.12410919 405 30719420 81 23 76 1413
-0.46038142 -1.0606964 0.092586778 1284 30719420 173 24 29 1160
-0.48325998 -1.2344896 0.093469933 789 30719420 139 25 1 1329
-0.43852156 -1.2530185 0.080893353 571 30719420 101 26 69 1330
-0.41263205 -1.3306451 0.071719989 377 30719420 73 27 50 1395
-0.50415027 -1.1599853 0.054979321 986 30719420 158 28 1 1266
-0.49628201 -1.2664518 0.046097565 611 30719420 113 29 1 1361
-0.46654207 -1.3290645 0.034744535 474 30719420 94 30 19 1409
-0.40976611 -1.3196931 0.020646339 340 30719420 65 31 42 1382
-0.5405522 -1.2435634 0.0094665894 588 30719420 108 32 1 1356
-0.49885571 -1.2716475 -0.0034569702 528 30719420 99 33 1 1366
-0.47145146 -1.3425254 -0.016987447 361 30719420 73 34 63 1423
-0.40046874 -1.286815 -0.028912514 326 30719420 59 35 39 1348
-0.55569458 -1.2766922 -0.041349381 317 30719420 61 36 42 1393
-0.51549375 -1.311232 -0.05511044 317 30719420 63 37 9 1410
-0.45525366 -1.2946649 -0.066808209 445 30719420 84 38 91 1374
-0.40490532 -1.3011509 -0.079264633 300 30719420 56 39 49 1365
-0.5437519 -1.2465777 -0.090260118 324 30719420 60 40 24 1363
-0.53400034 -1.3564979 -0.11045856 306 30719420 65 41 37 1462
-0.46442479 -1.3195683 -0.11943706 301 30719420 59 42 98 1404
-0.4192937 -1.3448226 -0.13367958 304 30719420 61 43 53 1415
-0.54886937 -1.2571121 -0.14160727 275 30719420 52 44 22 1379
-0.50428617 -1.2795092 -0.15494512 287 30719420 55 45 29 1384
-0.46600121 -1.3218369 -0.17127229 260 30719420 52 46 88 1412
-0.41197389 -1.32021 -0.1826151 257 30719420 50 47 80 1395
-0.54628837 -1.2483478 -0.19124059 287 30719420 54 48 32 1376
-0.52782577 -1.3375243 -0.21574311 251 30719420 53 49 3 1454
-0.46394312 -1.3138047 -0.222699 260 30719420 52 50 66 1411
-0.42064047 -1.3466604 -0.23943409 165 30719420 34 51 55 1431
-0.53271878 -1.2143949 -0.23635787 267 30719420 48 52 32 1347
-0.51763898 -1.3097689 -0.26465932 266 30719420 55 53 32 1433
-0.45935151 -1.2995018 -0.2726106 288 30719420 57 54 78 1405
-0.41504937 -1.3288422 -0.28982157 249 30719420 50 55 47 1422
-0.6430887 -1.4637734 -0.34684363 231 30719420 62 56 41 1636
-0.50213873 -1.2686055 -0.30935106 248 30719420 49 57 15 1399
-0.46042481 -1.3017427 -0.32716361 206 30719420 41 58 53 1419
-0.42930698 -1.3740687 -0.35625818 237 30719420 52 59 85 1483
-0.79222125 -1.7975122 -0.50410312 353 30719420 145 60 1 2028
-0.72377145 -1.8240721 -0.52333283 357 30719420 147 61 15 2031
-0.64880359 -1.8332196 -0.53915131 358 30719420 146 62 46 2018
-0.59547985 -1.9087411 -0.57677776 362 30719420 157 63 35 2081
-0.52454787 -1.1864934 0.40492502 270 30816450 50 0 15 1359
-0.47600567 -1.1980853 0.3869448 338 30816450 61 1 22 1346
-0.44347164 -1.2512017 0.38438427 279 30816450 53 2 37 1382
-0.39050093 -1.2492841 0.36562198 289 30816450 53 3 12 1359
-0.51116854 -1.1578145 0.34189698 370 30816450 64 4 13 1311
-0.46548021 -1.1701051 0.32677752 361 30816450 61 5 1 1301
-0.43939719 -1.238196 0.32728711 368 30816450 67 6 39 1354
-0.39736319 -1.2667332 0.31735551 359 30816450 67 7 49 1365
-0.51810437 -1.1741344 0.2957454 380 30816450 66 8 1 1317
-0.48868987 -1.2298232 0.29110494 394 30816450 72 9 1 1355
-0.44220161 -1.2439629 0.2771557 448 30816450 82 10 25 1349
-0.40319651 -1.2814124 0.26891518 376 30816450 71 11 10 1370
-0.52593696 -1.1923918 0.25004265 463 30816450 82 12 11 1327
-0.4862535 -1.2223241 0.23885193 569 30816450 102 13 1 1337
-0.44754457 -1.2582278 0.22932874 472 30816450 87 14 70 1355
-0.40234295 -1.2776091 0.21744974 410 30816450 75 15 46 1357
-0.51853418 -1.1755528 0.19798467 569 30816450 96 16 1 1300
-0.47660577 -1.197281 0.18592779 747 30816450 127 17 1 1302
-0.45570892 -1.278989 0.18280281 512 30816450 96 18 45 1370
-0.41778794 -1.3238304 0.17357266 387 30816450 76 19 27 1399
-0.51431441 -1.1659312 0.14891015 787 30816450 130 20 1 1283
-0.47825506 -1.2008753 0.13845915 752 30816450 127 21 1 1300
-0.45256919 -1.2682863 0.13130111 605 30816450 111 22 70 1353
-0.40992227 -1.2964623 0.11989316 464 30816450 87 23 87 1365
-0.46688107 -1.0578516 0.092586778 1174 30816450 158 24 74 1160
-0.47753006 -1.1981422 0.090938017 846 30816450 141 25 1 1293
-0.45425346 -1.272866 0.082353085 611 30816450 112 26 87 1354
-0.42078897 -1.3280882 0.071719989 466 30816450 91 27 59 1395
-0.50641227 -1.1459044 0.054458193 1022 30816450 161 28 1 1254
-0.4951551 -1.2411042 0.045284674 663 30816450 118 29 1 1337
-0.47064552 -1.3148823 0.034448627 486 30816450 95 30 11 1397
-0.39245799 -1.2370954 0.019391423 558 30816450 94 31 47 1298
-0.54332137 -1.2292478 0.0093828142 599 30816450 108 32 1 1344
-0.49774739 -1.2462745 -0.0033962326 550 30816450 99 33 1 1342
-0.47158998 -1.3170137 -0.016700938 456 30816450 89 34 59 1399
-0.39745128 -1.2500339 -0.02814037 327 30816450 56 35 44 1312
-0.55866337 -1.26229 -0.040993176 318 30816450 61 36 38 1381
-0.51016295 -1.2746474 -0.053703364 343 30816450 65 37 11 1374
-0.47127968 -1.3144121 -0.067975163 373 30816450 73 38 94 1398
-0.41651115 -1.3100587 -0.079961464 327 30816450 62 39 44 1377
-0.57080853 -1.2869996 -0.093438759 333 30816450 66 40 19 1411
-0.51560599 -1.2865542 -0.10501875 294 30816450 57 41 37 1390
-0.46847421 -1.3054401 -0.11841623 311 30816450 60 42 104 1392
-0.42753747 -1.3422245 -0.13367958 281 30816450 56 43 41 1415
-0.55172926 -1.242811 -0.14037502 302 30816450 56 44 24 1367
-0.51212758 -1.2763908 -0.15494512 291 30816450 56 45 28 1384
-0.46604466 -1.2965342 -0.16836116 245 30816450 47 46 88 1388
-0.42006677 -1.3176574 -0.1826151 257 30816450 50 47 90 1395
-0.55876863 -1.2558296 -0.19290838 264 30816450 51 48 28 1388
-0.5183273 -1.2902132 -0.20862091 265 30816450 52 49 1 1406
-0.47199574 -1.3109334 -0.222699 239 30816450 48 50 75 1411
-0.43608871 -1.3665957 -0.24344975 110 30816450 23 51 55 1455
-0.5497843 -1.232682 -0.24056913 250 30816450 47 52 62 1371
-0.53006774 -1.3175093 -0.26687559 287 30816450 60 53 34 1445
-0.46731648 -1.2966588 -0.2726106 264 30816450 52 54 89 1405
-0.44105154 -1.3822314 -0.30205032 203 30816450 44 55 50 1482
-0.80510843 -1.8024424 -0.42825437 288 30816450 117 56 46 2020
-0.52740854 -1.30892 -0.31996498 273 30816450 57 57 9 1447
-0.5080148 -1.4087361 -0.35483071 74 30816450 17 58 36 1539
-0.40231019 -1.2604383 -0.32743084 327 30816450 61 59 74 1363
-0.80798852 -1.8032247 -0.50708604 345 30816450 144 60 5 2040
-0.73929244 -1.8303477 -0.52642488 351 30816450 146 61 16 2043
-0.66396475 -1.8400816 -0.54235739 354 30816450 146 62 46 2030
-0.60718042 -1.9050514 -0.57677776 370 30816450 160 63 51 2081
-0.5177303 -1.151908 0.39419851 302 30913820 53 0 3 1323
-0.48334804 -1.195142 0.3869448 327 30913820 59 1 19 1346
-0.4550578 -1.2592975 0.3877219 290 30913820 56 2 44 1394
-0.39464331 -1.2358547 0.36239353 321 30913820 58 3 20 1347
-0.52775079 -1.175794 0.34815595 339 30913820 60 4 8 1335
-0.48137021 -1.1887591 0.33280569 389 30913820 68 5 1 1325
-0.44698635 -1.2354766 0.32728711 334 30913820 61 6 44 1354
-0.40156668 -1.2531568 0.31456557 359 30913820 66 7 27 1353
-0.52051264 -1.1602643 0.29305068 385 30913820 66 8 3 1305
-0.48743749 -1.2050723 0.28594887 411 30913820 73 9 1 1331
-0.44982609 -1.2412262 0.2771557 533 30913820 97 10 23 1349
-0.39664969 -1.2341055 0.25949332 399 30913820 70 11 12 1322
-0.53806555 -1.1998956 0.25230378 475 30913820 85 12 14 1339
-0.48044989 -1.1864864 0.23242064 521 30913820 88 13 1 1301
-0.45525649 -1.255458 0.22932874 482 30913820 88 14 54 1355
-0.41380182 -1.2863922 0.21937266 439 30913820 82 15 9 1369
-0.53059047 -1.1831707 0.1998122 553 30913820 95 16 1 1312
-0.48394319 -1.1943341 0.18592779 747 30913820 127 17 1 1302
-0.4554275 -1.2538124 0.17960042 571 30913820 103 18 50 1346
-0.42224976 -1.309909 0.17208384 447 30913820 86 19 48 1387
-0.51658148 -1.1518781 0.14751737 808 30913820 131 20 1 1271
-0.49009708 -1.2089758 0.13973723 818 30913820 141 21 1 1312
-0.46034271 -1.2654855 0.13130111 638 30913820 117 22 63 1353
-0.42521667 -1.3166729 0.12200117 475 30913820 92 23 55 1389
-0.46846625 -1.0440534 0.091628976 1273 30913820 168 24 172 1148
-0.48037273 -1.1840972 0.090094037 917 30913820 150 25 1 1281
-0.46205506 -1.2700548 0.082353085 619 30913820 113 26 86 1354
-0.4215506 -1.3026773 0.070486099 554 30913820 104 27 76 1371
-0.49378094 -1.099033 0.05237367 1092 30913820 159 28 1 1206
-0.50276107 -1.2380427 0.045284674 723 30913820 129 29 1 1337
-0.46636865 -1.2781608 0.033560906 575 30913820 106 30 26 1361
-0.41483477 -1.2803218 0.020108517 537 30913820 97 31 30 1346
-0.54101694 -1.204 0.0092152636 650 30913820 113 32 13 1320
-0.50990415 -1.2543135 -0.0034266014 589 30913820 108 33 1 1354
-0.47966215 -1.3140953 -0.016700938 502 30913820 98 34 59 1399
-0.41993511 -1.2932144 -0.029169895 339 30913820 63 35 42 1360
-0.56147647 -1.2478999 -0.040636975 320 30913820 60 36 69 1369
-0.53154582 -1.3048073 -0.05511044 341 30913820 68 37 4 1410
-0.47110692 -1.2889806 -0.066808209 335 30913820 63 38 72 1374
-0.42454168 -1.3074784 -0.079961464 339 30913820 64 39 44 1377
-0.56392998 -1.2507267 -0.091054782 317 30913820 60 40 13 1375
-0.51445174 -1.2612075 -0.10320547 289 30913820 54 41 33 1366
-0.48058295 -1.3137697 -0.11943706 309 30913820 61 42 96 1404
-0.44685179 -1.373657 -0.13708062 288 30913820 61 43 32 1451
-0.5789851 -1.2829218 -0.14530405 288 30913820 58 44 17 1415
-0.53347445 -1.306343 -0.1589755 300 30913820 60 45 23 1420
-0.48218712 -1.3160188 -0.17127229 259 30913820 52 46 93 1412
-0.44287568 -1.3603042 -0.18889862 254 30913820 53 47 99 1443
-0.57136118 -1.2632049 -0.19457619 252 30913820 49 48 38 1400
-0.53072548 -1.2979931 -0.21040146 276 30913820 55 49 1 1418
-0.4841131 -1.3191367 -0.22459298 272 30913820 55 50 69 1423
-0.45546287 -1.3976401 -0.24947324 116 30913820 26 51 61 1491
-0.54270285 -1.1970065 -0.23425221 276 30913820 49 52 43 1335
-0.52473485 -1.28149 -0.26022679 275 30913820 55 53 29 1409
-0.48744139 -1.3269169 -0.27959567 259 30913820 54 54 87 1441
-0.42404532 -1.3013089 -0.28493008 289 30913820 57 55 80 1398
-0.80645603 -1.7761124 -0.42316622 323 30913820 128 56 56 1996
-0.51766866 -1.2623479 -0.30935106 233 30913820 46 57 33 1399
-0.49650681 -1.3507936 -0.34099716 107 30913820 23 58 47 1479
-0.43891659 -1.3465469 -0.35049275 234 30913820 50 59 70 1459
-0.82867342 -1.8193886 -0.51305169 341 30913820 145 60 12 2064
-0.75491768 -1.8365011 -0.52951694 344 30913820 145 61 18 2055
-0.66326797 -1.8034136 -0.53273922 373 30913820 148 62 44 1994
-0.61172098 -1.8793626 -0.57012582 341 30913820 144 63 41 2057
-0.53430849 -1.1695479 0.40134951 284 31011700 52 0 11 1347
-0.4862977 -1.1815255 0.38349506 343 31011700 61 1 1 1334
-0.45480871 -1.2348493 0.38104665 286 31011700 54 2 23 1370
-0.40580216 -1.244398 0.36562198 349 31011700 64 3 15 1359
-0.53495538 -1.1725338 0.34815595 369 31011700 66 4 1 1335
-0.49308079 -1.1965222 0.33581978 372 31011700 66 5 1 1337
-0.45858723 -1.2436358 0.33018771 370 31011700 69 6 47 1366
-0.41287804 -1.2617615 0.31735551 360 31011700 67 7 29 1365
-0.5421772 -1.1889671 0.30113485 395 31011700 71 8 16 1341
-0.4948225 -1.2020587 0.28594887 381 31011700 68 9 3 1331
-0.44522637 -1.2053931 0.26975939 525 31011700 91 10 27 1313
-0.41889107 -1.276368 0.26891518 396 31011700 74 11 1 1370
-0.54541785 -1.1965716 0.25230378 441 31011700 79 12 26 1339
-0.487721 -1.183516 0.23242064 556 31011700 94 13 1 1301
-0.45475143 -1.2304541 0.22526683 560 31011700 99 14 67 1331
-0.41799089 -1.2725755 0.21744974 461 31011700 85 15 28 1357
-0.53784025 -1.1798928 0.1998122 591 31011700 102 16 1 1312
-0.49126238 -1.1913422 0.18592779 790 31011700 134 17 1 1302
-0.45898339 -1.2398415 0.17799923 640 31011700 114 18 56 1334
-0.43027925 -1.3072934 0.17208384 471 31011700 91 19 25 1387
-0.52858347 -1.1595321 0.14891015 828 31011700 136 20 1 1283
-0.47930455 -1.1618259 0.1346249 918 31011700 147 21 1 1264
-0.45564395 -1.2290415 0.1278075 711 31011700 123 22 85 1317
-0.43328762 -1.3140391 0.12200117 499 31011700 96 23 88 1389
-0.47982737 -1.0520426 0.092586778 1312 31011700 177 24 52 1160
-0.47849327 -1.1589986 0.088406093 1043 31011700 165 25 1 1257
-0.46151125 -1.2447344 0.080893353 678 31011700 120 26 93 1330
-0.42953575 -1.3000661 0.070486099 529 31011700 99 27 68 1371
-0.49055466 -1.0741719 0.051331405 1264 31011700 177 28 1 1182
-0.50118703 -1.2127666 0.044471789 797 31011700 137 29 1 1313
-0.47420251 -1.2752752 0.033560906 587 31011700 109 30 36 1361
-0.43021959 -1.3005354 0.020467065 408 31011700 77 31 33 1370
-0.56335056 -1.2334028 0.0094665894 717 31011700 132 32 1 1356
-0.51300359 -1.2400725 -0.0033962326 599 31011700 108 33 1 1342
-0.47934943 -1.2886349 -0.016414434 495 31011700 94 34 75 1375
-0.42408696 -1.2792257 -0.028912514 338 31011700 61 35 55 1348
-0.57411152 -1.2553393 -0.040993176 324 31011700 62 36 70 1381
-0.52576637 -1.2682909 -0.053703364 345 31011700 65 37 3 1374
-0.48737404 -1.3085299 -0.067975163 333 31011700 65 38 97 1398
-0.43632576 -1.31622 -0.080658294 414 31011700 80 39 44 1389
-0.57658213 -1.2581279 -0.091849439 331 31011700 64 40 26 1387
-0.53594238 -1.2911816 -0.10592538 295 31011700 58 41 58 1402
-0.48028234 -1.2883894 -0.11739541 282 31011700 54 42 108 1380
-0.4402113 -1.3255395 -0.1325459 304 31011700 60 43 41 1403
-0.5818693 -1.2684954 -0.1440718 287 31011700 56 44 20 1403
-0.5369041 -1.2920334 -0.15763204 278 31011700 55 45 7 1408
-0.49025297 -1.3130354 -0.17127229 303 31011700 60 46 92 1412
-0.43995711 -1.3236927 -0.18418598 256 31011700 51 47 92 1407
-0.55924642 -1.2164866 -0.187905 264 31011700 48 48 36 1352
-0.53867984 -1.2947122 -0.21040146 255 31011700 51 49 1 1418
-0.50049931 -1.3383391 -0.2283809 262 31011700 55 50 87 1447
-0.43415287 -1.3050119 -0.23341058 202 31011700 39 51 66 1395
-0.56981397 -1.2365719 -0.24267477 260 31011700 50 52 25 1383
-0.54165983 -1.3000189 -0.26465932 271 31011700 56 53 15 1433
-0.47906634 -1.2798015 -0.27028227 275 31011700 53 54 99 1393
-0.44314703 -1.3321248 -0.29226729 270 31011700 56 55 64 1434
-0.81733888 -1.7711307 -0.42316622 323 31011700 128 56 55 1996
-0.62455171 -1.4967568 -0.36772755 216 31011700 60 57 19 1663
-0.49659452 -1.3258518 -0.33546373 189 31011700 40 58 59 1455
-0.45452636 -1.3659338 -0.35625818 211 31011700 46 59 76 1483
-0.82029063 -1.7720773 -0.50112027 339 31011700 138 60 14 2016
-0.74827605 -1.7890472 -0.51714873 340 31011700 137 61 27 2007
-0.69461155 -1.8534517 -0.54876947 361 31011700 152 62 56 2054
-0.62324101 -1.8755738 -0.57012582 330 31011700 139 63 31 2057
-0.55112231 -1.1870269 0.40850049 289 31108920 54 0 1 1371
-0.48465899 -1.1573166 0.37659559 296 31108920 51 1 35 1310
-0.46237704 -1.2320354 0.38104665 283 31108920 53 2 25 1370
-0.40612879 -1.2199528 0.35916507 339 31108920 60 3 11 1335
-0.54213983 -1.1692291 0.34815595 311 31108920 55 4 10 1335
-0.50490463 -1.2041861 0.33883387 378 31108920 69 5 1 1349
-0.45392278 -1.2080982 0.32148585 344 31108920 61 6 60 1330
-0.41691461 -1.2481345 0.31456557 394 31108920 72 7 27 1353
-0.54946238 -1.185618 0.30113485 358 31108920 64 8 8 1341
-0.51124412 -1.2206197 0.29110494 385 31108920 71 9 1 1355
-0.46088734 -1.2246212 0.27469024 482 31108920 86 10 28 1337
-0.42297715 -1.2626165 0.26655969 418 31108920 77 11 20 1358
-0.54284221 -1.1718156 0.24778152 452 31108920 78 12 5 1315
-0.50867015 -1.2131667 0.23885193 487 31108920 87 13 1 1337
-0.4664607 -1.2387087 0.22729778 564 31108920 102 14 60 1343
-0.41826081 -1.2475257 0.2136039 439 31108920 78 15 18 1333
-0.55005527 -1.1873319 0.20163977 539 31108920 95 16 1 1324
-0.50775319 -1.2102097 0.18935505 689 31108920 121 17 1 1326
-0.46238512 -1.2258743 0.17639802 629 31108920 110 18 48 1322
-0.43450058 -1.2933414 0.17059501 469 31108920 89 19 40 1375
-0.54069859 -1.1670815 0.15030292 720 31108920 121 20 1 1295
-0.47718844 -1.1368593 0.13206872 1090 31108920 168 21 1 1240
-0.4758375 -1.2597412 0.13130111 676 31108920 124 22 59 1353
-0.43752939 -1.3000265 0.12094717 530 31108920 101 23 77 1377
-0.51142561 -1.1033412 0.097375743 1145 31108920 170 24 1 1220
-0.4763242 -1.1339684 0.086718149 1029 31108920 156 25 1 1233
-0.47337294 -1.2530841 0.081623219 714 31108920 129 26 81 1342
-0.44133407 -1.3087618 0.071103044 500 31108920 95 27 55 1383
-0.49208936 -1.0602672 0.050810274 1268 31108920 174 28 20 1170
-0.51326746 -1.2207242 0.044878229 808 31108920 142 29 1 1325
-0.48626849 -1.2835598 0.033856813 596 31108920 112 30 10 1373
-0.4420296 -1.3092394 0.020646339 482 31108920 92 31 30 1382
-0.55575114 -1.1972702 0.0092152636 701 31108920 122 32 1 1320
-0.52060288 -1.2369014 -0.0033962326 633 31108920 114 33 1 1342
-0.49149966 -1.2968898 -0.016557686 510 31108920 98 34 63 1387
-0.43192816 -1.2765995 -0.028912514 543 31108920 99 35 36 1348
-0.58180332 -1.2517929 -0.040993176 320 31108920 61 36 28 1381
-0.54285806 -1.2871379 -0.054641418 333 31108920 65 37 13 1398
-0.49964616 -1.3167208 -0.068558641 362 31108920 72 38 100 1410
-0.43287596 -1.2794744 -0.078567803 406 31108920 74 39 47 1353
-0.57923585 -1.2437123 -0.091054782 309 31108920 58 40 24 1375
-0.54850978 -1.2988919 -0.10683202 299 31108920 60 41 40 1414
-0.49666876 -1.3077734 -0.11943706 270 31108920 53 42 103 1404
-0.45600566 -1.3454417 -0.13481326 287 31108920 58 43 34 1427
-0.57451189 -1.2324448 -0.14037502 264 31108920 49 44 47 1367
-0.54017836 -1.2777313 -0.15628858 270 31108920 53 45 17 1396
-0.49830037 -1.3100026 -0.17127229 269 31108920 54 46 76 1412
-0.45189235 -1.3322345 -0.18575685 241 31108920 49 47 78 1419
-0.58681959 -1.2560984 -0.19457619 248 31108920 49 48 42 1400
-0.53273654 -1.258597 -0.20505981 259 31108920 49 49 3 1382
-0.48760843 -1.2798771 -0.21891108 254 31108920 49 50 64 1387
-0.4535625 -1.3359318 -0.23943409 274 31108920 56 51 60 1431
-0.58240062 -1.2437513 -0.24478042 240 31108920 47 52 46 1395
-0.54502386 -1.2858126 -0.26244307 265 31108920 53 53 45 1421
-0.48691002 -1.2768379 -0.27028227 279 31108920 54 54 92 1393
-0.47019583 -1.3850033 -0.30449608 102 31108920 23 55 38 1494
-0.82819092 -1.7660822 -0.42316622 340 31108920 135 56 51 1996
-0.73432702 -1.7298926 -0.42610401 280 31108920 104 57 19 1927
-0.48390725 -1.2682322 -0.32163018 303 31108920 59 58 85 1395
-0.4441708 -1.3079693 -0.34184453 339 31108920 69 59 85 1423
-0.84599036 -1.7985646 -0.51006883 341 31108920 144 60 4 2052
-0.76377887 -1.7950913 -0.52024072 339 31108920 138 61 14 2019
-0.68534869 -1.7951386 -0.53273922 332 31108920 132 62 52 1994
-0.63844043 -1.8826332 -0.57345176 335 31108920 143 63 46 2069
-0.52907044 -1.1214632 0.3870475 293 31206970 49 0 1 1299
-0.5007602 -1.1754688 0.38349506 323 31206970 58 1 2 1334
-0.48227641 -1.2614745 0.39105952 254 31206970 50 2 23 1406
-0.41732448 -1.2283813 0.36239353 327 31206970 59 3 36 1347
-0.54436636 -1.1554009 0.34502646 334 31206970 58 4 10 1323
-0.51684088 -1.2117494 0.34184796 350 31206970 65 5 1 1361
-0.45716465 -1.1944155 0.31858522 326 31206970 57 6 39 1318
-0.42456517 -1.2455529 0.31456557 435 31206970 80 7 48 1353
-0.55672681 -1.1822243 0.30113485 357 31206970 64 8 8 1341
-0.51413018 -1.2066779 0.28852692 399 31206970 72 9 1 1343
-0.47259679 -1.2327361 0.2771557 466 31206970 85 10 42 1349
-0.42310441 -1.2377294 0.26184878 413 31206970 73 11 4 1334
-0.56507975 -1.2004511 0.25456488 422 31206970 77 12 27 1351
-0.5161044 -1.2100227 0.23885193 578 31206970 103 13 1 1337
-0.46558094 -1.2137384 0.22323586 636 31206970 111 14 67 1319
-0.42590761 -1.2449359 0.2136039 463 31206970 82 15 25 1333
-0.54722756 -1.1624733 0.19798467 532 31206970 90 16 1 1300
-0.50584495 -1.1852239 0.18592779 665 31206970 113 17 1 1302
-0.46989822 -1.2230141 0.17639802 651 31206970 114 18 41 1322
-0.44628936 -1.3019148 0.17208384 486 31206970 93 19 45 1387
-0.5630793 -1.196093 0.15448122 690 31206970 122 20 1 1331
-0.48415509 -1.1339099 0.13206872 1030 31206970 158 21 1 1240
-0.47926942 -1.245651 0.13013656 736 31206970 132 22 66 1341
-0.44549796 -1.2973175 0.12094717 559 31206970 106 23 74 1377
-0.52328289 -1.111004 0.098333545 1030 31206970 156 24 1 1232
-0.4738664 -1.1090094 0.085030206 1119 31206970 164 25 1 1209
-0.48105282 -1.2501559 0.081623219 724 31206970 130 26 75 1342
-0.44155824 -1.283365 0.069869153 524 31206970 97 27 93 1359
-0.49858579 -1.0572278 0.050810274 1316 31206970 180 28 39 1170
-0.52074802 -1.2175519 0.044878229 887 31206970 156 29 1 1325
-0.48549765 -1.258168 0.033264998 601 31206970 109 30 33 1349
-0.44223887 -1.2838136 0.020287791 576 31206970 106 31 35 1358
-0.56820595 -1.2046907 0.0092990389 748 31206970 133 32 1 1332
-0.52818257 -1.2336838 -0.0033962326 647 31206970 117 33 1 1342
-0.49080575 -1.2714614 -0.01627118 537 31206970 100 34 62 1363
-0.43975309 -1.2739252 -0.028912514 494 31206970 90 35 51 1348
-0.579229 -1.2265074 -0.040280771 355 31206970 65 36 55 1357
-0.56020039 -1.3058218 -0.055579465 328 31206970 66 37 1 1422
-0.50339502 -1.3024504 -0.067975163 344 31206970 67 38 87 1398
-0.44071853 -1.2767942 -0.078567803 385 31206970 70 39 38 1353
-0.58685625 -1.2401347 -0.091054782 313 31206970 59 40 28 1375
-0.56119186 -1.3064963 -0.10773866 299 31206970 61 41 54 1426
-0.51762438 -1.3381552 -0.12249955 328 31206970 68 42 105 1440
-0.45644456 -1.3200376 -0.1325459 290 31206970 57 43 53 1403
-0.5922823 -1.2504718 -0.14283952 294 31206970 57 44 22 1391
-0.55742955 -1.2963022 -0.1589755 279 31206970 56 45 24 1420
-0.52354133 -1.3513483 -0.17709458 290 31206970 62 46 100 1460
-0.46394888 -1.3406793 -0.18732774 263 31206970 54 47 95 1431
-0.5996117 -1.2632096 -0.19624397 270 31206970 54 48 39 1412
-0.53575635 -1.2444047 -0.20327927 266 31206970 50 49 17 1370
-0.50402552 -1.2989552 -0.222699 264 31206970 53 50 73 1411
-0.45400682 -1.3107651 -0.23541841 265 31206970 53 51 70 1407
-0.59509659 -1.2508223 -0.24688604 255 31206970 50 52 23 1407
-0.54823405 -1.2716142 -0.26022679 276 31206970 55 53 47 1409
-0.50752109 -1.3067465 -0.27726731 256 31206970 52 54 86 1429
-0.4786852 -1.3820922 -0.30449608 89 31206970 20 55 48 1494
-0.83901185 -1.7609673 -0.42316622 326 31206970 130 56 65 1996
-0.77276093 -1.7898201 -0.44202486 307 31206970 123 57 23 1999
-0.51282734 -1.319658 -0.33546373 240 31206970 51 58 67 1455
-0.45218799 -1.3052194 -0.34184453 383 31206970 78 59 78 1423
-0.85199851 -1.7828525 -0.50708604 365 31206970 152 60 1 2040
-0.78398877 -1.8116533 -0.52642488 334 31206970 139 61 5 2043
-0.70473188 -1.8124551 -0.53915131 345 31206970 140 62 41 2018
-0.64244038 -1.8568882 -0.56679988 333 31206970 139 63 41 2045
-0.55574554 -1.1595149 0.40134951 291 31305010 53 0 4 1347
-0.50796336 -1.1723741 0.38349506 311 31305010 55 1 20 1334
-0.47327903 -1.2155274 0.377709 290 31305010 53 2 33 1358
-0.4286387 -1.2367177 0.36562198 340 31305010 63 3 19 1359
-0.56144905 -1.1729376 0.35128546 333 31305010 60 4 1 1347
-0.51502132 -1.1872435 0.33581978 361 31305010 64 5 1 1337
-0.46871382 -1.2024368 0.32148585 357 31305010 63 6 51 1330
-0.42836648 -1.2319007 0.31177565 433 31305010 78 7 40 1341
-0.55892366 -1.1682376 0.29844013 393 31305010 69 8 10 1329
-0.50754476 -1.1712399 0.28079274 371 31305010 63 9 1 1307
-0.48442301 -1.2407528 0.27962112 436 31305010 81 10 1 1361
-0.43843955 -1.2573308 0.26655969 454 31305010 84 11 3 1358
-0.57243496 -1.1969612 0.25456488 453 31305010 83 12 4 1351
-0.52821803 -1.217665 0.24099572 522 31305010 95 13 1 1349
-0.48162645 -1.2328912 0.22729778 614 31305010 111 14 41 1343
-0.42963555 -1.2311156 0.21168099 482 31305010 84 15 22 1321
-0.55946708 -1.169793 0.1998122 515 31305010 89 16 1 1312
-0.52729517 -1.2147826 0.19106865 677 31305010 121 17 1 1338
-0.48172706 -1.2311831 0.17799923 656 31305010 117 18 58 1334
-0.45426935 -1.2991519 0.17208384 540 31305010 104 19 31 1387
-0.56012243 -1.1711107 0.15169568 642 31305010 110 20 1 1307
-0.48635092 -1.1199735 0.13079064 1079 31305010 163 21 1 1228
-0.47818941 -1.2204463 0.1278075 789 31305010 137 22 75 1317
-0.44949809 -1.2832779 0.11989316 560 31305010 104 23 90 1365
-0.55074292 -1.1509322 0.10216472 960 31305010 157 24 1 1280
-0.456808 -1.0511885 0.080810346 1291 31305010 170 25 1 1149
-0.48434454 -1.2360287 0.080893353 787 31305010 139 26 75 1330
-0.44545609 -1.2693236 0.069252208 549 31305010 100 27 58 1347
-0.52578396 -1.0973958 0.052894797 1141 31305010 169 28 1 1218
-0.51864141 -1.1923383 0.044065345 928 31305010 157 29 1 1301
-0.4932085 -1.2551653 0.033264998 661 31305010 120 30 21 1349
-0.44613051 -1.2697556 0.020108517 520 31305010 94 31 30 1346
-0.57558709 -1.2011815 0.0092990389 666 31305010 118 32 1 1332
-0.5357424 -1.2304196 -0.0033962326 669 31305010 121 33 1 1342
-0.49420837 -1.2572587 -0.016127925 538 31305010 98 34 63 1351
-0.45552993 -1.2938356 -0.029427277 403 31305010 76 35 36 1372
-0.60230953 -1.2553735 -0.041349381 319 31305010 62 36 52 1393
-0.5634073 -1.2913696 -0.05511044 359 31305010 71 37 7 1410
-0.51137722 -1.2993371 -0.067975163 323 31305010 63 38 109 1398
-0.4525227 -1.2853658 -0.079264633 357 31305010 66 39 45 1365
-0.59445453 -1.2365105 -0.091054782 323 31305010 61 40 27 1375
-0.55003822 -1.2591674 -0.1041121 311 31305010 59 41 24 1378
-0.50829786 -1.2904553 -0.11841623 287 31305010 56 42 112 1392
-0.47248197 -1.3397444 -0.13481326 306 31305010 62 43 37 1427
-0.59476823 -1.236058 -0.14160727 282 31305010 54 44 28 1379
-0.56059527 -1.2819319 -0.15763204 277 31305010 55 45 9 1408
-0.51433861 -1.303789 -0.17127229 285 31305010 57 46 63 1412
-0.46028799 -1.3041518 -0.1826151 233 31305010 45 47 90 1395
-0.58670479 -1.2166905 -0.1895728 254 31305010 47 48 31 1364
-0.56242001 -1.2845775 -0.21040146 241 31305010 48 49 7 1418
-0.51634049 -1.3068588 -0.22459298 268 31305010 54 50 65 1423
-0.46204096 -1.3079547 -0.23541841 250 31305010 49 51 47 1407
-0.58733785 -1.2152374 -0.24056913 239 31305010 45 52 27 1371
-0.56549716 -1.2898285 -0.26465932 265 31305010 54 53 20 1433
-0.52851701 -1.3364488 -0.28425235 280 31305010 60 54 86 1465
-0.47933072 -1.3569742 -0.29960456 129 31305010 28 55 56 1470
-0.84469211 -1.7452302 -0.42062211 321 31305010 126 56 50 1984
-0.78843325 -1.7957605 -0.44467837 317 31305010 128 57 20 2011
-0.64120877 -1.6205 -0.41293165 236 31305010 76 58 46 1791
-0.45242673 -1.2804538 -0.33607903 340 31305010 67 59 88 1399
-0.85784584 -1.7671347 -0.50410312 348 31305010 143 60 1 2028
-0.79042006 -1.7961961 -0.52333283 329 31305010 136 61 4 2031
-0.71583962 -1.8080968 -0.53915131 357 31305010 145 62 47 2018
-0.65765858 -1.8637842 -0.57012582 336 31305010 142 63 39 2057
-0.55783546 -1.1457838 0.39777401 284 31403500 51 0 1 1335
-0.50587928 -1.1481994 0.37659559 334 31403500 57 1 13 1310
-0.49772033 -1.2554612 0.39105952 281 31403500 56 2 10 1406
-0.41695985 -1.1795802 0.34947971 330 31403500 56 3 27 1299
-0.56356966 -1.1590521 0.34815595 322 31403500 57 4 19 1335
-0.52229643 -1.1840611 0.33581978 343 31403500 61 5 1 1337
-0.47178754 -1.1887153 0.31858522 307 31403500 53 6 58 1318
-0.43201643 -1.2182491 0.30898571 449 31403500 79 7 40 1329
-0.57630396 -1.1858206 0.30382955 370 31403500 68 8 1 1353
-0.51944762 -1.1788284 0.28337079 394 31403500 69 9 1 1319
-0.48335055 -1.2159303 0.27469024 461 31403500 82 10 23 1337
-0.43826139 -1.232444 0.26184878 445 31403500 79 11 1 1334
-0.56431949 -1.1616251 0.24778152 433 31403500 75 12 5 1315
-0.53567952 -1.214401 0.24099572 509 31403500 93 13 1 1349
-0.48918223 -1.2299129 0.22729778 578 31403500 104 14 65 1343
-0.45306692 -1.2730936 0.21937266 497 31403500 93 15 34 1369
-0.56145167 -1.1556705 0.19798467 519 31403500 88 16 1 1300
-0.52994317 -1.2006587 0.18935505 615 31403500 108 17 1 1326
-0.47606865 -1.1950591 0.17319565 754 31403500 127 18 76 1298
-0.45423397 -1.2739089 0.16910617 554 31403500 103 19 27 1363
-0.57250625 -1.1783724 0.15308845 645 31403500 112 20 1 1319
-0.50767285 -1.1497133 0.1346249 941 31403500 150 21 1 1264
-0.47239321 -1.1842093 0.1243139 831 31403500 136 22 72 1281
-0.44530138 -1.2467245 0.11673114 550 31403500 97 23 72 1329
-0.56302381 -1.1582893 0.10312251 857 31403500 143 24 1 1292
-0.45357314 -1.0264678 0.079122394 1118 31403500 141 25 93 1125
-0.48304284 -1.2107834 0.079433627 810 31403500 138 26 80 1306
-0.45323613 -1.2665664 0.069252208 567 31403500 103 27 54 1347
-0.55349308 -1.1372681 0.054979321 959 31403500 154 28 1 1266
-0.52109653 -1.1781653 0.043658897 930 31403500 154 29 1 1289
-0.49644497 -1.2409772 0.032969087 674 31403500 121 30 5 1337
-0.46200675 -1.2895857 0.020467065 519 31403500 97 31 39 1370
-0.5829466 -1.1976272 0.0092990389 571 31403500 101 32 1 1332
-0.54328203 -1.2271093 -0.0033962326 642 31403500 116 33 1 1342
-0.50191343 -1.2542025 -0.016127925 528 31403500 96 34 56 1351
-0.47156733 -1.3135996 -0.029942039 395 31403500 77 35 53 1396
-0.60474616 -1.2408718 -0.040993176 314 31403500 60 36 69 1381
-0.55673343 -1.255006 -0.053703364 344 31403500 65 37 3 1374
-0.51488233 -1.285049 -0.067391686 354 31403500 68 38 104 1386
-0.48063844 -1.3389416 -0.082748793 313 31403500 64 39 26 1425
-0.60728449 -1.2435991 -0.091849439 302 31403500 58 40 25 1387
-0.55775398 -1.2557688 -0.1041121 312 31403500 59 41 28 1378
-0.50730628 -1.2651172 -0.11637457 305 31403500 57 42 90 1368
-0.47260907 -1.3143369 -0.1325459 321 31403500 63 43 59 1403
-0.60758287 -1.2431093 -0.14283952 275 31403500 53 44 43 1391
-0.55391622 -1.2457799 -0.15360168 269 31403500 51 45 25 1372
-0.53564596 -1.3337685 -0.17563902 272 31403500 57 46 113 1448
-0.48439434 -1.346079 -0.18889862 268 31403500 56 47 72 1443
-0.62029523 -1.2664284 -0.19791177 262 31403500 53 48 23 1424
-0.5702914 -1.2811023 -0.21040146 221 31403500 44 49 18 1418
-0.51992774 -1.2926722 -0.222699 266 31403500 53 50 67 1411
-0.47807577 -1.3273568 -0.23943409 233 31403500 48 51 59 1431
-0.62081331 -1.2646352 -0.25109732 275 31403500 56 52 35 1431
-0.55899572 -1.2540189 -0.25801054 252 31403500 49 53 35 1397
-0.51912242 -1.2894998 -0.27493897 251 31403500 50 54 96 1417
-0.45978233 -1.2766358 -0.28248429 321 31403500 62 55 62 1386
-0.86573213 -1.7610631 -0.42571029 309 31403500 124 56 43 2008
-0.78989625 -1.7695158 -0.43937141 283 31403500 112 57 38 1987
-0.73403203 -1.8223251 -0.46549916 307 31403500 125 58 50 2019
-0.4800151 -1.3324496 -0.35049275 195 31403500 41 59 44 1459
-0.87381274 -1.7722629 -0.50708604 362 31403500 151 60 1 2040
-0.81089669 -1.81248 -0.52951694 324 31403500 137 61 21 2055
-0.7442109 -1.8465723 -0.55197549 334 31403500 142 62 41 2066
-0.66127563 -1.8380154 -0.56347388 334 31403500 138 63 28 2033
-0.5699327 -1.1526077 0.40134951 297 31501960 54 0 6 1347
-0.52231193 -1.1660523 0.38349506 311 31501960 55 1 20 1334
-0.49247345 -1.220317 0.38104665 278 31501960 52 2 31 1370
-0.44378287 -1.2313645 0.36562198 343 31501960 63 3 19 1359
-0.57580054 -1.1659595 0.35128546 328 31501960 59 4 14 1347
-0.53905767 -1.2020308 0.34184796 345 31501960 64 5 1 1361
-0.50088155 -1.2397798 0.33308834 330 31501960 63 6 45 1378
-0.44741979 -1.237527 0.31456557 414 31501960 76 7 45 1353
-0.5680418 -1.150805 0.2957454 344 31501960 60 8 1 1317
-0.54583722 -1.2184011 0.29368302 379 31501960 71 9 1 1367
-0.49961248 -1.2347147 0.27962112 423 31501960 78 10 26 1361
-0.44982558 -1.2407938 0.26420423 478 31501960 87 11 1 1346
-0.5766511 -1.1687093 0.25004265 408 31501960 72 12 1 1327
-0.53828955 -1.200318 0.23885193 499 31501960 89 13 1 1337
-0.49671963 -1.2268881 0.22729778 570 31501960 103 14 72 1343
-0.44875064 -1.2368853 0.2136039 551 31501960 98 15 36 1333
-0.58427614 -1.1841109 0.20346731 541 31501960 97 16 1 1336
-0.5324378 -1.1865482 0.18764141 632 31501960 109 17 1 1314
-0.47892344 -1.1810943 0.17159444 844 31501960 139 18 51 1286
-0.45390627 -1.248716 0.16612852 530 31501960 95 19 57 1339
-0.5797258 -1.1748374 0.15308845 622 31501960 108 20 1 1319
-0.52449095 -1.1683471 0.13718107 917 31501960 152 21 1 1288
-0.49313015 -1.2144864 0.1278075 872 31501960 151 22 87 1317
-0.46112227 -1.266433 0.11883915 621 31501960 114 23 68 1353
-0.56482512 -1.1440871 0.10216472 791 31501960 130 24 1 1280
-0.46967331 -1.0455036 0.080810346 1270 31501960 168 25 103 1149
-0.49496952 -1.2188942 0.080163494 885 31501960 154 26 87 1318
-0.45689219 -1.252503 0.068635255 591 31501960 105 27 63 1335
-0.56577325 -1.144598 0.055500455 910 31501960 149 28 1 1278
-0.52831578 -1.1749457 0.043658897 948 31501960 157 29 1 1289
-0.51309818 -1.260129 0.033560906 711 31501960 132 30 17 1361
-0.46167877 -1.2641853 0.020108517 582 31501960 105 31 43 1346
-0.61155564 -1.2370559 0.0096341399 435 31501960 83 32 1 1380
-0.55572641 -1.2346953 -0.0034266014 645 31501960 118 33 1 1354
-0.5186525 -1.2733246 -0.016414434 558 31501960 106 34 60 1375
-0.47137299 -1.2881482 -0.029427277 470 31501960 88 35 38 1372
-0.61766952 -1.2478876 -0.041349381 344 31501960 67 36 48 1393
-0.57921195 -1.2843584 -0.05511044 362 31501960 72 37 1 1410
-0.52275753 -1.2818655 -0.067391686 344 31501960 66 38 89 1386
-0.46826205 -1.2797159 -0.079264633 307 31501960 57 39 43 1365
-0.60958368 -1.2291225 -0.091054782 301 31501960 57 40 41 1375
-0.5654487 -1.2523228 -0.1041121 303 31501960 57 41 42 1378
-0.5331316 -1.3062606 -0.12045789 339 31501960 68 42 123 1416
-0.48066479 -1.3114123 -0.1325459 312 31501960 61 43 34 1403
-0.60989177 -1.2286662 -0.14160727 274 31501960 52 44 43 1379
-0.57628429 -1.274956 -0.15763204 248 31501960 49 45 10 1408
-0.5257926 -1.2863532 -0.16981673 279 31501960 55 46 90 1400
-0.4721604 -1.287236 -0.18104421 255 31501960 49 47 104 1383
-0.61746907 -1.2413188 -0.19457619 246 31501960 48 48 40 1400
-0.58792651 -1.2992022 -0.21396255 243 31501960 51 49 1 1442
-0.53682792 -1.3113903 -0.22648695 293 31501960 60 50 78 1435
-0.48213401 -1.3132923 -0.23742624 250 31501960 50 51 84 1419
-0.61274838 -1.2290839 -0.24478042 233 31501960 45 52 32 1395
-0.58128279 -1.2827919 -0.26465932 235 31501960 48 53 40 1433
-0.52256173 -1.2753972 -0.2726106 243 31501960 48 54 83 1405
-0.47570407 -1.2958477 -0.28737581 285 31501960 57 55 65 1410
-0.87652153 -1.7557179 -0.42571029 327 31501960 132 56 57 2008
