# .PCD v0.7 - Point Cloud Data file format
VERSION 0.7
FIELDS x y z intensity t reflectivity ring noise range
SIZE 4 4 4 4 4 2 1 2 4
TYPE F F F F U U U U U
COUNT 1 1 1 1 1 1 1 1 1
WIDTH 828
HEIGHT 1
VIEWPOINT 0 0 0 1 0 0 0
POINTS 828
DATA ascii
-3.0947824 -1.9695015 1.1010391 330 40785930 484 1 112 3830
-3.11269 -2.149261 1.0953004 266 40785930 412 2 53 3938
-2.9181495 -2.1816599 1.0177689 421 40785930 602 3 29 3783
-2.6525617 -1.5512394 0.83009762 525 40785930 532 4 87 3183
-3.21913 -2.0466626 0.98987716 709 40785930 1100 5 53 3941
-3.0366726 -2.0950508 0.91901445 437 40785930 632 6 78 3802
-2.7105203 -2.0221584 0.80838472 313 40785930 379 7 74 3477
-3.3382599 -1.9531014 0.89127827 669 40785930 1054 8 90 3969
-3.3115671 -2.1072185 0.86343235 633 40785930 1023 9 92 4019
-3.1468575 -2.1685572 0.80229276 273 40785930 417 10 62 3905
-2.8610668 -2.1305885 0.71409738 295 40785930 390 11 22 3638
-3.3318706 -1.9500656 0.74070656 537 40785930 830 12 105 3931
-3.3818471 -2.150115 0.72763199 708 40785930 1175 13 75 4073
-3.1451356 -2.1664801 0.65582943 297 40785930 446 14 84 3875
-2.9083619 -2.1647038 0.5885725 270 40785930 364 15 50 3673
-3.3607781 -1.9669058 0.60004586 645 40785930 1001 16 53 3940
-3.3731668 -2.1435218 0.57663321 519 40785930 847 17 75 4038
-3.1760616 -2.18525 0.51905322 387 40785930 586 18 81 3890
-2.8724411 -2.1352425 0.44751722 224 40785930 292 19 61 3607
-3.5069396 -2.0523653 0.47481793 707 40785930 1184 20 88 4091
-3.3067977 -2.1006176 0.41963774 393 40785930 610 21 85 3940
-3.1373127 -2.1564116 0.37119493 363 40785930 532 22 78 3825
-2.8671842 -2.128927 0.31488425 331 40785930 426 23 103 3585
-3.5689759 -2.0877509 0.33107755 536 40785930 923 24 60 4148
-3.1908677 -2.0258017 0.26648423 447 40785930 642 25 64 3789
-3.1077681 -2.1359448 0.22978579 241 40785930 344 26 111 3778
-2.8324509 -2.1005306 0.18153641 223 40785930 278 27 77 3531
-3.6384251 -2.1259909 0.18317756 791 40785930 1408 28 70 4218
-3.3259394 -2.1099269 0.1334831 235 40785930 364 29 48 3941
-2.9521928 -2.024925 0.088303894 601 40785930 770 30 37 3581
-2.9226151 -2.1657362 0.054349769 433 40785930 573 31 84 3638
-3.470927 -2.0278752 0.028064666 444 40785930 718 32 62 4020
-3.3024287 -2.0933149 -0.0098951338 326 40785930 499 33 70 3910
-3.2120728 -2.2026012 -0.046497609 383 40785930 582 34 86 3895
-2.9638491 -2.1933279 -0.07910189 461 40785930 627 35 73 3688
-3.7924838 -2.2132583 -0.13040045 472 40785930 911 36 107 4393
-3.5007176 -2.2154088 -0.16204815 252 40785930 434 37 64 4146
-3.1987119 -2.1914699 -0.18875507 474 40785930 714 38 165 3882
-2.9442434 -2.1788988 -0.21305637 452 40785930 609 39 88 3669
-3.8030808 -2.21544 -0.29210374 508 40785930 989 40 100 4411
-3.4775274 -2.1985235 -0.31173193 462 40785930 787 41 98 4126
-3.1767027 -2.1750879 -0.32870713 486 40785930 725 42 119 3864
-2.9388056 -2.1724148 -0.34681115 489 40785930 659 43 71 3671
-3.8058238 -2.2152591 -0.45460144 273 40785930 536 44 87 4427
-3.4614089 -2.186389 -0.46125284 395 40785930 671 45 74 4120
-3.2117345 -2.196605 -0.47548681 468 40785930 719 46 112 3920
-2.9494605 -2.1791768 -0.48422453 452 40785930 618 47 130 3699
-0 -0 -0 3 40785930 0 48 78 0
-3.4942052 -2.2049725 -0.61992753 295 40785930 514 49 41 4178
-3.1953995 -2.1829782 -0.6185382 471 40785930 724 50 74 3919
-2.9337268 -2.1662858 -0.61891448 442 40785930 605 51 69 3699
-0 -0 -0 2 40785930 0 52 61 0
-3.4861135 -2.1974001 -0.77440095 241 40785930 424 53 86 4193
-3.1702816 -2.1643581 -0.75923508 433 40785930 664 54 75 3913
-2.3768511 -1.7551488 -0.61510652 304 40785930 277 55 66 3018
-0 -0 -0 3 40785930 0 56 88 0
-3.4918315 -2.1984503 -0.93557143 83 40785930 149 57 78 4231
-2.317188 -1.581297 -0.66470236 433 40785930 359 58 56 2883
-2.1889668 -1.6161133 -0.67335927 180 40785930 141 59 48 2803
-0 -0 -0 2 40785930 0 60 24 0
-3.3795719 -2.1238203 -1.064445 40 40785930 68 61 27 4131
-2.3324976 -1.5910884 -0.78281134 261 40785930 224 62 106 2930
-1.9048004 -1.4075465 -0.68320864 91 40785930 55 63 43 2465
-2.5634878 -1.4763862 0.92337203 574 40891120 552 0 76 3099
-2.6103683 -1.6388066 0.92510277 515 40891120 534 1 70 3218
-3.1829696 -2.1690674 1.1153263 417 40891120 671 2 60 4010
-2.9500787 -2.1774404 1.0242258 455 40891120 659 3 46 3807
-2.6519942 -1.5291476 0.82696819 574 40891120 577 4 91 3171
-3.2217875 -2.0207002 0.98686308 720 40891120 1111 5 41 3929
-3.1553438 -2.1484675 0.9509213 373 40891120 578 6 90 3934
-2.6383009 -1.9431959 0.78327525 437 40891120 496 7 74 3369
-3.3400524 -1.9267385 0.8885836 694 40891120 1087 8 66 3957
-3.294656 -2.0681665 0.85569823 674 40891120 1070 9 97 3983
-3.1212604 -2.1227896 0.792431 395 40891120 587 10 43 3857
-2.788764 -2.0502656 0.69289821 260 40891120 324 11 32 3530
-3.39481 -1.9590367 0.75201219 509 40891120 811 12 129 3991
-3.3649688 -2.1105034 0.72120064 696 40891120 1135 13 70 4037
-3.2463965 -2.206984 0.67410803 185 40891120 294 14 84 3983
-2.8643191 -2.1047347 0.57703501 629 40891120 816 15 74 3601
-3.4241455 -1.9758855 0.60918355 489 40891120 782 16 43 4000
-3.4466345 -2.1606345 0.5869149 620 40891120 1048 17 85 4110
-3.1500552 -2.1389976 0.51264846 458 40891120 677 18 59 3842
-2.8950884 -2.1246221 0.44900605 409 40891120 536 19 65 3619
-3.447202 -1.98911 0.46506852 669 40891120 1075 20 84 4007
-3.349956 -2.0992956 0.42347196 307 40891120 486 21 74 3976
-3.0219946 -2.0499599 0.35605597 399 40891120 538 22 65 3669
-2.8994746 -2.1254284 0.31699225 352 40891120 459 23 104 3609
-3.5920808 -2.0717893 0.33203533 592 40891120 1025 24 70 4160
-3.2032378 -2.0061848 0.26648423 476 40891120 684 25 77 3789
-3.110903 -2.1101122 0.22905593 257 40891120 365 26 101 3766
-2.9323127 -2.146826 0.18708892 342 40891120 453 27 80 3639
-3.6202369 -2.0856717 0.18161416 765 40891120 1339 28 73 4182
-3.3693225 -2.1085663 0.13470243 277 40891120 438 29 28 3977
-3.0241678 -2.047121 0.090079337 413 40891120 551 30 45 3653
-2.9842684 -2.1831846 0.055246137 433 40891120 593 31 82 3698
-3.4313152 -1.9765916 0.027645793 553 40891120 868 32 78 3960
-3.2948618 -2.0602877 -0.0098343967 349 40891120 528 33 79 3886
-3.2752144 -2.2164762 -0.047213875 366 40891120 573 34 91 3955
-2.9966259 -2.1892555 -0.079616658 481 40891120 663 35 78 3712
-3.868372 -2.2258389 -0.13253768 485 40891120 967 36 103 4465
-3.5345879 -2.2065868 -0.16298619 405 40891120 703 37 57 4170
-3.2220275 -2.1785152 -0.18933855 464 40891120 703 38 149 3894
-2.9769037 -2.1749265 -0.21445003 432 40891120 590 39 74 3693
-3.8477516 -2.2099533 -0.29448771 494 40891120 977 40 96 4447
-3.5011044 -2.1834762 -0.31263852 480 40891120 822 41 85 4138
-3.2098029 -2.1689439 -0.3307488 487 40891120 736 42 150 3888
-2.9906797 -2.1825106 -0.35134584 480 40891120 664 43 73 3719
-3.9021678 -2.2393961 -0.46445954 208 40891120 426 44 98 4523
-3.5456035 -2.2092519 -0.47065699 450 40891120 796 45 65 4204
-3.2350252 -2.1835208 -0.47694242 483 40891120 747 46 110 3932
-2.9819994 -2.1750596 -0.48736632 437 40891120 606 47 126 3723
-0 -0 -0 3 40891120 0 48 68 0
-3.5177436 -2.1897624 -0.6217081 339 40891120 594 49 49 4190
-3.208734 -2.1633306 -0.6185382 436 40891120 669 50 51 3919
-2.9756446 -2.1691515 -0.62493801 479 40891120 668 51 54 3735
-0 -0 -0 4 40891120 0 52 71 0
-3.5195615 -2.1884229 -0.77883345 155 40891120 275 53 54 4217
-3.2323167 -2.1777532 -0.77087688 400 40891120 632 54 61 3973
-2.3685892 -1.7266905 -0.61021501 356 40891120 319 55 54 2994
-0 -0 -0 4 40891120 0 56 95 0
-3.6344962 -2.2572501 -0.97006655 24 40891120 45 57 46 4387
-2.3171618 -1.5605267 -0.66193563 407 40891120 336 58 64 2871
-2.2270825 -1.6232351 -0.68200749 367 40891120 296 59 61 2839
-0 -0 -0 3 40891120 0 60 32 0
-0 -0 -0 0 40891120 0 61 27 0
-3.2439296 -2.1837668 -1.0841804 274 40891120 452 62 86 4058
-1.9506599 -1.4230129 -0.69651246 102 40891120 64 63 36 2513
-2.5625372 -1.4549732 0.91979653 494 40980170 471 0 64 3087
-2.5812888 -1.5985535 0.91130382 614 40980170 617 1 93 3170
-3.1866541 -2.1430638 1.1119887 514 40980170 821 2 40 3998
-2.9820654 -2.1729107 1.0306827 485 40980170 711 3 45 3831
-2.5908282 -1.472771 0.8050617 583 40980170 556 4 75 3087
-3.1353486 -1.9397821 0.9567222 569 40980170 826 5 87 3809
-3.1974616 -2.1485493 0.95962322 563 40980170 888 6 96 3970
-2.7823291 -2.0230622 0.82233441 188 40980170 236 7 78 3537
-3.3111527 -1.8830849 0.8778047 599 40980170 916 8 84 3909
-3.3072841 -2.0479119 0.85569823 672 40980170 1066 9 99 3983
-3.2414911 -2.1755903 0.81955075 441 40980170 703 10 61 3989
-2.8584285 -2.074584 0.70703095 382 40980170 495 11 46 3602
-3.4682267 -1.9731355 0.76557893 462 40980170 763 12 111 4063
-3.3878961 -2.0960286 0.72334445 718 40980170 1178 13 66 4049
-3.1813061 -2.1343102 0.65786034 396 40980170 599 14 80 3887
-2.8771796 -2.0871201 0.57703501 518 40980170 672 15 66 3601
-3.4980564 -1.9900253 0.62014884 489 40980170 810 16 45 4072
-3.4396236 -2.1269526 0.58348769 742 40980170 1240 17 71 4086
-3.1927593 -2.1394901 0.517452 362 40980170 544 18 55 3878
-3.0141397 -2.1836627 0.46538317 328 40980170 462 19 90 3751
-3.469702 -1.9738145 0.4664613 484 40980170 782 20 93 4019
-3.504863 -2.1665335 0.44136515 433 40980170 744 21 80 4144
-3.0543656 -2.0446665 0.35838503 367 40980170 501 22 78 3693
-2.9415133 -2.1286209 0.32015425 295 40980170 392 23 109 3645
-3.542336 -2.0142338 0.32628858 312 40980170 522 24 64 4088
-3.2154872 -1.9864923 0.26648423 412 40980170 592 25 82 3789
-3.093931 -2.070996 0.22686633 392 40980170 546 26 83 3730
-2.9648559 -2.1428332 0.18832281 270 40980170 363 27 73 3663
-3.6329663 -2.0634189 0.18161416 766 40980170 1341 28 74 4182
-3.3413758 -2.0626538 0.13307665 307 40980170 473 29 41 3929
-3.1364257 -2.0951631 0.093038425 314 40980170 446 30 50 3773
-3.0267897 -2.1859071 0.055783957 475 40980170 663 31 84 3734
-3.5372889 -2.0088322 0.028399769 353 40980170 584 32 95 4068
-3.3789356 -2.0841296 -0.010046978 300 40980170 474 33 70 3970
-3.2987316 -2.2030022 -0.047357131 390 40980170 615 34 62 3967
-3.000272 -2.1638098 -0.079359278 427 40980170 584 35 56 3700
-3.9341216 -2.231652 -0.13431869 498 40980170 1019 36 134 4525
-3.588902 -2.210007 -0.1648623 475 40980170 844 37 53 4218
-3.2851849 -2.1919661 -0.19225593 473 40980170 739 38 170 3954
-2.9901927 -2.1566198 -0.21445003 458 40980170 625 39 76 3693
-3.9445941 -2.2334995 -0.300845 463 40980170 956 40 89 4543
-3.5552032 -2.1870313 -0.31626511 455 40980170 797 41 98 4186
-3.2727892 -2.1823747 -0.33585292 489 40980170 762 42 130 3948
-3.0234013 -2.1780851 -0.3536132 475 40980170 666 43 63 3743
-3.9366133 -2.2271664 -0.46692407 137 40980170 284 44 94 4547
-3.5794108 -2.1999428 -0.47334391 417 40980170 745 45 55 4228
-3.2781031 -2.1834395 -0.48130912 460 40980170 724 46 119 3968
-3.0242524 -2.1775761 -0.49207893 465 40980170 657 47 113 3759
-0 -0 -0 5 40980170 0 48 72 0
-3.6221306 -2.2240219 -0.6377331 254 40980170 468 49 54 4298
-3.26141 -2.1698563 -0.62611413 473 40980170 744 50 46 3967
-3.0177069 -2.1715837 -0.63096148 491 40980170 698 51 46 3771
-0 -0 -0 4 40980170 0 52 55 0
-3.6837239 -2.2592742 -0.81207752 24 40980170 47 53 85 4397
-3.2750273 -2.1774321 -0.77786189 352 40980170 565 54 57 4009
-2.8559208 -2.0552356 -0.73250258 322 40980170 416 55 143 3594
-0 -0 -0 4 40980170 0 56 83 0
-0 -0 -0 4 40980170 0 57 55 0
-2.3850431 -1.5850576 -0.67853594 350 40980170 304 58 59 2943
-2.2464557 -1.6163425 -0.68489015 426 40980170 347 59 72 2851
-0 -0 -0 2 40980170 0 60 25 0
-0 -0 -0 2 40980170 0 61 35 0
-3.257268 -2.1638215 -1.0841804 288 40980170 474 62 40 4058
-1.9593546 -1.4110171 -0.69651246 146 40980170 92 63 32 2513
-2.601404 -1.4560064 0.93052304 647 41078610 631 0 77 3123
-2.5812407 -1.5766938 0.90785414 615 41078610 614 1 79 3158
-3.1325157 -2.0788553 1.0886252 141 41078610 217 2 70 3914
-3.0047245 -2.1613212 1.0339111 497 41078610 734 3 48 3843
-2.58971 -1.4511832 0.80193222 589 41078610 557 4 87 3075
-2.681186 -1.6361372 0.81505996 549 41078610 578 5 47 3245
-3.2688119 -2.1674993 0.97702694 565 41078610 924 6 89 4042
-3.0412107 -2.1828978 0.89487284 409 41078610 606 7 92 3849
-3.149245 -1.7655216 0.83199447 43 41078610 59 8 78 3705
-3.2797801 -2.0031455 0.84538603 623 41078610 965 9 98 3935
-3.2254055 -2.1362057 0.81215447 539 41078610 843 10 71 3953
-2.9763196 -2.1323876 0.73294103 418 41078610 583 11 62 3734
-3.9325404 -2.2054627 0.86506838 496 41078610 1045 12 149 4591
-3.3906145 -2.0690513 0.72120064 695 41078610 1133 13 81 4037
-3.2633736 -2.1604509 0.67207706 245 41078610 387 14 89 3971
-3.0343883 -2.1728692 0.60587871 473 41078610 677 15 71 3781
-3.5412345 -1.9859277 0.62563151 476 41078610 803 16 50 4108
-3.4424701 -2.0996232 0.58177412 695 41078610 1154 17 101 4074
-3.2752671 -2.1657767 0.52866036 280 41078610 439 18 52 3962
-3.0371671 -2.1720538 0.46687201 442 41078610 627 19 67 3763
-3.5233314 -1.9758068 0.47203243 479 41078610 793 20 83 4067
-3.5079031 -2.1387758 0.44008705 755 41078610 1289 21 95 4132
-3.1166811 -2.0588014 0.36420771 355 41078610 499 22 54 3753
-3.0031528 -2.1452732 0.32542428 251 41078610 344 23 126 3705
-3.4085476 -1.9105785 0.31287944 550 41078610 846 24 72 3920
-3.2685037 -1.99164 0.26986012 508 41078610 748 25 79 3837
-3.076597 -2.0321686 0.22467673 569 41078610 776 26 109 3694
-2.9291694 -2.0897999 0.18523808 512 41078610 665 27 74 3603
-3.6455588 -2.0410886 0.18161416 730 41078610 1278 28 65 4182
-3.3744564 -2.0545866 0.13388954 284 41078610 443 29 33 3953
-3.1993027 -2.1088905 0.094517961 239 41078610 351 30 50 3833
-3.0694556 -2.188189 0.056321777 457 41078610 650 31 74 3770
-3.58096 -2.0046747 0.028651092 259 41078610 437 32 86 4104
-3.3198967 -2.0196996 -0.0098343967 638 41078610 964 33 81 3886
-3.3322251 -2.1959252 -0.047643635 420 41078610 670 34 76 3991
-3.0428126 -2.1662333 -0.080131419 305 41078610 426 35 79 3736
-3.9791484 -2.225033 -0.13538732 438 41078610 911 36 114 4561
-3.6433892 -2.2128427 -0.16673841 501 41078610 913 37 65 4266
-3.3386161 -2.1981318 -0.19458985 504 41078610 806 38 166 4002
-3.0716832 -2.1868675 -0.21932785 465 41078610 664 39 63 3777
-3.9582243 -2.209254 -0.300845 433 41078610 894 40 92 4543
-3.6197054 -2.1962101 -0.32079828 454 41078610 819 41 84 4246
-3.3260713 -2.1885409 -0.33993626 509 41078610 812 42 127 3996
-3.05618 -2.1733394 -0.35588056 496 41078610 703 43 50 3767
-4.0336046 -2.2494805 -0.47678211 59 41078610 128 44 76 4643
-3.6234341 -2.1964831 -0.47737432 382 41078610 694 45 57 4264
-3.3611162 -2.2090795 -0.49149811 395 41078610 649 46 92 4052
-3.0569508 -2.1727631 -0.49522072 441 41078610 631 47 130 3783
-0 -0 -0 3 41078610 0 48 57 0
-3.6560102 -2.2140496 -0.64129412 157 41078610 294 49 66 4322
-3.3340967 -2.188822 -0.63747787 397 41078610 647 50 46 4039
-3.0599101 -2.1735804 -0.636985 487 41078610 706 51 70 3807
-0 -0 -0 4 41078610 0 52 70 0
-0 -0 -0 4 41078610 0 53 74 0
-3.3276973 -2.1831253 -0.78717524 359 41078610 591 54 76 4057
-3.012141 -2.1397271 -0.76918888 377 41078610 537 55 100 3774
-0 -0 -0 3 41078610 0 56 88 0
-0 -0 -0 3 41078610 0 57 43 0
-2.3849597 -1.5639904 -0.67576927 311 41078610 267 58 75 2931
-2.2278402 -1.5822928 -0.67624193 302 41078610 240 59 63 2815
-0 -0 -0 3 41078610 0 60 30 0
-0 -0 -0 3 41078610 0 61 25 0
-3.2414701 -2.1247764 -1.0745623 160 41078610 258 62 52 4022
-1.9491807 -1.3856075 -0.68986052 83 41078610 51 63 33 2489
-2.590229 -1.4289507 0.92337203 565 41175540 543 0 79 3099
-2.5810213 -1.5548949 0.9044044 580 41175540 574 1 87 3146
-2.7884228 -1.8259571 0.96513277 90 41175540 108 2 48 3470
-3.0744715 -2.1829908 1.0532818 275 41175540 421 3 46 3915
-2.65941 -1.468872 0.82070917 510 41175540 505 4 76 3147
-2.6812227 -1.6136655 0.81204587 545 41175540 569 5 51 3233
-3.2333307 -2.115525 0.96252376 751 41175540 1191 6 97 3982
-3.0545475 -2.1641963 0.89487284 549 41175540 813 7 52 3849
-2.8427377 -1.5708417 0.74845821 89 41175540 99 8 85 3333
-3.2418137 -1.9527473 0.83249575 602 41175540 904 9 115 3875
-3.3269303 -2.1741962 0.83434343 533 41175540 878 10 47 4061
-3.0950234 -2.1888199 0.75885111 486 41175540 726 11 47 3866
-3.9356847 -2.17559 0.86280721 700 41175540 1468 12 120 4579
-3.3728979 -2.029943 0.71476936 667 41175540 1069 13 61 4001
-3.3854847 -2.211535 0.6944176 305 41175540 514 14 84 4103
-3.0379913 -2.147373 0.60395586 339 41175540 481 15 39 3769
-3.781709 -2.0903883 0.66583765 380 41175540 727 16 89 4372
-3.4349332 -2.0662167 0.57834685 676 41175540 1109 17 85 4050
-3.2486541 -2.1196449 0.5222556 421 41175540 644 18 55 3914
-3.0212543 -2.132776 0.46240553 440 41175540 611 19 92 3727
-3.6188397 -2.0002778 0.48317453 458 41175540 794 20 109 4163
-3.5209603 -2.1172116 0.44008705 693 41175540 1184 21 77 4132
-3.2593279 -2.1244199 0.37934664 317 41175540 485 22 77 3909
-2.9869518 -2.1061406 0.32226226 422 41175540 568 23 110 3669
-3.5772572 -1.9763968 0.32724637 181 41175540 305 24 58 4100
-3.3524833 -2.0147088 0.27576795 299 41175540 460 25 70 3921
-3.0890083 -2.0132527 0.22467673 575 41175540 785 26 92 3694
-3.0889115 -2.1752906 0.19449228 315 41175540 451 27 95 3783
-3.6160283 -1.9955117 0.17952964 293 41175540 501 28 74 4134
-3.3355906 -2.0029724 0.13185732 331 41175540 501 29 42 3893
-3.252408 -2.1153834 0.095701598 294 41175540 442 30 29 3881
-2.9945099 -2.1071692 0.054708313 583 41175540 782 31 84 3662
-3.6457253 -2.0116508 0.029069968 224 41175540 389 32 97 4164
-3.4248364 -2.0548556 -0.010107715 352 41175540 562 33 79 3994
-3.3858745 -2.201602 -0.048216648 363 41175540 593 34 75 4039
-3.0658631 -2.1544199 -0.080388799 313 41175540 440 35 85 3748
-4.0557551 -2.2353139 -0.13752455 425 41175540 912 36 139 4633
-3.7083313 -2.2212534 -0.16908352 482 41175540 903 37 82 4326
-3.3721428 -2.1906641 -0.19575679 478 41175540 775 38 178 4026
-3.0850437 -2.1679788 -0.21932785 489 41175540 698 39 64 3777
-4.0346513 -2.219553 -0.30561295 397 41175540 846 40 79 4615
-3.6844523 -2.2046788 -0.32533145 480 41175540 890 41 81 4306
-3.4096358 -2.2136669 -0.34708208 281 41175540 467 42 133 4080
-3.0987916 -2.1751363 -0.3592816 512 41175540 740 43 56 3803
-4.0787129 -2.2419379 -0.48047894 24 41175540 53 44 97 4679
-3.6880183 -2.2048028 -0.48409158 307 41175540 573 45 47 4324
-3.3846016 -2.1948955 -0.49295369 429 41175540 709 46 109 4064
-3.1091809 -2.1812952 -0.50150424 441 41175540 647 47 121 3831
-0 -0 -0 2 41175540 0 48 64 0
-3.7612226 -2.2463391 -0.65731907 53 41175540 103 49 49 4430
-3.3773007 -2.18765 -0.64315981 432 41175540 718 50 58 4075
-3.0828762 -2.1615562 -0.63899285 483 41175540 705 51 59 3819
-0 -0 -0 3 41175540 0 52 71 0
-0 -0 -0 3 41175540 0 53 57 0
-3.3904414 -2.1946499 -0.79881698 264 41175540 448 54 61 4117
-2.9771178 -2.0874813 -0.75696015 279 41175540 385 55 136 3714
-0 -0 -0 5 41175540 0 56 90 0
-0 -0 -0 4 41175540 0 57 54 0
-2.9337051 -1.898203 -0.82793832 126 41175540 162 58 157 3591
-2.2947364 -1.6087136 -0.69353837 320 41175540 267 59 68 2887
-0 -0 -0 3 41175540 0 60 27 0
-0 -0 -0 0 41175540 0 61 18 0
-3.2156067 -2.0797269 -1.061738 173 41175540 274 62 65 3974
-2.250231 -1.5789196 -0.79296547 234 41175540 191 63 36 2861
-2.5083749 -1.3637863 0.89119256 499 41273460 447 0 84 2991
-2.5707512 -1.527288 0.89750493 588 41273460 573 1 86 3122
-2.7898924 -1.8025579 0.96179509 223 41273460 266 2 40 3458
-3.0215564 -2.1176524 1.0306827 464 41273460 680 3 50 3831
-2.6581979 -1.4469877 0.81757969 594 41273460 584 4 91 3135
-2.701062 -1.6031117 0.81505996 533 41273460 561 5 42 3245
-3.2560332 -2.1019611 0.96542442 672 41273460 1072 6 91 3994
-3.0964622 -2.1654794 0.90324265 287 41273460 434 7 65 3885
-2.7907062 -1.5198132 0.73228985 332 41273460 353 8 81 3261
-3.2738864 -1.9447901 0.83765185 482 41273460 733 9 96 3899
-3.3204679 -2.1410134 0.82941252 688 41273460 1121 10 56 4037
-3.1276922 -2.1832578 0.76356202 309 41273460 467 11 44 3890
-3.9903555 -2.1739526 0.8718518 587 41273460 1257 12 132 4627
-3.3142166 -1.9670261 0.69976294 553 41273460 849 13 67 3917
-3.3492858 -2.1586847 0.68426281 473 41273460 773 14 101 4043
-3.0899673 -2.1558015 0.61164749 275 41273460 400 15 52 3817
-4.1173234 -2.243032 0.72249174 470 41273460 1057 16 52 4744
-3.4577615 -2.0511611 0.58006048 694 41273460 1146 17 88 4062
-3.3415971 -2.151171 0.53506511 334 41273460 538 18 63 4010
-3.1515195 -2.1958842 0.48027149 452 41273460 678 19 76 3871
-3.7566445 -2.0464563 0.49988776 411 41273460 763 20 87 4307
-3.5236225 -2.0894818 0.43880901 678 41273460 1151 21 95 4120
-3.3325744 -2.143142 0.38633382 137 41273460 218 22 64 3981
-3.1568003 -2.1970272 0.33912638 399 41273460 595 23 107 3861
-3.5998218 -1.96013 0.32820415 227 41273460 383 24 56 4112
-3.3853776 -2.0063059 0.27745587 270 41273460 421 25 83 3945
-3.1416016 -2.0201743 0.22759618 425 41273460 595 26 99 3742
-3.131722 -2.1768162 0.19634312 456 41273460 665 27 100 3819
-3.5755455 -1.9446467 0.17692399 464 41273460 771 28 71 4074
-3.554208 -2.1046853 0.13998622 208 41273460 356 29 59 4133
-3.2451336 -2.0824292 0.095109776 571 41273460 849 30 46 3857
-3.0862219 -2.1435127 0.056142502 277 41273460 392 31 69 3758
-3.6790836 -2.0007086 0.02923752 250 41273460 439 32 77 4188
-3.530329 -2.0887976 -0.010381034 277 41273460 467 33 81 4102
-3.2781258 -2.103035 -0.046497609 385 41273460 584 34 94 3895
-3.1085992 -2.15608 -0.081160948 357 41273460 512 35 60 3784
-4.1220956 -2.239012 -0.13930556 447 41273460 985 36 112 4693
-3.7425396 -2.2106545 -0.17002158 468 41273460 886 37 71 4350
-3.4561579 -2.2152059 -0.19984114 305 41273460 515 38 130 4110
-3.1475062 -2.1831467 -0.22281201 465 41273460 685 39 66 3837
-4.1113515 -2.228996 -0.31038091 415 41273460 912 40 94 4687
-3.7494373 -2.2124345 -0.32986465 428 41273460 816 41 98 4366
-3.4533584 -2.2120514 -0.35014454 406 41273460 687 42 132 4116
-3.1415393 -2.1764915 -0.36268264 502 41273460 741 43 61 3839
-4.1973476 -2.2737241 -0.49280152 13 41273460 31 44 81 4799
-3.7322943 -2.2002995 -0.48812193 244 41273460 465 45 63 4360
-3.4782734 -2.2254431 -0.50459832 350 41273460 607 46 70 4160
-3.1322875 -2.1689491 -0.50307512 475 41273460 701 47 116 3843
-0 -0 -0 4 41273460 0 48 69 0
-0 -0 -0 4 41273460 0 49 48 0
-3.4405842 -2.198791 -0.65262967 333 41273460 569 50 51 4135
-3.1544521 -2.1829941 -0.65103984 473 41273460 717 51 80 3891
-0 -0 -0 2 41273460 0 52 65 0
-0 -0 -0 3 41273460 0 53 76 0
-3.4435289 -2.1991496 -0.80813032 229 41273460 398 54 76 4165
-2.4585526 -1.70147 -0.6224438 286 41273460 267 55 59 3054
-0 -0 -0 4 41273460 0 56 92 0
-0 -0 -0 3 41273460 0 57 56 0
-3.4177256 -2.1817472 -0.96074051 133 41273460 230 58 55 4167
-2.2758267 -1.5747188 -0.68489015 414 41273460 337 59 66 2851
-0 -0 -0 3 41273460 0 60 15 0
-0 -0 -0 2 41273460 0 61 33 0
-3.2575519 -2.078618 -1.0713562 139 41273460 224 62 58 4010
-2.980257 -2.0639837 -1.0457388 205 41273460 292 63 129 3773
-2.405628 -1.2888628 0.85186213 532 41372220 434 0 54 2859
-2.550323 -1.4940563 0.88715571 593 41372220 565 1 80 3086
-2.7717412 -1.7668184 0.95178217 397 41372220 464 2 38 3422
-2.9489477 -2.0398977 1.0016266 192 41372220 265 3 57 3723
-2.534313 -1.3594599 0.7768963 511 41372220 454 4 78 2979
-2.6707489 -1.5630406 0.80300367 522 41372220 533 5 45 3197
-3.2492266 -2.0694327 0.95962322 719 41372220 1134 6 83 3970
-3.0808754 -2.1265492 0.89487284 478 41372220 709 7 66 3849
-2.8102827 -1.5081908 0.73498458 334 41372220 358 8 86 3273
-3.3363209 -1.9542831 0.85054207 534 41372220 837 9 91 3959
-3.3335423 -2.120599 0.82941252 587 41372220 957 10 70 4037
-3.1700983 -2.1840525 0.77062839 227 41372220 349 11 33 3926
-4.0866857 -2.1940229 0.88994074 571 41372220 1274 12 118 4723
-3.3771741 -1.976472 0.71048182 468 41372220 741 13 61 3977
-3.3924084 -2.1571312 0.69035566 600 41372220 998 14 90 4079
-3.0250909 -2.0830593 0.59626418 368 41372220 509 15 46 3721
-4.141458 -2.2233357 0.72431922 441 41372220 997 16 47 4756
-3.3882663 -1.9819317 0.56635147 627 41372220 987 17 94 3966
-3.3547335 -2.1306267 0.53506511 524 41372220 843 18 61 4010
-3.2041786 -2.2034938 0.48622677 509 41372220 782 19 77 3919
-4.189187 -2.2488649 0.5555985 400 41372220 917 20 91 4787
-3.5157766 -2.0557764 0.43625283 675 41372220 1133 21 67 4096
-3.3557465 -2.1290517 0.38749838 196 41372220 312 22 56 3993
-3.1702216 -2.1776161 0.33912638 445 41372220 663 23 123 3861
-3.6644826 -1.9662836 0.33299315 284 41372220 495 24 67 4172
-3.4286292 -2.0036144 0.27998778 261 41372220 414 25 67 3981
-3.2348516 -2.0521915 0.23343511 292 41372220 430 26 105 3838
-3.1054907 -2.1304417 0.19387533 456 41372220 649 27 78 3771
-3.6191103 -1.9396605 0.17848738 428 41372220 724 28 65 4110
-3.6913369 -2.1554067 0.14486355 567 41372220 1036 29 52 4277
-3.3085299 -2.0945625 0.096589319 296 41372220 454 30 48 3917
-3.1290064 -2.1448877 0.056680322 260 41372220 375 31 64 3794
-3.6595602 -1.9610931 0.028986195 215 41372220 371 32 78 4152
-3.7296479 -2.1759443 -0.01092767 428 41372220 799 33 76 4318
-3.3011072 -2.0892985 -0.046640866 259 41372220 396 34 87 3907
-3.13167 -2.1437423 -0.081418328 374 41372220 539 35 76 3796
-4.2097821 -2.2532997 -0.141799 474 41372220 1081 36 127 4777
-3.8182023 -2.2238586 -0.17283572 482 41372220 943 37 65 4422
-3.550729 -2.2452035 -0.20450898 274 41372220 485 38 116 4206
-3.1904986 -2.1840944 -0.22490251 476 41372220 715 39 70 3873
-4.1566339 -2.2206538 -0.31276488 360 41372220 804 40 76 4723
-3.8146544 -2.2194746 -0.33439782 427 41372220 837 41 86 4426
-3.4870815 -2.2035949 -0.35218623 462 41372220 791 42 156 4140
-3.1942804 -2.1841459 -0.36721733 519 41372220 785 43 63 3887
-0 -0 -0 6 41372220 0 44 71 0
-3.8591275 -2.2432771 -0.50289994 174 41372220 352 45 66 4492
-3.5220809 -2.2231324 -0.50896496 370 41372220 652 46 105 4196
-3.2044697 -2.1899643 -0.51250041 478 41372220 733 47 96 3915
-0 -0 -0 2 41372220 0 48 71 0
-0 -0 -0 3 41372220 0 49 41 0
-3.5041296 -2.2092366 -0.66209948 170 41372220 298 50 44 4195
-3.1970959 -2.1836154 -0.65706336 484 41372220 746 51 54 3927
-0 -0 -0 3 41372220 0 52 76 0
-0 -0 -0 4 41372220 0 53 62 0
-3.5167179 -2.2156296 -0.82210046 159 41372220 286 54 69 4237
-2.5368545 -1.7327356 -0.63956404 249 41372220 245 55 123 3138
-0 -0 -0 0 41372220 0 56 112 0
-0 -0 -0 4 41372220 0 57 39 0
-3.5594966 -2.2416267 -0.9967078 42 41372220 78 58 52 4323
-2.2854462 -1.560725 -0.68489015 443 41372220 360 59 80 2851
-0 -0 -0 5 41372220 0 60 26 0
-0 -0 -0 2 41372220 0 61 26 0
-3.358321 -2.1140342 -1.1002105 16 41372220 28 62 58 4118
-3.2022786 -2.1887949 -1.1189101 333 41372220 542 63 51 4037
-2.3831007 -1.2580349 0.84113562 544 41468930 434 0 79 2823
-2.5395372 -1.4668822 0.88025624 595 41468930 558 1 97 3062
-2.6947119 -1.6945542 0.92174345 393 41468930 431 2 52 3314
-2.8086848 -1.9174998 0.94997144 142 41468930 177 3 22 3531
-2.4504278 -1.2951632 0.74873084 576 41468930 475 4 86 2871
-2.6601682 -1.5350132 0.79697543 508 41468930 511 5 55 3173
-3.2520037 -2.043262 0.95672256 697 41468930 1092 6 85 3958
-3.1420944 -2.1404595 0.90882248 320 41468930 489 7 75 3909
-2.7884722 -1.4745201 0.72690046 402 41468930 422 8 76 3237
-3.3076544 -1.9103295 0.84022993 648 41468930 992 9 84 3911
-3.3564389 -2.1063476 0.83187795 444 41468930 727 10 56 4049
-3.1153276 -2.1182475 0.7541402 439 41468930 647 11 50 3842
-4.1521573 -2.1964595 0.90124637 521 41468930 1192 12 109 4783
-3.4199173 -1.973416 0.7169131 496 41468930 800 13 63 4013
-3.3855431 -2.1237059 0.68629378 711 41468930 1169 14 91 4055
-3.2337508 -2.1976135 0.63472247 238 41468930 373 15 52 3961
-4.2284079 -2.2367013 0.7371121 547 41468930 1281 16 45 4840
-3.4312294 -1.9789058 0.57149237 481 41468930 771 17 79 4002
-3.4282119 -2.1478877 0.54467231 510 41468930 850 18 61 4082
-3.2373435 -2.1971655 0.48920444 292 41468930 454 19 83 3943
-4.150228 -2.1952536 0.54863465 337 41468930 753 20 117 4727
-3.4869769 -2.0103273 0.43114048 651 41468930 1067 21 77 4048
-3.3484991 -2.0957482 0.3851693 461 41468930 727 22 63 3969
-3.2329953 -2.1916604 0.34439638 461 41468930 709 23 113 3921
-4.1311913 -2.1841693 0.37417829 567 41468930 1247 24 86 4688
-3.4408586 -1.9825391 0.27998778 233 41468930 370 25 73 3981
-3.2067692 -2.006887 0.23051564 462 41468930 664 26 105 3790
-3.1681225 -2.1449399 0.19696006 260 41468930 382 27 75 3831
-3.6415453 -1.923016 0.17900851 407 41468930 692 28 74 4122
-3.6733115 -2.1147652 0.14364421 661 41468930 1190 29 59 4241
-3.4230704 -2.1377676 0.099548399 169 41468930 275 30 31 4037
-3.112294 -2.1054785 0.056142502 533 41468930 753 31 77 3758
-3.7351921 -1.9722186 0.029488843 184 41468930 329 32 77 4224
-3.742929 -2.1530187 -0.01092767 726 41468930 1355 33 67 4318
-3.5276077 -2.2024539 -0.049649183 279 41468930 483 34 88 4159
-3.154706 -2.1312022 -0.081675708 363 41468930 527 35 60 3808
-4.2553577 -2.2442126 -0.14286761 420 41468930 973 36 114 4813
-3.8629704 -2.218302 -0.17424279 471 41468930 937 37 61 4458
-3.5542688 -2.217031 -0.20392549 493 41468930 867 38 154 4194
-3.2435467 -2.1913021 -0.22768985 487 41468930 749 39 82 3921
-4.2761359 -2.2508798 -0.32071149 348 41468930 817 40 95 4843
-3.8385804 -2.2019804 -0.33530447 397 41468930 783 41 74 4438
-3.5309761 -2.2011323 -0.35524869 451 41468930 786 42 135 4176
-3.2274272 -2.1778698 -0.36948469 498 41468930 762 43 76 3911
-0 -0 -0 5 41468930 0 44 71 0
-3.8935113 -2.2314146 -0.50558686 94 41468930 191 45 57 4516
-3.5356555 -2.2014794 -0.50896496 434 41468930 765 46 99 4196
-3.2671623 -2.2035215 -0.52035481 482 41468930 762 47 92 3975
-0 -0 -0 3 41468930 0 48 59 0
-0 -0 -0 4 41468930 0 49 39 0
-3.5276816 -2.1939523 -0.66399348 260 41468930 459 50 49 4207
-3.2398653 -2.183795 -0.66308683 467 41468930 734 51 65 3963
-0 -0 -0 2 41468930 0 52 67 0
-0 -0 -0 3 41468930 0 53 80 0
-3.5502434 -2.2064376 -0.82675713 52 41468930 95 54 71 4261
-3.239095 -2.183358 -0.81321239 324 41468930 516 55 116 3990
-0 -0 -0 4 41468930 0 56 73 0
-0 -0 -0 4 41468930 0 57 47 0
-0 -0 -0 6 41468930 0 58 41 0
-2.2949796 -1.5466723 -0.68489015 428 41468930 348 59 91 2851
-0 -0 -0 2 41468930 0 60 29 0
-0 -0 -0 4 41468930 0 61 17 0
-0 -0 -0 2 41468930 0 62 38 0
-3.20609 -2.162657 -1.115584 322 41468930 521 63 36 4025
-2.4212632 -1.259245 0.85186213 550 41567590 450 0 77 2859
-2.5285151 -1.4398973 0.87335682 578 41567590 534 1 99 3038
-2.5973134 -1.6111519 0.88502949 569 41567590 576 2 53 3182
-2.7724724 -1.8679405 0.93382919 405 41567590 488 3 43 3471
-2.4377782 -1.2694023 0.74247187 580 41567590 470 4 64 2847
-2.6493449 -1.507175 0.79094726 572 41567590 568 5 61 3149
-3.214993 -1.9925985 0.94221944 634 41567590 964 6 95 3898
-3.1745405 -2.1341629 0.91440237 662 41567590 1025 7 61 3933
-2.8493199 -1.4843961 0.74037403 391 41567590 425 8 95 3297
-3.309129 -1.8841991 0.83765185 635 41567590 966 9 108 3899
-3.3892715 -2.0980761 0.83680886 337 41567590 560 10 60 4073
-3.216203 -2.1580987 0.77533937 335 41567590 522 11 33 3950
-4.1551056 -2.1654947 0.89898527 791 41567590 1801 12 103 4771
-3.4832747 -1.9815859 0.72763199 479 41567590 794 13 57 4073
-3.3884528 -2.0966694 0.68426281 668 41567590 1092 14 97 4043
-3.2078245 -2.1513402 0.62703079 447 41567590 684 15 53 3913
-4.231535 -2.2052331 0.73528457 546 41567590 1272 16 46 4828
-3.484606 -1.9812969 0.57834685 462 41567590 758 17 74 4050
-3.4514432 -2.1330645 0.54627347 766 41567590 1284 18 65 4094
-3.2012978 -2.144129 0.48176029 443 41567590 668 19 79 3883
-3.8888052 -2.0265355 0.51242268 159 41567590 311 20 71 4415
-3.4784999 -1.9771019 0.42858431 505 41567590 818 21 80 4024
-3.3714581 -2.0814369 0.38633382 334 41567590 530 22 64 3981
-3.2165761 -2.1518419 0.34123439 281 41567590 424 23 144 3885
-4.1869507 -2.1808832 0.37800944 460 41567590 1033 24 79 4736
-3.494592 -1.985038 0.2833637 231 41567590 375 25 81 4029
-3.2190228 -1.987173 0.23051564 486 41567590 698 26 93 3790
-3.1612947 -2.1121449 0.19572617 467 41567590 677 27 95 3807
-3.8340786 -1.9946991 0.18786773 504 41567590 944 28 70 4326
-3.6757879 -2.0862665 0.14323775 682 41567590 1219 29 33 4229
-3.4054816 -2.0978479 0.098660678 186 41567590 297 30 46 4001
-3.1650712 -2.1129906 0.056859598 329 41567590 477 31 72 3806
-3.800451 -1.9769514 0.029907722 140 41567590 257 32 89 4284
-3.7351925 -2.1181729 -0.010866933 678 41567590 1251 33 100 4294
-3.479753 -2.1430142 -0.048789665 147 41567590 246 34 60 4087
-3.177706 -2.1184602 -0.081933089 394 41567590 574 35 48 3820
-4.3648419 -2.2678313 -0.14607343 322 41567590 780 36 125 4921
-3.9286828 -2.2240939 -0.17658792 472 41567590 963 37 53 4518
-3.6188469 -2.2265851 -0.20684287 512 41567590 926 38 151 4254
-3.2968018 -2.1979401 -0.23047715 486 41567590 766 39 69 3969
-4.3217545 -2.2411358 -0.32309547 320 41567590 762 40 97 4879
-3.9145124 -2.213727 -0.34074429 359 41567590 731 41 90 4510
-3.574971 -2.1982136 -0.35831121 457 41567590 811 42 116 4212
-3.2904468 -2.1911328 -0.37515309 504 41567590 795 43 66 3971
-4.4398589 -2.300415 -0.51621449 11 41567590 28 44 109 5027
-3.8656013 -2.1840193 -0.50021303 21 41567590 41 45 52 4468
-3.569397 -2.1922114 -0.51187617 377 41567590 672 46 81 4220
-3.2905252 -2.1900246 -0.52192575 458 41567590 728 47 96 3987
-0 -0 -0 3 41567590 0 48 61 0
-0 -0 -0 3 41567590 0 49 36 0
-3.5915797 -2.2032461 -0.67346328 159 41567590 289 50 56 4267
-3.2630544 -2.1704266 -0.66509467 413 41567590 653 51 73 3975
-0 -0 -0 3 41567590 0 52 67 0
-0 -0 -0 2 41567590 0 53 68 0
-0 -0 -0 4 41567590 0 54 65 0
-3.3013394 -2.1959751 -0.82544118 284 41567590 465 55 52 4050
-0 -0 -0 3 41567590 0 56 80 0
-0 -0 -0 2 41567590 0 57 47 0
-0 -0 -0 3 41567590 0 58 42 0
-2.3529239 -1.5648148 -0.69930387 336 41567590 285 59 93 2911
-0 -0 -0 2 41567590 0 60 23 0
-0 -0 -0 3 41567590 0 61 24 0
-0 -0 -0 2 41567590 0 62 33 0
-3.2097013 -2.1365552 -1.1122581 183 41567590 294 63 56 4013
-2.3983593 -1.2286959 0.84113562 564 41665630 450 0 90 2823
-2.5974362 -1.4581125 0.89405519 660 41665630 639 1 82 3110
-2.6268146 -1.6072162 0.89170474 601 41665630 617 2 49 3206
-2.6780124 -1.7805054 0.89831626 542 41665630 604 3 46 3339
-2.4558291 -1.2597078 0.74560142 596 41665630 487 4 75 2859
-2.5977569 -1.4568021 0.77286273 598 41665630 566 5 48 3077
-3.098006 -1.8938802 0.90451127 487 41665630 682 6 141 3742
-3.2459295 -2.1533561 0.93114197 603 41665630 968 7 75 4005
-2.8999887 -1.488241 0.75115293 377 41665630 422 8 85 3345
-3.3206279 -1.8638592 0.83765185 582 41665630 885 9 98 3899
-3.3619876 -2.0527601 0.82694709 359 41665630 581 10 52 4025
-3.2195733 -2.1318276 0.77298391 705 41665630 1093 11 45 3938
-4.1683145 -2.1399586 0.89898527 742 41665630 1689 12 111 4771
-3.7425234 -2.0987785 0.77908248 411 41665630 782 13 93 4361
-3.3911586 -2.0696776 0.68223184 651 41665630 1058 14 108 4031
-3.2604754 -2.1577649 0.63472247 311 41665630 489 15 58 3961
-4.1183753 -2.1142297 0.71335393 320 41665630 703 16 67 4684
-3.5277791 -1.9772995 0.58348769 485 41665630 810 17 86 4086
-3.4441566 -2.0994666 0.54307109 663 41665630 1099 18 75 4070
-3.2938635 -2.1769688 0.49367091 244 41665630 387 19 80 3979
-3.9223731 -2.0135224 0.51520818 249 41665630 491 20 77 4439
-3.553021 -1.9907141 0.43625283 468 41665630 786 21 82 4096
-3.5473814 -2.1600971 0.40496638 587 41665630 1022 22 49 4173
-3.0900555 -2.0398674 0.3264783 413 41665630 571 23 112 3717
-4.1470408 -2.1278479 0.37322047 398 41665630 871 24 83 4676
-3.4753728 -1.9460135 0.28083178 386 41665630 616 25 75 3993
-3.2516162 -1.9798423 0.23197538 406 41665630 590 26 113 3814
-3.2442327 -2.1388829 0.2000448 296 41665630 448 27 90 3891
-3.8889225 -1.9930072 0.18995225 537 41665630 1028 28 81 4374
-3.6675875 -2.0519614 0.14242488 676 41665630 1195 29 36 4205
-3.37728 -2.0519958 0.097477041 341 41665630 532 30 36 3953
-3.3082352 -2.1793396 0.059190154 364 41665630 572 31 71 3962
-3.8125098 -1.953595 0.029907722 150 41665630 276 32 76 4284
-3.7481189 -2.0952144 -0.010866933 701 41665630 1293 33 89 4294
-3.4415596 -2.0904756 -0.0480734 304 41665630 494 34 75 4027
-3.2106905 -2.1121092 -0.082447849 399 41665630 589 35 55 3844
-4.44274 -2.2737951 -0.14821066 343 41665630 855 36 118 4993
-3.9736681 -2.2174759 -0.177995 470 41665630 976 37 59 4554
-3.6426876 -2.2105567 -0.20742635 495 41665630 902 38 173 4266
-3.3202343 -2.1842539 -0.23117399 489 41665630 776 39 77 3981
-4.3994031 -2.2472568 -0.32786343 339 41665630 831 40 94 4951
-4.0116343 -2.2362757 -0.3479974 335 41665630 711 41 80 4606
-3.6497316 -2.2134371 -0.36443618 478 41665630 877 42 116 4284
-3.3138134 -2.1774619 -0.37628677 483 41665630 766 43 51 3983
-0 -0 -0 8 41665630 0 44 86 0
-0 -0 -0 3 41665630 0 45 56 0
-3.6235328 -2.1949542 -0.51769841 311 41665630 567 46 96 4268
-3.3536212 -2.2024462 -0.52978015 420 41665630 688 47 132 4047
-0 -0 -0 3 41665630 0 48 77 0
-0 -0 -0 3 41665630 0 49 41 0
-3.6861379 -2.2302396 -0.68861508 57 41665630 108 50 50 4363
-3.3356552 -2.1893141 -0.67714173 389 41665630 638 51 63 4047
-0 -0 -0 2 41665630 0 52 69 0
-0 -0 -0 4 41665630 0 53 76 0
-0 -0 -0 2 41665630 0 54 61 0
-3.3442159 -2.1950164 -0.83277839 321 41665630 535 55 53 4086
-0 -0 -0 4 41665630 0 56 94 0
-0 -0 -0 4 41665630 0 57 38 0
-0 -0 -0 3 41665630 0 58 45 0
-2.3916976 -1.5695208 -0.70795202 306 41665630 266 59 82 2947
-0 -0 -0 2 41665630 0 60 17 0
-0 -0 -0 2 41665630 0 61 25 0
-0 -0 -0 3 41665630 0 62 42 0
-3.2323875 -2.1231506 -1.115584 126 41665630 204 63 35 4025
-2.3956263 -1.2087964 0.83756012 554 41762850 438 0 74 2811
-2.5661075 -1.4198891 0.88025624 611 41762850 573 1 87 3062
-2.6267581 -1.5851129 0.88836718 510 41762850 520 2 50 3194
-2.7951863 -1.8337774 0.93382919 193 41762850 232 3 43 3471
-2.4531722 -1.2393913 0.74247187 557 41762850 452 4 87 2847
-2.6371436 -1.4576925 0.781905 451 41762850 437 5 46 3113
-2.7306366 -1.6463683 0.79428762 419 41762850 453 6 81 3286
-3.2590811 -2.133399 0.93114197 794 41762850 1274 7 67 4005
-3.2534573 -1.6444955 0.84007859 484 41762850 677 8 132 3741
-3.342257 -1.8491228 0.84022993 110 41762850 169 9 59 3911
-3.2537918 -1.9593917 0.79736191 596 41762850 898 10 70 3881
-3.2522943 -2.1249042 0.77769476 595 41762850 933 11 51 3962
-4.1813669 -2.114342 0.89898527 728 41762850 1657 12 138 4771
-4.0756664 -2.2528422 0.84553945 417 41762850 933 13 56 4733
-3.393661 -2.0427315 0.68020087 639 41762850 1032 14 90 4019
-3.3629129 -2.1960051 0.65202874 505 41762850 835 15 50 4069
-4.0042634 -2.0247004 0.69142342 363 41762850 747 16 48 4540
-3.6853895 -2.0360234 0.60747838 420 41762850 760 17 96 4254
-3.4671667 -2.0844216 0.54467231 678 41762850 1130 18 71 4082
-3.2971854 -2.150213 0.49218211 393 41762850 619 19 75 3967
-4.3494811 -2.1991599 0.56952614 649 41762850 1564 20 76 4907
-3.6069481 -1.9919484 0.44136515 449 41762850 771 21 101 4144
-3.5503297 -2.1321414 0.40380183 726 41762850 1258 22 68 4161
-3.1826432 -2.0730624 0.33491033 372 41762850 541 23 127 3813
-3.9678538 -2.0052471 0.35598019 470 41762850 936 24 71 4460
-3.6025286 -1.9882771 0.29011545 397 41762850 676 25 88 4125
-3.3663893 -2.0215166 0.23927402 252 41762850 390 26 114 3934
-3.186976 -2.0731921 0.19572617 280 41762850 406 27 107 3807
-3.9866986 -2.0123255 0.1941213 553 41762850 1104 28 57 4470
-3.6170964 -1.9946703 0.13998622 610 41762850 1043 29 60 4133
-3.3898075 -2.0312345 0.097477041 614 41762850 959 30 48 3953
-3.2813044 -2.1328433 0.058473062 321 41762850 492 31 72 3914
-3.8887012 -1.9626049 0.030410374 151 41762850 287 32 64 4356
-3.7503941 -2.066386 -0.010836563 681 41762850 1249 33 77 4282
-3.3925607 -2.0323212 -0.047213875 575 41762850 900 34 89 3955
-3.2135267 -2.0858371 -0.082190469 429 41762850 630 35 68 3832
-4.4887409 -2.2626898 -0.14927928 426 41762850 1077 36 124 5029
-4.0292253 -2.2161672 -0.1798711 459 41762850 973 37 69 4602
-3.7178903 -2.225095 -0.21092722 463 41762850 872 38 180 4338
-3.3737679 -2.1899304 -0.23396133 465 41762850 756 39 65 4029
-4.4772868 -2.2525077 -0.33263138 315 41762850 795 40 96 5023
-4.0777154 -2.2404282 -0.35253057 309 41762850 673 41 85 4666
-3.6940279 -2.2094128 -0.36749864 452 41762850 843 42 138 4320
-3.4173269 -2.2155776 -0.38648987 346 41762850 580 43 59 4091
-4.4784188 -2.2511187 -0.5174467 10 41762850 26 44 83 5039
-0 -0 -0 4 41762850 0 45 61 0
-3.6982868 -2.2093318 -0.52643186 202 41762850 381 46 94 4340
-3.3970237 -2.2012355 -0.53449279 464 41762850 774 47 110 4083
-0 -0 -0 3 41762850 0 48 55 0
-0 -0 -0 4 41762850 0 49 40 0
-0 -0 -0 0 41762850 0 50 51 0
-3.3788166 -2.1880982 -0.68316513 381 41762850 636 51 61 4083
-0 -0 -0 2 41762850 0 52 75 0
-0 -0 -0 3 41762850 0 53 59 0
-0 -0 -0 2 41762850 0 54 58 0
-3.3872039 -2.1936135 -0.84011567 201 41762850 341 55 51 4122
-0 -0 -0 3 41762850 0 56 92 0
-0 -0 -0 2 41762850 0 57 59 0
-0 -0 -0 3 41762850 0 58 41 0
-2.479506 -1.6054652 -0.73101401 181 41762850 168 59 90 3043
-0 -0 -0 3 41762850 0 60 28 0
-0 -0 -0 2 41762850 0 61 26 0
-0 -0 -0 3 41762850 0 62 43 0
-3.2550299 -2.1095476 -1.1189101 109 41762850 177 63 48 4037
-2.39274 -1.1889769 0.83398461 524 41861450 411 0 60 2799
-2.5142283 -1.3711007 0.85955793 505 41861450 452 1 101 2990
-2.5770035 -1.5335976 0.86834133 565 41861450 551 2 67 3122
-2.8743014 -1.8605543 0.95642829 124 41861450 156 3 40 3555
-2.4607308 -1.2243156 0.74247187 566 41861450 459 4 85 2847
-2.707238 -1.4748237 0.79998952 501 41861450 508 5 57 3185
-2.7306786 -1.6236314 0.79138696 425 41861450 456 6 84 3274
-3.2426977 -2.0943649 0.92277217 761 41861450 1199 7 84 3969
-2.8656919 -1.426487 0.7376793 403 41861450 435 8 92 3285
-2.9934053 -1.63221 0.74999809 46 41861450 55 9 57 3491
-3.2556555 -1.9333934 0.79489648 556 41861450 832 10 57 3869
-3.3147202 -2.136785 0.7894721 678 41861450 1096 11 34 4022
-4.1415143 -2.0623791 0.8876797 460 41861450 1021 12 102 4711
-4.1101494 -2.2390888 0.84982699 394 41861450 891 13 50 4757
-3.3451109 -1.9856485 0.66801518 611 41861450 952 14 90 3947
-3.3066235 -2.1304221 0.63856828 609 41861450 966 15 57 3985
-4.1970935 -2.0899646 0.72249174 415 41861450 935 16 64 4744
-4.1046243 -2.2348711 0.67430955 421 41861450 940 17 70 4722
-3.4594312 -2.0509782 0.54146987 645 41861450 1062 18 91 4058
-3.2602491 -2.0977263 0.48473796 363 41861450 555 19 83 3907
-4.3415546 -2.1618054 0.56674069 758 41861450 1808 20 77 4883
-3.6610229 -1.9925952 0.4464775 412 41861450 724 21 85 4192
-3.5427926 -2.0981445 0.40147275 707 41861450 1211 22 63 4137
-3.1550791 -2.0276446 0.33069432 404 41861450 573 23 123 3765
-4.0550442 -2.0181708 0.36268476 441 41861450 910 24 51 4544
-3.6462069 -1.9832941 0.29264739 483 41861450 837 25 83 4161
-3.5539355 -2.1045763 0.25168172 331 41861450 567 26 107 4138
-3.2601502 -2.0924368 0.19942784 322 41861450 485 27 90 3879
-4.0633841 -2.0198443 0.1972481 501 41861450 1034 28 86 4542
-3.6819544 -2.0010731 0.14201844 432 41861450 759 29 42 4193
-3.4331908 -2.0287056 0.098364763 415 41861450 660 30 44 3989
-3.1832278 -2.0414195 0.05650105 651 41861450 932 31 64 3782
-3.9221613 -1.9493887 0.03057792 169 41861450 325 32 86 4380
-3.6997294 -2.0089772 -0.010654351 676 41861450 1199 33 71 4210
-3.4462914 -2.0358789 -0.047786891 382 41861450 613 34 86 4003
-3.4081209 -2.1825397 -0.086823337 340 41861450 558 35 75 4048
-4.5884905 -2.2777715 -0.15212892 402 41861450 1055 36 140 5125
-4.1165395 -2.2314022 -0.18315427 438 41861450 963 37 59 4686
-3.7727621 -2.2266083 -0.21326113 485 41861450 932 38 147 4386
-3.4880245 -2.2337952 -0.24092965 174 41861450 300 39 83 4149
-4.5661273 -2.262202 -0.33819401 326 41861450 851 40 88 5107
-4.122952 -2.2324581 -0.35525045 270 41861450 597 41 111 4702
-3.7487094 -2.2110016 -0.37158194 411 41861450 783 42 153 4368
-3.4409208 -2.201005 -0.38762355 409 41861450 688 43 53 4103
-4.5135427 -2.2341878 -0.51991123 12 41861450 31 44 86 5063
-0 -0 -0 2 41861450 0 45 45 0
-3.7836142 -2.2289193 -0.53662086 113 41861450 222 46 82 4424
-3.4305131 -2.1931667 -0.53763455 273 41861450 461 47 103 4107
-0 -0 -0 3 41861450 0 48 82 0
-0 -0 -0 3 41861450 0 49 30 0
-0 -0 -0 3 41861450 0 50 37 0
-3.4021487 -2.1736948 -0.68517303 260 41861450 437 51 73 4095
-0 -0 -0 2 41861450 0 52 60 0
-0 -0 -0 2 41861450 0 53 59 0
-0 -0 -0 3 41861450 0 54 48 0
-3.4500992 -2.204416 -0.85234445 162 41861450 284 55 70 4182
-0 -0 -0 4 41861450 0 56 91 0
-0 -0 -0 3 41861450 0 57 55 0
-0 -0 -0 2 41861450 0 58 48 0
-3.470964 -2.2173209 -1.0192876 61 41861450 110 59 83 4243
-0 -0 -0 2 41861450 0 60 19 0
-0 -0 -0 0 41861450 0 61 19 0
-0 -0 -0 3 41861450 0 62 49 0
-3.2484846 -2.0771132 -1.1122581 44 41861450 70 63 49 4013
-2.4102798 -1.1793073 0.83756012 530 41957660 419 0 63 2811
-2.4011045 -1.2903591 0.81816113 565 41957660 458 1 75 2846
-2.5963061 -1.5235902 0.87167895 577 41957660 566 2 42 3134
-3.1876233 -2.0357249 1.0565103 394 41957660 608 3 63 3927
-2.4786003 -1.2142906 0.74560142 580 41957660 474 4 80 2859
-2.7060025 -1.4526907 0.79697543 541 41957660 544 5 40 3173
-2.7506344 -1.6127352 0.79428762 421 41957660 455 6 83 3286
-3.2456448 -2.0681567 0.91998225 731 41957660 1145 7 87 3957
-2.7798901 -1.3625573 0.71342683 528 41957660 533 8 99 3177
-2.8691547 -1.5416968 0.71648347 134 41957660 149 9 54 3335
-3.338397 -1.9549221 0.81215447 475 41957660 742 10 52 3953
-3.3277688 -2.1164062 0.7894721 745 41957660 1206 11 61 4022
-4.0482764 -1.985043 0.86506838 486 41957660 1025 12 107 4591
-4.1862268 -2.2473345 0.86268955 509 41957660 1188 13 59 4829
-3.3674383 -1.9710603 0.67004609 500 41957660 784 14 77 3959
-3.3296297 -2.116447 0.64049125 616 41957660 985 15 63 3997
-4.2630825 -2.0902791 0.73162949 717 41957660 1656 16 75 4804
-4.1810546 -2.243336 0.68459129 412 41957660 948 17 70 4794
-3.4411497 -2.0117068 0.53666633 627 41957660 1015 18 67 4022
-3.383641 -2.1478779 0.50111502 465 41957660 759 19 81 4039
-4.3440356 -2.1298783 0.56534791 721 41957660 1712 20 76 4871
-4.1778917 -2.2407939 0.50782555 406 41957660 923 21 100 4768
-3.5349729 -2.0643215 0.39914373 673 41957660 1139 22 93 4113
-3.429944 -2.1746676 0.35809845 392 41957660 652 23 104 4077
-4.1103158 -2.014307 0.3665159 453 41957660 956 24 80 4592
-3.7427096 -2.0061243 0.29939914 463 41957660 839 25 87 4257
-3.5254083 -2.0585711 0.24876226 234 41957660 392 26 95 4090
-3.4450538 -2.1813827 0.20991594 396 41957660 660 27 96 4083
-4.4848862 -2.1951518 0.21705107 382 41957660 955 28 70 4998
-3.6835911 -1.9727813 0.14161199 274 41957660 478 29 41 4181
-3.5595918 -2.0740354 0.10161976 216 41957660 366 30 42 4121
-3.3173702 -2.0988312 0.05865233 329 41957660 508 31 82 3926
-3.9448271 -1.9305609 0.030661697 184 41957660 356 32 74 4392
-3.7225671 -1.9918998 -0.01068472 517 41957660 923 33 64 4222
-3.5209289 -2.0509317 -0.048646409 189 41957660 314 34 74 4075
-3.4924467 -2.2064416 -0.088624999 449 41957660 767 35 91 4132
-4.6347089 -2.2653759 -0.15319753 406 41957660 1082 36 99 5161
-4.1936131 -2.2399981 -0.18596843 443 41957660 1004 37 58 4758
-3.8174314 -2.2215028 -0.21501157 470 41957660 918 38 160 4422
-3.5219207 -2.2251487 -0.24232331 423 41957660 738 39 62 4173
-4.6552529 -2.2708893 -0.34375665 314 41957660 847 40 87 5191
-4.1682439 -2.2240167 -0.35797039 221 41957660 496 41 103 4738
-3.8242197 -2.2240238 -0.37770694 370 41957660 729 42 134 4440
-3.4947727 -2.2053518 -0.39215824 471 41957660 812 43 61 4151
-0 -0 -0 7 41957660 0 44 91 0
-0 -0 -0 4 41957660 0 45 40 0
-3.8590186 -2.2415583 -0.54535431 46 41957660 93 46 97 4496
-3.4740932 -2.1911154 -0.54234719 350 41957660 601 47 119 4143
-0 -0 -0 2 41957660 0 48 59 0
-0 -0 -0 4 41957660 0 49 45 0
-0 -0 -0 2 41957660 0 50 35 0
-3.5054991 -2.2095551 -0.70324349 209 41957660 370 51 62 4203
-0 -0 -0 4 41957660 0 52 92 0
-0 -0 -0 3 41957660 0 53 72 0
-0 -0 -0 3 41957660 0 54 51 0
-3.5331297 -2.2270572 -0.8694647 69 41957660 126 55 63 4266
-0 -0 -0 3 41957660 0 56 81 0
-0 -0 -0 0 41957660 0 57 51 0
-0 -0 -0 3 41957660 0 58 27 0
-0 -0 -0 8 41957660 0 59 56 0
-0 -0 -0 3 41957660 0 60 29 0
