# .PCD v0.7 - Point Cloud Data file format
VERSION 0.7
FIELDS x y z intensity t reflectivity ring noise range
SIZE 4 4 4 4 4 2 1 2 4
TYPE F F F F U U U U U
COUNT 1 1 1 1 1 1 1 1 1
WIDTH 795
HEIGHT 1
VIEWPOINT 0 0 0 1 0 0 0
POINTS 795
DATA ascii
13.894728 4.6704574 -1.2515371 507 95270670 10984 42 173 14712
12.921584 4.8703251 -1.3104378 599 95270670 11531 43 82 13871
17.065256 4.3759384 -1.8187138 72 95270670 2265 44 93 17711
16.014179 4.7308874 -1.8812846 206 95270670 5828 45 185 16804
14.405609 4.8337874 -1.8568246 493 95270670 11552 46 120 15308
13.329303 5.0202804 -1.8807391 576 95270670 11883 47 149 14367
17.888273 4.5710115 -2.5911989 284 95270670 9872 48 115 18644
16.2332 4.7878904 -2.5393586 290 95270670 8501 49 88 17114
14.939193 5.0041294 -2.5181878 454 95270670 11565 50 80 15955
13.832642 5.2054453 -2.5082853 409 95270670 9194 51 105 14991
18.70993 4.7632332 -3.4411387 250 95270670 9619 52 102 19611
16.90707 4.977344 -3.3120277 369 95270670 11870 53 104 17933
15.417786 5.1590557 -3.2156408 160 95270670 4406 54 68 16573
14.343329 5.3979111 -3.1904829 461 95270670 11304 55 81 15654
19.394741 4.9260421 -4.3410578 31 95270670 1300 56 114 20476
17.713573 5.2046971 -4.1860795 307 95270670 11013 57 79 18931
16.248222 5.4334655 -4.0594568 303 95270670 9404 58 75 17607
14.899153 5.6056032 -3.9394996 380 95270670 10226 59 84 16399
19.405226 4.9045568 -5.1364827 103 95270670 4380 60 48 20664
18.596422 5.4471803 -5.1676216 293 95270670 11804 61 60 20055
16.96863 5.6707501 -4.9602985 281 95270670 9699 62 70 18566
15.563188 5.8628802 -4.7974272 308 95270670 9241 63 63 17309
11.422756 2.8731325 3.6765046 399 95368210 6078 0 92 12339
11.651041 3.4071269 3.6434906 65 95368210 1049 1 79 12674
10.323402 3.4446609 3.1512837 224 95368210 2869 2 56 11330
9.7170992 3.6544621 2.8999553 349 95368210 4060 3 67 10779
11.427148 2.8803878 3.1834755 87 95368210 1298 4 100 12207
11.979551 3.4975204 3.2383878 75 95368210 1239 5 56 12893
10.625276 3.5408549 2.789917 417 95368210 5555 6 115 11542
10.095025 3.7849345 2.5772059 59 95368210 730 7 67 11085
12.287888 3.0998595 2.9204018 20 95368210 342 8 90 13005
12.294071 3.5944703 2.8175952 256 95368210 4410 9 74 13115
11.003409 3.6602538 2.4344091 176 95368210 2478 10 63 11849
10.262593 3.8375497 2.1933272 269 95368210 3365 11 58 11174
11.753203 2.9669387 2.3257546 124 95368210 1887 12 133 12343
11.599193 3.3864715 2.1939721 146 95368210 2208 13 71 12281
11.278173 3.7492487 2.0409412 139 95368210 2021 14 113 12059
10.541789 3.9390149 1.8269304 542 95368210 7049 15 76 11401
13.032581 3.2896585 2.0712242 374 95368210 6926 16 62 13600
10.96283 3.1979814 1.6476458 24 95368210 322 17 97 11538
10.871716 3.6075971 1.5422151 207 95368210 2769 18 85 11558
10.582962 3.9470341 1.4122785 298 95368210 3863 19 98 11383
13.520117 3.4124703 1.6294229 237 95368210 4675 20 95 14039
13.5091 3.9384549 1.5072875 62 95368210 1245 21 98 14152
11.74264 3.8904567 1.2061651 170 95368210 2628 22 220 12429
10.202471 3.7988389 0.95993578 365 95368210 4357 23 147 10929
14.065179 3.5471714 1.1614852 40 95368210 856 24 69 14552
13.995283 4.0762219 1.0277473 186 95368210 3972 25 112 14613
12.311963 4.0786028 0.79032201 529 95368210 8926 26 148 12994
11.483285 4.2679863 0.63067317 155 95368210 2332 27 117 12267
14.538475 3.6589787 0.65167433 75 95368210 1698 28 67 15006
14.457163 4.2052736 0.51025701 249 95368210 5640 29 57 15065
12.740234 4.2071557 0.33094847 511 95368210 9212 30 66 13421
11.880286 4.410584 0.18934277 507 95368210 8146 31 103 12674
15.093161 3.7977393 0.10865634 208 95368210 5041 32 104 15564
14.990322 4.3543997 -0.039504614 261 95368210 6362 33 104 15610
13.167209 4.3463693 -0.16554104 461 95368210 8865 34 119 13867
12.277344 4.548974 -0.28088894 525 95368210 9006 35 96 13096
15.694646 3.9409304 -0.48054928 292 95368210 7641 36 166 16189
15.49654 4.489131 -0.63107312 310 95368210 8088 37 86 16146
13.608773 4.485805 -0.69754767 510 95368210 10503 38 193 14346
12.66845 4.6941371 -0.78585225 555 95368210 10166 39 106 13533
16.326454 4.0859494 -1.1169606 334 95368210 9505 40 105 16867
16.102137 4.6566443 -1.2700469 281 95368210 7942 41 110 16810
14.093472 4.6412115 -1.2668495 477 95368210 10588 42 179 14892
13.074471 4.8365397 -1.3229083 587 95368210 11514 43 91 14003
17.022303 4.2537823 -1.8113202 319 95368210 9921 44 131 17639
16.730293 4.831027 -1.9618918 268 95368210 8237 45 89 17524
14.63868 4.812263 -1.8830249 462 95368210 11130 46 138 15524
13.538397 5.0043955 -1.9058733 540 95368210 11439 47 154 14559
17.766075 4.4238372 -2.5695174 359 95368210 12276 48 98 18488
17.436758 5.0267839 -2.722755 192 95368210 6476 49 76 18350
15.183535 4.9825687 -2.554173 477 95368210 12502 50 73 16183
14.052988 5.1901517 -2.5424185 486 95368210 11226 51 93 15195
18.647076 4.6255875 -3.4242938 347 95368210 13218 52 108 19515
18.184 5.2322364 -3.5558171 175 95368210 6480 53 137 19253
15.829485 5.189033 -3.2948048 336 95368210 9696 54 84 16981
14.585569 5.3871379 -3.2369523 378 95368210 9545 55 66 15882
19.447369 4.8125796 -4.3461461 49 95368210 2057 56 122 20500
18.633793 5.3510962 -4.3957043 105 95368210 4137 57 152 19879
16.447702 5.3881931 -4.1009579 329 95368210 10420 58 75 17787
15.162745 5.5988121 -4.0000372 358 95368210 9930 59 99 16651
9.5481834 2.3510134 -2.5234985 142 95368210 1469 60 59 10152
19.119967 5.4733768 -5.3036728 157 95368210 6656 61 102 20583
17.156963 5.6168966 -5.0051837 44 95368210 1560 62 62 18734
15.815158 5.8472433 -4.8639469 294 95368210 9066 63 70 17549
11.384541 2.7893598 3.658627 475 95467520 7165 0 88 12279
11.726982 3.3513641 3.6607389 163 95467520 2646 1 93 12734
10.442948 3.4134836 3.1813223 133 95467520 1746 2 64 11438
9.847765 3.6347899 2.9322398 409 95467520 4864 3 60 10899
11.489609 2.8212681 3.1959932 156 95467520 2345 4 95 12255
12.145991 3.4653778 3.277571 46 95467520 775 5 53 13049
10.735356 3.5045009 2.813122 422 95467520 5716 6 116 11638
10.216638 3.7591932 2.6023152 82 95467520 1031 7 77 11193
12.136342 2.9825437 2.8799808 16 95467520 266 8 92 12825
12.46239 3.5608249 2.85111 205 95467520 3617 9 70 13271
11.092658 3.6144998 2.4492016 223 95467520 3176 10 64 11921
10.407456 3.8190961 2.2192371 238 95467520 3036 11 51 11306
11.851296 2.9144671 2.3415825 93 95467520 1436 12 116 12427
11.597046 3.308758 2.1896846 186 95467520 2800 13 70 12257
11.435914 3.7239201 2.0653126 40 95467520 597 14 105 12203
10.688089 3.9191134 1.8480824 483 95467520 6427 15 91 11533
12.672462 3.1161735 2.010915 216 95467520 3775 16 58 13204
11.142154 3.1762388 1.6716365 45 95467520 621 17 82 11706
10.871026 3.533469 1.5390128 176 95467520 2344 18 91 11534
10.662891 3.9024863 1.4197227 330 95467520 4322 19 111 11443
13.482931 3.3152189 1.6224591 315 95467520 6161 20 83 13979
13.716614 3.9077978 1.5277369 49 95467520 1012 21 94 14344
12.084373 3.9215548 1.238772 454 95467520 7400 22 101 12765
10.225588 3.736166 0.95993578 361 95467520 4310 23 141 10929
13.970516 3.4322636 1.1519072 111 95467520 2319 24 75 14432
14.112135 4.0164857 1.0344989 144 95467520 3120 25 93 14709
12.473474 4.0473423 0.79908037 544 95467520 9385 26 143 13138
11.610586 4.2344007 0.63622576 210 95467520 3213 27 134 12375
14.549008 3.5668488 0.65115321 54 95467520 1223 28 72 14994
14.632664 4.1591139 0.51554078 194 95467520 4503 29 71 15221
12.868536 4.1621294 0.33361167 502 95467520 9194 30 78 13529
12.053686 4.390995 0.19167332 547 95467520 9005 31 108 12830
15.034595 3.6850612 0.10806991 155 95467520 3715 32 109 15480
15.132197 4.295105 -0.039808299 258 95467520 6385 33 111 15730
13.353472 4.3171721 -0.16754659 495 95467520 9752 34 112 14035
12.440328 4.5227461 -0.28397751 490 95467520 8592 35 96 13240
15.602017 3.8160579 -0.47698721 290 95467520 7479 36 156 16069
15.754546 4.4592752 -0.6404537 270 95467520 7254 37 96 16386
13.795728 4.4537716 -0.70571637 556 95467520 11702 38 171 14514
12.82086 4.6613441 -0.79351741 331 95467520 6184 39 97 13665
16.258154 3.9630098 -1.1106033 313 95467520 8802 40 122 16771
16.326157 4.6130667 -1.2854596 286 95467520 8279 41 116 17014
14.292373 4.6097002 -1.282162 516 95467520 11715 42 147 15072
13.249886 4.8092122 -1.3376461 551 95467520 11051 43 87 14159
16.932104 4.1210279 -1.7989976 325 95467520 9972 44 128 17519
16.885864 4.7638969 -1.9766698 265 95467520 8269 45 87 17656
14.838005 4.7771063 -1.9048585 435 95467520 10725 46 133 15704
13.747789 4.9861312 -1.9310073 477 95467520 10370 47 163 14751
17.700493 4.2923388 -2.556175 300 95467520 10149 48 111 18392
17.684307 4.9808273 -2.7565856 171 95467520 5911 49 86 18578
15.394321 4.9473186 -2.5844765 468 95467520 12559 50 70 16375
14.240293 5.1602559 -2.5705283 475 95467520 11215 51 99 15363
18.537304 4.4777966 -3.3990259 305 95467520 11433 52 150 19371
18.488247 5.1971602 -3.6090076 168 95467520 6421 53 98 19541
16.040361 5.1493793 -3.3320582 391 95467520 11536 54 94 17173
14.761937 5.3495755 -3.2687469 413 95467520 10633 55 72 16038
19.46513 4.6904149 -4.3436017 209 95467520 8774 56 112 20488
19.353619 5.4294887 -4.5575657 182 95467520 7747 57 73 20611
16.758419 5.3763456 -4.170126 324 95467520 10607 58 88 18087
15.393949 5.5770903 -4.0519266 318 95467520 9051 59 100 16867
9.6641569 2.3167696 -2.5503442 58 95467520 605 60 57 10260
19.577515 5.4746127 -5.4211717 153 95467520 6781 61 92 21039
17.532469 5.6209598 -5.1045713 167 95467520 6112 62 66 19106
16.067513 5.8287315 -4.9304662 271 95467520 8587 63 75 17789
11.356873 2.7088225 3.6443253 476 95564380 7126 0 71 12231
11.691975 3.2638943 3.6434906 281 95564380 4517 1 94 12674
11.122367 3.5601773 3.3815804 80 95564380 1189 2 61 12158
9.9242172 3.5939736 2.9483821 411 95564380 4941 3 67 10959
11.405298 2.7264748 3.1678278 243 95564380 3587 4 100 12147
12.077515 3.3658407 3.2534583 33 95564380 546 5 53 12953
11.433224 3.6548407 2.9900601 229 95564380 3500 6 145 12370
10.316356 3.7241747 2.6218448 114 95564380 1452 7 93 11277
11.8701 2.8399963 2.8126128 30 95564380 476 8 78 12525
12.506581 3.4905913 2.8562663 224 95564380 3965 9 82 13295
11.6181 3.7070127 2.5601461 165 95564380 2566 10 90 12461
10.552474 3.7990074 2.2451472 161 95564380 2100 11 52 11438
11.765805 2.8169973 2.3212323 64 95564380 970 12 122 12319
11.594382 3.2311983 2.1853969 171 95564380 2565 13 68 12233
11.17685 3.563858 2.0145388 28 95564380 398 14 107 11903
10.823392 3.8935537 1.8673116 366 95564380 4974 15 79 11653
12.610606 3.0190289 1.9981221 210 95564380 3624 16 58 13120
13.415459 3.7354276 2.0092196 72 95564380 1423 17 127 14070
10.869837 3.4594855 1.5358104 145 95564380 1925 18 76 11510
10.686636 3.8369865 1.4197227 317 95564380 4150 19 127 11443
13.43347 3.2157779 1.6141024 383 95564380 7412 20 87 13907
13.889769 3.8651445 1.5443521 49 95564380 1035 21 87 14500
12.256182 3.8943508 1.2539109 425 95564380 7100 22 89 12921
10.147046 3.6370525 0.95044965 290 95564380 3391 23 160 10821
13.886611 3.3214345 1.1432871 131 95564380 2695 24 75 14324
14.355639 3.9907348 1.0505345 100 95564380 2238 25 81 14937
12.646475 4.0178785 0.8085686 498 95564380 8795 26 153 13294
11.816889 4.2276707 0.64609683 571 95564380 9016 27 120 12567
14.500653 3.4608119 0.64802641 61 95564380 1366 28 74 14922
14.854362 4.1237893 0.52245039 216 95564380 5149 29 66 15425
13.076818 4.1410375 0.33834618 534 95564380 10062 30 61 13721
12.193391 4.3573294 0.19346605 599 95564380 10049 31 92 12950
14.940204 3.5648906 0.10723216 94 95564380 2217 32 117 15360
15.412671 4.2727008 -0.040476412 247 95564380 6325 33 86 15994
13.516987 4.2786083 -0.16926563 435 95564380 8745 34 119 14179
12.580846 4.4866276 -0.28655133 558 95564380 9960 35 108 13360
15.566796 3.706363 -0.47520623 218 95564380 5577 36 162 16009
15.978086 4.4168348 -0.64842707 255 95564380 7026 37 85 16590
13.971367 4.4159985 -0.7133016 495 95564380 10662 38 179 14670
12.928205 4.6107583 -0.79839522 141 95564380 2672 39 73 13749
16.188963 3.841064 -1.1042461 296 95564380 8228 40 124 16675
16.550243 4.5669136 -1.3008724 337 95564380 9991 41 113 17218
14.514215 4.5831213 -1.2995161 499 95564380 11655 42 176 15276
13.436706 4.7839184 -1.3535175 182 95564380 3743 43 76 14327
16.852535 3.9922926 -1.7879074 286 95564380 8671 44 114 17411
17.133205 4.720377 -2.0021956 153 95564380 4902 45 85 17884
15.048805 4.7432637 -1.9281477 511 95564380 12914 46 112 15896
13.912628 4.949533 -1.9498578 526 95564380 11665 47 141 14895
17.564577 4.1454349 -2.5328259 287 95564380 9536 48 101 18224
17.954824 4.9383135 -2.7939773 211 95564380 7464 49 56 18830
15.673062 4.9310045 -2.6261437 391 95564380 10830 50 95 16639
14.461196 5.1401415 -2.6046612 489 95564380 11855 51 91 15567
18.414925 4.3288255 -3.3716526 228 95564380 8420 52 111 19215
18.83823 5.1710315 -3.6710632 172 95564380 6801 53 99 19877
16.329956 5.1320372 -3.3856106 351 95564380 10690 54 102 17449
14.982667 5.3257895 -3.3103247 416 95564380 10980 55 89 16242
19.356535 4.5387645 -4.3130732 215 95564380 8898 56 117 20344
19.330133 5.2951756 -4.5442986 95 95564380 4013 57 113 20551
17.025036 5.346889 -4.2282267 333 95564380 11208 58 85 18339
15.603498 5.5449381 -4.0980501 365 95564380 10629 59 88 17059
20.058193 4.6785526 -5.2856259 138 95564380 6219 60 53 21264
18.906059 5.161984 -5.2263713 76 95564380 3107 61 56 20283
17.886589 5.6136966 -5.197547 265 95564380 10041 62 80 19454
16.320227 5.8073397 -4.9969854 256 95564380 8335 63 64 18029
11.317487 2.6261408 3.6264474 464 95660220 6876 0 92 12171
11.634158 3.1709356 3.6193423 348 95660220 5518 1 105 12590
11.29799 3.5401154 3.4283071 30 95660220 449 2 48 12326
10.011428 3.5562236 2.9677527 456 95660220 5544 3 46 11031
11.387962 2.6485691 3.1584396 313 95660220 4593 4 95 12111
12.0419 3.2764235 3.2383878 23 95660220 376 5 42 12893
11.5999 3.6298251 3.0277684 259 95660220 4066 6 99 12526
10.361016 3.6685958 2.6274247 176 95660220 2252 7 81 11301
11.841745 2.7565048 2.8018339 66 95660220 1033 8 71 12477
12.109385 3.2997799 2.7608781 82 95660220 1352 9 132 12851
11.988136 3.7441912 2.6365743 267 95660220 4405 10 62 12833
10.697634 3.7772815 2.2710574 98 95660220 1305 11 55 11570
11.805824 2.750098 2.3257546 29 95660220 443 12 108 12343
11.602597 3.1568959 2.1832533 136 95660220 2038 13 63 12221
11.288825 3.5234005 2.0307865 50 95660220 722 14 97 11999
10.947609 3.8625386 1.8846178 303 95660220 4194 15 86 11761
12.58269 2.9308329 1.9908119 210 95660220 3580 16 55 13072
13.334977 3.6250012 1.9937972 244 95660220 4762 17 82 13962
10.89086 3.3927243 1.5358104 94 95660220 1249 18 85 11510
10.676284 3.7594774 1.4152561 286 95660220 3723 19 105 11407
13.371692 3.1143656 1.6043531 405 95660220 7741 20 100 13823
13.77505 3.7423079 1.5290151 76 95660220 1570 21 96 14356
12.621984 3.9254806 1.288847 191 95660220 3365 22 145 13281
10.270666 3.6104012 0.95993578 261 95660220 3115 23 141 10929
13.860128 3.2253211 1.1394559 217 95660220 4429 24 77 14276
14.3452 3.8931696 1.0480026 108 95660220 2401 25 100 14901
12.819578 3.9864426 0.81805688 393 95660220 7101 26 165 13450
12.000923 4.2106304 0.65473413 562 95660220 9111 27 134 12735
14.358123 3.333811 0.64073056 70 95660220 1533 28 65 14754
14.867809 4.0294299 0.52204394 225 95660220 5355 29 69 15413
13.239485 4.1033382 0.3418971 477 95660220 9177 30 75 13865
12.355779 4.3300495 0.19561733 577 95660220 9896 31 98 13094
14.903352 3.4595852 0.10681329 59 95660220 1382 32 109 15300
15.438598 4.17805 -0.040476412 315 95660220 8059 33 111 15994
13.714911 4.2488513 -0.17141442 443 95660220 9138 34 95 14359
12.778008 4.4687557 -0.29041207 488 95660220 8947 35 107 13540
15.460707 3.5810049 -0.47128797 167 95660220 4203 36 147 15877
16.074347 4.3374553 -0.65124124 325 95660220 9031 37 83 16662
14.181407 4.3868613 -0.72263724 492 95660220 10878 38 173 14862
13.1598 4.6025343 -0.81093818 312 95660220 6089 39 92 13965
16.107224 3.7174244 -1.0970943 256 95660220 7030 40 99 16567
16.716602 4.5026221 -1.3117522 311 95660220 9370 41 131 17362
14.713415 4.5469308 -1.3148285 475 95660220 11356 42 186 15456
13.556036 4.7328844 -1.362587 189 95660220 3937 43 83 14423
16.795292 3.8700507 -1.7792816 279 95660220 8369 44 144 17327
16.873962 4.5377426 -1.9686092 26 95660220 807 45 103 17584
15.282506 4.7140341 -1.9543481 483 95660220 12537 46 124 16112
14.133695 4.9306912 -1.976563 468 95660220 10669 47 118 15099
17.520187 4.0216308 -2.522819 295 95660220 9724 48 101 18152
18.236937 4.8957419 -2.8331492 263 95660220 9598 49 84 19094
15.884224 4.890533 -2.6564474 429 95660220 12163 50 74 16831
14.693554 5.1214023 -2.6408024 340 95660220 8472 51 104 15783
18.33749 4.1920571 -3.3527019 226 95660220 8249 52 121 19107
19.154398 5.1316442 -3.7264695 250 95660220 10180 53 109 20177
16.552422 5.090569 -3.4251924 354 95660220 11037 54 95 17653
15.248028 5.314961 -3.3616858 414 95660220 11271 55 79 16494
19.281115 4.3964453 -4.2901759 180 95660220 7364 56 133 20236
19.192673 5.1311293 -4.5044966 44 95660220 1840 57 75 20371
17.314238 5.3212214 -4.2918611 303 95660220 10513 58 68 18615
15.857225 5.5257554 -4.1557055 366 95660220 10962 59 81 17299
20.086521 4.5553894 -5.2856259 153 95660220 6941 60 58 21264
18.937378 5.0458813 -5.2263713 83 95660220 3399 61 43 20283
18.185997 5.5853205 -5.2744923 230 95660220 8979 62 71 19742
16.584162 5.7868619 -5.0668302 268 95660220 8970 63 68 18281
11.277517 2.544045 3.6085703 482 95758060 7073 0 85 12111
11.620074 3.0906277 3.6089933 413 95758060 6510 1 111 12554
11.418681 3.5011361 3.4583461 25 95758060 379 2 54 12434
10.120376 3.5251417 2.9935803 454 95758060 5626 3 73 11127
11.370101 2.5709789 3.149051 264 95758060 3850 4 108 12075
12.061777 3.2024741 3.2383878 45 95758060 740 5 54 12893
11.811231 3.6165366 3.0770788 237 95758060 3842 6 106 12730
10.526664 3.654716 2.6636939 292 95758060 3835 7 94 11457
11.835627 2.6786311 2.7964447 76 95758060 1180 8 108 12453
12.446538 3.309747 2.8330636 78 95758060 1363 9 71 13187
12.134428 3.7083182 2.6636941 290 95758060 4881 10 76 12965
10.8318 3.750066 2.2946119 76 95758060 1032 11 52 11690
11.868452 2.68802 2.3347991 14 95758060 216 12 106 12391
11.633162 3.0886741 2.1853969 137 95758060 2057 13 62 12233
11.412032 3.4851565 2.0490649 63 95758060 925 14 104 12107
11.038267 3.818527 1.8961552 142 95758060 1982 15 164 11833
12.669839 2.8692892 2.0017772 107 95758060 1857 16 63 13144
13.253649 3.5157042 1.9783746 311 95758060 5975 17 82 13854
10.865968 3.3119659 1.5294057 49 95758060 648 18 77 11462
10.721662 3.7016702 1.4182339 285 95758060 3727 19 92 11431
13.309176 3.0138333 1.5946037 396 95758060 7479 20 91 13739
13.717019 3.636313 1.5200684 86 95758060 1753 21 109 14272
13.285693 4.0426612 1.3540609 175 95758060 3414 22 72 13953
10.41694 3.5901577 0.97152984 236 95758060 2890 23 210 11061
13.786322 3.1190994 1.1317935 231 95758060 4651 24 82 14180
14.31096 3.7897542 1.0437827 55 95758060 1217 25 85 14841
13.714692 4.1726766 0.87352657 264 95758060 5438 26 157 14362
12.139857 4.1758966 0.66090357 489 95758060 8081 27 107 12855
14.226281 3.2113309 0.6339559 75 95758060 1607 28 68 14598
14.799497 3.9135983 0.51879233 164 95758060 3836 29 57 15317
14.113948 4.2796202 0.36379427 254 95758060 5533 30 92 14753
12.529634 4.3048377 0.19794789 491 95758060 8620 31 117 13250
14.877478 3.3575084 0.10647818 21 95758060 488 32 119 15252
15.359523 4.0556698 -0.040203094 293 95758060 7395 33 115 15886
14.383788 4.3595223 -0.17943661 217 95758060 4909 34 201 15031
12.941373 4.4369583 -0.29350063 554 95758060 10374 35 108 13684
15.482388 3.4860723 -0.47128797 75 95758060 1879 36 167 15877
15.996297 4.2112684 -0.64702004 338 95758060 9270 37 84 16554
14.471913 4.3796139 -0.73605722 369 95758060 8462 38 201 15138
13.369106 4.5838675 -0.82208747 508 95758060 10186 39 90 14157
16.118046 3.615901 -1.0962995 86 95758060 2360 40 104 16555
16.651333 4.3756375 -1.304499 351 95758060 10465 41 111 17266
14.912712 4.5084667 -1.3301409 431 95758060 10532 42 138 15636
13.856084 4.7424612 -1.3897953 426 95758060 9223 43 96 14711
16.748835 3.7512708 -1.7718879 46 95758060 1365 44 132 17255
17.35132 4.552135 -2.0210037 253 95758060 8253 45 87 18052
15.539214 4.6889944 -1.9834595 473 95758060 12646 46 124 16352
14.355045 4.9093204 -2.003268 483 95758060 11300 47 167 15303
17.312567 3.8623028 -2.4894633 23 95758060 740 48 109 17912
18.186272 4.7627048 -2.8206851 281 95758060 10168 49 73 19010
16.106817 4.8510704 -2.6886449 423 95758060 12287 50 69 17035
14.825459 5.0655746 -2.6588728 158 95758060 3996 51 86 15891
17.90156 3.9769785 -3.2684765 17 95758060 595 52 99 18627
19.105654 4.9931445 -3.7109559 219 95758060 8846 53 104 20093
16.831348 5.063518 -3.4764161 354 95758060 11372 54 85 17917
15.424874 5.2706838 -3.3934805 268 95758060 7442 55 62 16650
0 0 -0 8 95758060 0 56 115 0
19.087906 4.9778304 -4.4726548 37 95758060 1531 57 67 20227
17.614937 5.2955647 -4.3582621 336 95758060 12018 58 77 18903
16.122318 5.5074296 -4.2162423 364 95758060 11217 59 99 17551
0 0 -0 9 95758060 0 60 51 0
0 0 -0 8 95758060 0 61 64 0
18.496798 5.5568056 -5.3546438 254 95758060 10218 62 70 20042
16.870272 5.7708249 -5.1433277 280 95758060 9658 63 63 18557
11.225779 2.4600868 3.5871172 109 95855740 1584 0 82 12039
11.549817 2.9961815 3.5813951 429 95855740 6659 1 109 12458
11.627639 3.4872975 3.5150857 14 95855740 230 2 67 12638
10.25119 3.5003247 3.0258648 425 95855740 5371 3 53 11247
11.396976 2.5036504 3.1521804 53 95855740 779 4 77 12087
11.957512 3.0963752 3.2052329 113 95855740 1834 5 39 12761
11.911282 3.5673816 3.0973833 184 95855740 3023 6 105 12814
10.582037 3.6013374 2.6720638 363 95855740 4799 7 79 11493
11.69195 2.5708025 2.7587185 14 95855740 212 8 111 12285
12.171657 3.1568151 2.7660344 54 95855740 903 9 64 12875
12.280727 3.6707897 2.690814 257 95855740 4416 10 65 13097
10.96603 3.7213449 2.3181665 64 95855740 886 11 52 11810
0 0 0 0 95855740 0 12 90 0
11.640464 3.0142763 2.1832533 173 95855740 2578 13 47 12221
11.410537 3.408298 2.0450029 105 95855740 1536 14 88 12083
11.218536 3.8039768 1.923076 230 95855740 3315 15 96 12001
12.721954 2.79914 2.0072598 11 95855740 200 16 59 13180
13.20598 3.4164667 1.9680928 397 95855740 7543 17 100 13782
11.000056 3.2792068 1.5454175 15 95855740 206 18 78 11582
10.699057 3.6205463 1.4122785 247 95855740 3201 19 109 11383
13.222654 2.9090641 1.5820688 18 95855740 336 20 107 13631
13.692865 3.5401323 1.5149561 149 95855740 3022 21 76 14224
13.527745 4.0257916 1.376187 140 95855740 2820 22 89 14181
11.911016 4.0234904 1.1085505 510 95855740 8119 23 154 12621
0 0 0 6 95855740 0 24 95 0
14.241224 3.6779268 1.0370309 44 95855740 959 25 100 14745
13.935203 4.1465192 0.88593429 232 95855740 4921 26 121 14566
12.290169 4.1434431 0.66768998 548 95855740 9243 27 107 12987
0 0 0 4 95855740 0 28 72 0
14.730327 3.7987576 0.51554078 139 95855740 3210 29 53 15221
14.392972 4.2679696 0.37030426 279 95855740 6302 30 63 15017
12.669524 4.2661662 0.19974063 480 95855740 8585 31 88 13370
0 0 0 4 95855740 0 32 100 0
15.26791 3.9314258 -0.039899409 268 95855740 6671 33 75 15766
14.916462 4.4212184 -0.18573976 230 95855740 5569 34 113 15559
13.104823 4.4033227 -0.29658923 481 95855740 9194 35 131 13828
0 0 -0 4 95855740 0 36 153 0
15.882464 4.0772591 -0.64139169 336 95855740 9051 37 103 16410
15.41796 4.5628371 -0.78273547 302 95855740 7838 38 176 16098
13.555962 4.555172 -0.83184314 526 95855740 10799 39 87 14325
0 0 -0 6 95855740 0 40 110 0
16.561954 4.2436838 -1.2954326 431 95855740 12669 41 122 17146
15.983493 4.7253485 -1.4230365 251 95855740 7036 42 180 16728
14.020836 4.7029414 -1.4033995 566 95855740 12499 43 68 14855
16.339975 3.5545511 -1.7262943 11 95855740 308 44 125 16811
17.30961 4.4278526 -2.0129433 323 95855740 10454 45 73 17980
16.138914 4.7621098 -2.0562382 210 95855740 6040 46 210 16952
14.554099 4.8778553 -2.0268312 462 95855740 11068 47 147 15483
17.02236 3.688062 -2.4444327 16 95855740 502 48 90 17588
18.11167 4.6246028 -2.8046603 296 95855740 10589 49 72 18902
16.431818 4.8391857 -2.7378879 279 95855740 8402 50 92 17347
15.114289 5.0609107 -2.7050529 212 95855740 5552 51 66 16167
17.694662 3.8172367 -3.2263639 11 95855740 377 52 97 18387
18.987362 4.837965 -3.6821444 223 95855740 8870 53 98 19937
17.110556 5.0332336 -3.5276396 330 95855740 10913 54 99 18181
15.568324 5.213243 -3.4179378 131 95855740 3694 55 73 16770
9.898016 2.1294959 -2.1963937 132 95855740 1415 56 130 10360
19.220169 4.8865685 -4.4965363 18 95855740 762 57 65 20335
17.915962 5.2664146 -4.4246626 305 95855740 11247 58 71 19191
16.354637 5.4749622 -4.2681317 312 95855740 9856 59 90 17767
19.765827 4.2283158 -5.1871915 9 95855740 376 60 43 20868
9.5003414 2.4069114 -2.6135721 60 95855740 613 61 47 10143
18.830111 5.5312018 -5.4412069 242 95855740 10056 62 63 20366
17.145866 5.7478261 -5.2164989 252 95855740 8943 63 61 18821
11.117415 2.3649428 3.5477867 27 95954650 386 0 92 11907
11.512271 2.9111683 3.5641468 505 95954650 7766 1 95 12398
11.615635 3.4061556 3.5050728 23 95954650 373 2 62 12602
10.382076 3.4740336 3.0581493 279 95954650 3599 3 53 11367
11.468774 2.4457536 3.1678278 27 95954650 401 4 94 12147
11.965023 3.0201044 3.2022188 197 95954650 3208 5 72 12749
12.067044 3.5334952 3.1321907 119 95954650 2000 6 101 12958
10.692509 3.5658782 2.6943831 433 95954650 5817 7 99 11589
11.730376 2.5038955 2.7641079 16 95954650 247 8 82 12309
12.05445 3.0476005 2.7350976 41 95954650 658 9 48 12731
10.43178 3.0485268 2.2815521 122 95954650 1509 10 185 11105
11.133808 3.7022548 2.3487875 122 95954650 1754 11 61 11966
0 0 0 5 95954650 0 12 133 0
11.601501 2.9283471 2.1725342 156 95954650 2314 13 65 12161
11.431235 3.3382201 2.0450029 130 95954650 1898 14 111 12083
11.196703 3.7201307 1.9153845 101 95954650 1449 15 69 11953
0 0 0 9 95954650 0 16 57 0
12.858167 3.2424405 1.913257 189 95954650 3391 17 124 13398
11.179817 3.2582359 1.5678343 26 95954650 364 18 74 11750
10.743675 3.562325 1.4152561 221 95954650 2877 19 105 11407
13.042103 2.7855551 1.5583917 15 95954650 275 20 87 13427
13.621769 3.4327223 1.5047314 190 95954650 3796 21 94 14128
13.689807 3.9827468 1.3901613 80 95954650 1646 22 94 14325
12.060309 3.9916456 1.1201446 495 95954650 8046 23 151 12753
13.367325 2.8523331 1.0944396 21 95954650 401 24 75 13712
14.170659 3.5670986 1.0302792 61 95954650 1311 25 102 14649
14.075394 4.0943918 0.89323294 208 95954650 4483 26 132 14686
12.440535 4.1093006 0.67447639 542 95954650 9325 27 129 13119
13.819032 2.9416587 0.61415291 13 95954650 266 28 81 14142
14.671939 3.6878376 0.51269567 93 95954650 2121 29 51 15137
14.591719 4.2296739 0.37474287 264 95954650 6086 30 57 15197
12.843593 4.2372165 0.20207119 541 95954650 9901 31 98 13526
0 0 0 3 95954650 0 32 88 0
15.221911 3.8201439 -0.039717197 225 95954650 5545 33 101 15694
15.116186 4.3796983 -0.18788855 251 95954650 6221 34 102 15739
13.279737 4.3715978 -0.29993516 490 95954650 9585 35 92 13984
0 0 -0 4 95954650 0 36 141 0
15.802492 3.9535372 -0.63717049 322 95954650 8568 37 72 16302
15.675941 4.5347624 -0.79440504 310 95954650 8284 38 189 16338
13.742962 4.524354 -0.84159881 471 95954650 9897 39 95 14493
0 0 -0 4 95954650 0 40 114 0
16.483198 4.1158919 -1.2872729 337 95954650 9782 41 119 17038
16.276377 4.7035322 -1.4465156 302 95954650 8724 42 145 17004
14.231017 4.6764951 -1.4215384 448 95954650 10147 43 97 15047
16.291403 3.4394298 -1.7189007 11 95954650 307 44 119 16739
17.209179 4.2898331 -1.9981652 307 95954650 9787 45 90 17848
16.923193 4.8808494 -2.1523058 251 95954650 7899 46 132 17744
14.764604 4.8478417 -2.0519652 469 95954650 11517 47 147 15675
0 0 -0 7 95954650 0 48 107 0
17.978479 4.4732699 -2.7797327 288 95954650 10120 49 73 18734
17.622702 5.0726023 -2.9310727 212 95954650 7328 50 59 18571
15.324923 5.0270777 -2.7371783 456 95954650 12212 51 77 16359
17.810259 3.7279553 -3.2432091 17 95954650 585 52 100 18483
18.867889 4.6844263 -3.6533327 235 95954650 9199 53 105 19781
18.351677 5.2761917 -3.7767725 166 95954650 6289 54 116 19465
15.979555 5.2421269 -3.5010936 258 95954650 7625 55 69 17178
18.888102 3.942554 -4.1858687 83 95954650 3228 56 136 19744
19.851849 4.917685 -4.6371703 146 95954650 6437 57 73 20971
18.351959 5.2724586 -4.5242648 158 95954650 6080 58 126 19623
16.631432 5.4543691 -4.331552 365 95954650 11874 59 89 18031
0 0 -0 8 95954650 0 60 49 0
9.4811592 2.3402371 -2.6042957 78 95954650 792 61 50 10107
19.208254 5.5144777 -5.5405946 207 95954650 8916 62 79 20738
17.334169 5.6928787 -5.263062 95 95954650 3411 63 46 18989
11.075624 2.28511 3.5299091 21 96051010 301 0 62 11847
11.462957 2.8239799 3.5434482 491 96051010 7463 1 96 12326
11.769281 3.3729255 3.5451243 73 96051010 1180 2 44 12746
10.469092 3.4318659 3.0775199 297 96051010 3880 3 54 11439
11.506254 2.3800297 3.1740868 23 96051010 344 4 87 12171
11.577273 2.8467848 3.0937114 168 96051010 2542 5 53 12317
12.166862 3.4818122 3.1524951 90 96051010 1531 6 116 13042
10.80294 3.5291975 2.7167027 518 96051010 7079 7 65 11685
11.734068 2.4295013 2.7614133 20 96051010 307 8 80 12297
12.289137 3.0268323 2.7840805 17 96051010 278 9 53 12959
12.539407 3.5810847 2.7376571 246 96051010 4372 10 92 13325
11.201067 3.6484461 2.3582094 188 96051010 2708 11 41 12014
0 0 0 8 96051010 0 12 123 0
11.619249 2.8571064 2.1725342 81 96051010 1203 13 77 12161
11.462876 3.2712622 2.047034 172 96051010 2518 14 103 12095
11.208055 3.6476932 1.9134616 39 96051010 560 15 83 11941
0 0 0 6 96051010 0 16 44 0
12.601002 3.0954819 1.8721302 69 96051010 1188 17 100 13110
13.475739 3.8378069 1.8864715 71 96051010 1427 18 68 14138
10.787981 3.5036924 1.4182339 199 96051010 2603 19 90 11431
13.070621 2.7078958 1.5597845 19 96051010 346 20 96 13439
13.619401 3.3433869 1.5021753 278 96051010 5533 21 98 14104
13.817381 3.928066 1.4006422 51 96051010 1072 22 63 14433
12.186914 3.9507463 1.1296307 482 96051010 7969 23 146 12861
13.26744 2.7460153 1.0848616 12 96051010 226 24 91 13592
14.087646 3.4544249 1.0226834 82 96051010 1741 25 75 14541
14.307636 4.0668983 0.90637046 165 96051010 3661 26 128 14902
12.579537 4.0697789 0.68064582 490 96051010 8587 27 121 13239
13.684188 2.8252981 0.60737824 11 96051010 224 28 61 13986
14.647695 3.5863342 0.51106989 63 96051010 1425 29 48 15089
14.802074 4.1923671 0.37947741 278 96051010 6595 30 59 15389
13.017776 4.2062893 0.20440175 530 96051010 9926 31 89 13682
0 0 0 0 96051010 0 32 106 0
15.186781 3.7124245 -0.039565351 157 96051010 3842 33 93 15634
15.315956 4.3358917 -0.19003734 214 96051010 5427 34 97 15919
13.46617 4.3415718 -0.3035385 514 96051010 10298 35 90 14152
0 0 -0 7 96051010 0 36 144 0
15.744904 3.8366292 -0.63388729 283 96051010 7455 37 67 16218
15.899549 4.4939117 -0.80432415 272 96051010 7435 38 150 16542
13.907286 4.4840579 -0.8499608 468 96051010 10032 39 86 14637
0 0 -0 4 96051010 0 40 105 0
16.403502 3.9892275 -1.2791132 324 96051010 9290 41 100 16930
16.512051 4.6620526 -1.4648905 244 96051010 7249 42 175 17220
14.430023 4.6439843 -1.4385436 478 96051010 11090 43 81 15227
16.45253 3.3681307 -1.7336879 45 96051010 1288 44 92 16883
17.119295 4.1560264 -1.9847306 322 96051010 10130 45 77 17728
16.700594 4.7058463 -2.1202831 55 96051010 1675 46 138 17480
14.95263 4.8081422 -2.0739577 383 96051010 9607 47 144 15843
17.159487 3.4978824 -2.4577751 131 96051010 4103 48 92 17684
17.901789 4.3377204 -2.7637079 251 96051010 8721 49 73 18626
17.927265 5.0413637 -2.9765279 217 96051010 7728 50 82 18859
15.535702 4.9908471 -2.7693036 462 96051010 12665 51 79 16551
17.936998 3.6397476 -3.2621598 159 96051010 5502 52 92 18591
18.735792 4.5297666 -3.6223052 269 96051010 10351 53 104 19613
18.70104 5.2526193 -3.8419664 167 96051010 6563 54 71 19801
16.201565 5.2050676 -3.542671 373 96051010 11277 55 86 17382
18.831476 3.8103046 -4.1680603 195 96051010 7526 56 149 19660
19.745131 4.7628531 -4.605329 212 96051010 9206 57 88 20827
19.564405 5.4910636 -4.8147693 145 96051010 6336 58 82 20883
16.91967 5.434144 -4.3978548 339 96051010 11366 59 98 18307
19.394604 3.9006436 -5.0768256 10 96051010 404 60 35 20424
9.5291624 2.2901461 -2.6135721 66 96051010 675 61 48 10143
19.419876 5.4464769 -5.5918913 156 96051010 6846 62 82 20930
17.621225 5.6676087 -5.3395596 72 96051010 2658 63 44 19265
10.920946 2.1834221 3.4762769 28 96147250 385 0 86 11667
11.435364 2.7428682 3.5296495 520 96147250 7842 1 93 12278
11.789756 3.300647 3.5451243 146 96147250 2365 2 50 12746
11.194236 3.5936582 3.2841408 148 96147250 2210 3 81 12207
11.282107 2.2615681 3.1083677 22 96147250 318 4 73 11919
11.492858 2.7513561 3.0665846 124 96147250 1841 5 55 12209
12.232854 3.4196315 3.1640975 67 96147250 1150 6 102 13090
11.346853 3.6299868 2.8478298 295 96147250 4426 7 113 12249
11.611175 2.3298504 2.7290766 24 96147250 359 8 79 12153
12.068147 2.8939784 2.7299416 17 96147250 268 9 44 12707
11.893729 3.3178942 2.5921967 137 96147250 2186 10 192 12617
11.615599 3.7047906 2.4406505 148 96147250 2295 11 63 12434
0 0 0 4 96147250 0 12 105 0
11.797318 2.8242426 2.2025471 47 96147250 722 13 58 12329
11.47134 3.19769 2.0450029 192 96147250 2806 14 95 12083
11.241512 3.5824499 1.9153845 37 96147250 535 15 60 11953
0 0 0 3 96147250 0 16 41 0
12.723719 3.0429683 1.8875526 179 96147250 3127 17 118 13218
13.533406 3.7646108 1.8912752 156 96147250 3139 18 84 14174
10.729844 3.4121726 1.407812 154 96147250 1983 19 118 11347
0 0 0 9 96147250 0 20 91 0
13.535214 3.2347956 1.4906725 315 96147250 6173 21 103 13996
13.956303 3.8751638 1.4122875 48 96147250 1023 22 82 14553
12.347648 3.9192915 1.1422788 464 96147250 7842 23 155 13005
13.53033 2.7139578 1.1049753 26 96147250 505 24 74 13844
14.027075 3.348464 1.0167756 137 96147250 2868 25 91 14457
14.436193 4.0078692 0.91293931 125 96147250 2816 26 118 15010
12.752792 4.0395608 0.68866616 540 96147250 9691 27 98 13395
14.053937 2.811841 0.62301213 158 96147250 3244 28 44 14346
14.669424 3.4963901 0.51106989 38 96147250 856 29 48 15089
15.000953 4.1494379 0.38391605 230 96147250 5564 30 52 15569
13.203498 4.1770015 0.20691156 518 96147250 9937 31 115 13850
14.578861 2.9160714 0.10379738 135 96147250 2991 32 82 14868
15.115883 3.596947 -0.039322402 112 96147250 2710 33 88 15538
15.550447 4.2993889 -0.1926159 207 96147250 5390 34 112 16135
13.641287 4.3058095 -0.30688447 434 96147250 8886 35 105 14308
15.092762 3.0111918 -0.45703977 60 96147250 1419 36 134 15397
15.686479 3.7205772 -0.63060415 242 96147250 6308 37 79 16134
16.157898 4.4600525 -0.81599373 262 96147250 7374 38 133 16782
14.105898 4.4527326 -0.86041319 474 96147250 10414 39 78 14817
15.720425 3.1235821 -1.0637186 39 96147250 1016 40 73 16063
16.299585 3.8581846 -1.2691402 306 96147250 8632 41 124 16798
16.759346 4.6210332 -1.4842862 271 96147250 8239 42 156 17448
14.629158 4.6092052 -1.4555486 533 96147250 12658 43 87 15407
16.449471 3.2624722 -1.7312233 112 96147250 3179 44 135 16859
17.016819 4.0207438 -1.9699526 320 96147250 9918 45 79 17596
16.912907 4.6538472 -2.1435723 23 96147250 716 46 122 17672
15.231501 4.7948942 -2.1085169 435 96147250 11281 47 134 16107
17.145653 3.3856215 -2.4527717 142 96147250 4431 48 85 17648
17.824114 4.2032814 -2.7476828 292 96147250 10024 49 77 18518
18.186394 4.9940248 -3.0144072 240 96147250 8765 50 81 19099
15.803037 4.969964 -2.8114681 415 96147250 11728 51 70 16803
17.541677 3.4476016 -3.1863565 35 96147250 1154 52 115 18159
18.659914 4.3904109 -3.6023588 235 96147250 8946 53 98 19505
19.039442 5.2218418 -3.9048319 184 96147250 7463 54 85 20125
16.457336 5.1760535 -3.5915864 323 96147250 10042 55 73 17622
18.704893 3.6653683 -4.1349869 158 96147250 6009 56 118 19504
19.603083 4.6014938 -4.5655265 191 96147250 8159 57 71 20647
19.045918 5.2196865 -4.6792002 67 96147250 2780 58 59 20295
17.17494 5.4001026 -4.4555097 335 96147250 11533 59 85 18547
19.56649 3.810451 -5.115603 23 96147250 961 60 36 20580
9.4865837 2.2184322 -2.5981116 49 96147250 493 61 57 10083
18.928732 5.1836643 -5.4412069 40 96147250 1676 62 68 20366
18.029587 5.6771178 -5.452642 220 96147250 8496 63 55 19673
10.922892 2.1141946 3.4727013 17 96245910 236 0 71 11655
11.396015 2.6595898 3.5124006 565 96245910 8434 1 120 12218
11.743075 3.2100086 3.5250986 229 96245910 3671 2 55 12674
11.348386 3.5664856 3.3228822 88 96245910 1337 3 39 12351
11.511849 2.2342365 3.1678278 28 96245910 419 4 70 12147
11.249336 2.620183 2.9972606 82 96245910 1161 5 57 11933
12.174973 3.3230457 3.1437931 26 96245910 444 6 87 13006
11.725322 3.6719089 2.9371078 332 96245910 5303 7 83 12633
11.877787 2.3076246 2.7883604 60 96245910 928 8 92 12417
11.834586 2.7612896 2.6732244 40 96245910 613 9 50 12443
12.049839 3.2818873 2.6217818 166 96245910 2705 10 106 12761
12.143547 3.7912471 2.5466464 201 96245910 3377 11 46 12974
12.327079 2.3969228 2.4094162 152 96245910 2487 12 101 12787
12.216895 2.8455455 2.2775791 41 96245910 673 13 71 12749
11.467921 3.1210318 2.0409412 172 96245910 2502 14 109 12059
11.285896 3.5204599 1.9192302 32 96245910 452 15 57 11977
12.763535 2.4815576 2.0036049 28 96245910 478 16 41 13156
12.707446 2.9567647 1.8824117 232 96245910 4036 17 88 13182
13.487388 3.6627994 1.8816679 209 96245910 4161 18 86 14102
10.761949 3.3498101 1.4093008 74 96245910 958 19 88 11359
13.137965 2.5541186 1.5639627 147 96245910 2675 20 80 13475
13.485078 3.1354709 1.483004 375 96245910 7275 21 86 13924
13.887598 3.7644591 1.4029711 53 96245910 1115 22 75 14457
12.67968 3.9392076 1.1707369 211 96245910 3754 23 200 13329
13.534986 2.6286056 1.1040175 373 96245910 7144 24 72 13832
13.965737 3.2433772 1.0108678 240 96245910 4963 25 87 14373
14.472073 3.922348 0.91366911 116 96245910 2616 26 123 15022
12.937593 4.0109172 0.69730341 396 96245910 7280 27 138 13563
14.012075 2.7141554 0.62040645 430 96245910 8781 28 87 14286
14.491988 3.3602619 0.50416034 48 96245910 1054 29 48 14885
14.968223 4.0416794 0.38243648 233 96245910 5615 30 65 15509
13.377883 4.1420422 0.20924212 448 96245910 8791 31 103 14006
14.537575 2.8151555 0.1033785 246 96245910 5398 32 97 14808
15.125978 3.5014236 -0.039292034 76 96245910 1836 33 95 15526
15.576534 4.2038922 -0.1926159 276 96245910 7191 34 93 16135
13.839392 4.2751422 -0.31074518 476 96245910 9990 35 121 14488
15.075624 2.9117041 -0.45597118 122 96245910 2870 36 157 15361
15.615541 3.6026917 -0.62685192 184 96245910 4742 37 76 16038
16.208107 4.3670621 -0.81716067 354 96245910 10007 38 193 16806
14.338983 4.4297452 -0.87295622 488 96245910 11032 39 100 15033
15.692262 3.018019 -1.0605398 41 96245910 1053 40 110 16015
16.241329 3.7393069 -1.2627938 274 96245910 7656 41 110 16714
16.902842 4.5491867 -1.4944946 339 96245910 10450 42 162 17568
14.885484 4.5897551 -1.4782221 487 96245910 11927 43 96 15647
16.305061 3.1299744 -1.7139716 63 96245910 1751 44 131 16691
16.95982 3.8975594 -1.9605485 301 96245910 9237 45 91 17512
17.642872 4.738451 -2.2323623 285 96245910 9658 46 100 18404
15.442547 4.7573867 -2.1336513 438 96245910 11629 47 144 16299
17.049381 3.2580492 -2.436094 11 96245910 342 48 99 17528
17.745468 4.0699596 -2.731658 261 96245910 8856 49 82 18410
18.468498 4.9498281 -3.0560744 238 96245910 8909 50 42 19363
16.070688 4.9459853 -2.8536325 456 96245910 13269 51 96 17055
17.67856 3.3619742 -3.2074132 39 96245910 1307 52 101 18279
18.571537 4.2495265 -3.5801959 276 96245910 10371 53 117 19385
19.366785 5.1840615 -3.9653685 204 96245910 8532 54 83 20437
16.735809 5.1510053 -3.6453929 317 96245910 10154 55 70 17886
18.462025 3.5002847 -4.0764728 15 96245910 552 56 123 19228
19.505444 4.4524765 -4.5363383 146 96245910 6153 57 93 20515
18.998627 5.081605 -4.6598334 185 96245910 7573 58 70 20211
17.519489 5.3905354 -4.5362263 284 96245910 10140 59 73 18883
12.644651 2.3820326 -3.3020246 19 96245910 341 60 78 13284
9.511323 2.1627526 -2.6012037 158 96245910 1606 61 48 10095
18.870808 5.0435352 -5.4155583 125 96245910 5116 62 56 20270
18.372602 5.6614532 -5.5457692 220 96245910 8820 63 80 20009
11.08203 2.0745337 3.5191827 342 96342250 4777 0 67 11811
11.367286 2.5794415 3.4986019 538 96342250 7971 1 98 12170
11.740276 3.131952 3.5184233 275 96342250 4408 2 58 12650
11.45843 3.5239654 3.3487098 52 96342250 799 3 50 12447
11.457026 2.1507349 3.149051 515 96342250 7513 4 82 12075
11.378487 2.5767632 3.0274014 148 96342250 2144 5 49 12053
12.195134 3.2482791 3.1437931 21 96342250 357 6 101 13006
11.859221 3.6340897 2.9650071 300 96342250 4886 7 66 12753
11.845753 2.2260618 2.7775815 512 96342250 7837 8 90 12369
11.988459 2.7197368 2.7041612 46 96342250 724 9 36 12587
11.82005 3.1415241 2.5675423 121 96342250 1896 10 71 12497
12.256606 3.7441654 2.56549 263 96342250 4486 11 42 13070
12.237316 2.3016348 2.3890662 377 96342250 6061 12 111 12679
12.464432 2.8226857 2.3204546 25 96342250 430 13 60 12989
11.509717 3.0566783 2.0450029 231 96342250 3374 14 104 12083
11.25064 3.433856 1.9096158 56 96342250 801 15 69 11917
12.708586 2.390043 1.9926394 108 96342250 1843 16 38 13084
12.713766 2.8761172 1.8806983 116 96342250 2013 17 109 13170
13.406146 3.552556 1.8672572 270 96342250 5293 18 79 13994
10.827863 3.2975893 1.4152561 54 96342250 706 19 87 11407
13.106536 2.4646468 1.5583917 127 96342250 2296 20 78 13427
13.422596 3.0342531 1.4740574 357 96342250 6837 21 122 13840
13.898889 3.6761217 1.4018066 87 96342250 1822 22 78 14445
13.447014 4.0872936 1.2392472 205 96342250 4074 23 158 14109
13.492078 2.5344653 1.0992285 315 96342250 5976 24 105 13772
13.938669 3.1470788 1.0074918 181 96342250 3719 25 89 14325
14.356911 3.7967277 0.90491074 68 96342250 1496 26 161 14878
13.856481 4.2027726 0.74542516 299 96342250 6282 27 133 14499
13.94598 2.6126747 0.61675858 455 96342250 9181 28 96 14202
14.442136 3.2554538 0.50172168 36 96342250 801 29 58 14813
14.934736 3.9344792 0.38095695 191 96342250 4549 30 48 15449
14.310235 4.3346729 0.22340474 297 96342250 6637 31 137 14954
14.448423 2.7060208 0.10262453 290 96342250 6269 32 101 14700
15.135469 3.4059119 -0.039261665 23 96342250 563 33 71 15514
15.532415 4.0899053 -0.1917564 247 96342250 6375 34 107 16063
14.485515 4.3775558 -0.32464379 230 96342250 5279 35 179 15136
15.02246 2.805933 -0.45383394 191 96342250 4458 36 149 15289
15.613952 3.5015609 -0.62591386 74 96342250 1906 37 79 16014
16.141861 4.2431512 -0.81249285 326 96342250 9092 38 160 16710
14.629645 4.421391 -0.88898337 304 96342250 7123 39 127 15309
15.604538 2.9019732 -1.0533879 69 96342250 1751 40 93 15907
16.252291 3.6369686 -1.2618872 54 96342250 1506 41 117 16702
16.849485 4.4241319 -1.4873487 331 96342250 10106 42 159 17484
15.062052 4.5431814 -1.49296 471 96342250 11773 43 69 15803
16.26528 3.0189779 -1.7078104 41 96342250 1134 44 114 16631
16.692469 3.7284367 -1.926962 35 96342250 1047 45 76 17212
17.556389 4.5999169 -2.2178063 339 96342250 11331 46 123 18284
15.642306 4.7140346 -2.1572144 447 96342250 12133 47 136 16479
0 0 -0 8 96342250 0 48 92 0
17.341539 3.8654699 -2.6657777 11 96342250 369 49 64 17966
18.406807 4.8124356 -3.0409226 272 96342250 10111 50 72 19267
16.315977 4.9120855 -2.8917813 429 96342250 12827 51 66 17283
10.332321 1.8993068 -1.8724385 36 96342250 410 52 112 10671
18.205841 4.0484533 -3.504843 12 96342250 439 53 93 18977
19.341278 5.050261 -3.953727 216 96342250 8985 54 70 20377
16.992086 5.1159577 -3.6943078 353 96342250 11611 55 68 18126
18.021749 3.3023877 -3.9747095 15 96342250 522 56 131 18748
9.8323698 2.1810329 -2.2835371 137 96342250 1464 57 78 10327
19.040749 4.9678841 -4.6626 13 96342250 549 58 67 20223
17.79763 5.3567963 -4.5996466 301 96342250 11048 59 74 19147
9.5943327 1.7465159 -2.5026186 57 96342250 573 60 54 10068
20.042313 4.4282064 -5.4737368 216 96342250 9749 61 112 21243
19.628736 5.11727 -5.6239519 68 96342250 3009 62 126 21050
18.682974 5.6318064 -5.6289182 224 96342250 9220 63 54 20309
11.049462 1.9983422 3.5048807 474 96440140 6562 0 84 11763
11.360451 2.5046954 3.4917023 232 96440140 3425 1 101 12146
11.681188 3.0395377 3.49506 330 96440140 5218 2 60 12566
11.612648 3.4935462 3.3874512 34 96440140 532 3 54 12591
11.435811 2.074193 3.1396625 519 96440140 7520 4 135 12039
11.64365 2.5618069 3.0937114 83 96440140 1267 5 58 12317
12.169755 3.1616781 3.1321907 51 96440140 859 6 97 12958
11.981915 3.5914135 2.9901168 266 96440140 4407 7 62 12861
11.790156 2.1408012 2.7614133 437 96440140 6609 8 110 12297
11.730239 2.5855803 2.6422877 14 96440140 219 9 59 12299
11.873208 3.0777793 2.5749388 84 96440140 1327 10 62 12533
12.369542 3.695838 2.5843337 329 96440140 5696 11 46 13166
12.193233 2.2159684 2.3777604 450 96440140 7166 12 114 12619
0 0 0 5 96440140 0 13 51 0
11.413765 2.9563437 2.0246935 157 96440140 2252 14 75 11963
11.294198 3.3715353 1.9134616 86 96440140 1232 15 71 11941
12.606322 2.2908151 1.9743639 165 96440140 2766 16 48 12964
0 0 0 8 96440140 0 17 93 0
13.324062 3.4434488 1.8528465 360 96440140 6950 18 63 13886
11.030482 3.2854736 1.4390775 17 96440140 228 19 118 11599
13.074504 2.3756571 1.5528207 72 96440140 1291 20 99 13379
13.044725 2.8648169 1.4306026 19 96440140 344 21 108 13432
13.805535 3.5609405 1.3901613 117 96440140 2409 22 72 14325
13.609337 4.0455804 1.2518953 151 96440140 3061 23 153 14253
13.460299 2.4430871 1.0953974 243 96440140 4582 24 86 13724
13.595255 2.9819911 0.98132879 22 96440140 431 25 99 13953
14.333544 3.6965995 0.90199131 78 96440140 1708 26 155 14830
14.031369 4.1619754 0.75344551 250 96440140 5367 27 124 14655
13.890967 2.5142434 0.61363178 445 96440140 8890 28 88 14130
14.086943 3.0846844 0.48871547 11 96440140 221 29 43 14429
14.900502 3.8278432 0.37947741 151 96440140 3565 30 56 15389
14.566654 4.3149433 0.22699021 316 96440140 7296 31 112 15194
14.441139 2.6130428 0.10245698 375 96440140 8077 32 113 14676
0 0 -0 3 96440140 0 33 71 0
15.406129 3.955729 -0.1898941 219 96440140 5545 34 100 15907
15.06436 4.4517941 -0.33699811 254 96440140 6277 35 81 15712
14.956766 2.6987946 -0.45134053 226 96440140 5219 36 145 15205
0 0 -0 8 96440140 0 37 79 0
16.039877 4.1112914 -0.80607456 310 96440140 8533 38 174 16578
15.58707 4.6065602 -0.9454267 253 96440140 6713 39 88 16281
15.539555 2.7913525 -1.0478253 112 96440140 2805 40 109 15823
0 0 -0 9 96440140 0 41 104 0
16.772068 4.2939734 -1.4781613 342 96440140 10312 42 168 17376
16.132351 4.7582221 -1.5961248 262 96440140 7477 43 120 16895
16.119009 2.8896315 -1.6905588 50 96440140 1353 44 123 16463
16.435349 3.5652728 -1.8947192 14 96440140 387 45 56 16924
17.480415 4.4655728 -2.2047062 304 96440140 10042 46 122 18176
16.047518 4.7289386 -2.2090535 198 96440140 5625 47 169 16875
0 0 -0 4 96440140 0 48 100 0
17.179354 3.7188194 -2.6372888 16 96440140 491 49 52 17774
18.286718 4.6613531 -3.0163009 297 96440140 10865 50 60 19111
16.561447 4.8753591 -2.9299304 329 96440140 10091 51 107 17511
17.695223 3.1406488 -3.2032018 64 96440140 2135 52 108 18255
17.757698 3.8346057 -3.413976 15 96440140 522 53 83 18485
19.212191 4.8908324 -3.9211302 239 96440140 9772 54 84 20209
17.259823 5.0812745 -3.7456684 341 96440140 11529 55 76 18378
0 0 -0 7 96440140 0 56 116 0
0 0 -0 9 96440140 0 57 92 0
19.829065 5.0438166 -4.8479695 12 96440140 552 58 60 21027
18.098356 5.3264217 -4.6688323 300 96440140 11345 59 75 19435
12.730171 2.2367413 -3.3169389 111 96440140 1969 60 47 13344
20.012421 4.2929859 -5.4582763 189 96440140 8460 61 53 21183
19.659765 4.9967341 -5.6239519 331 96440140 14686 62 66 21050
19.026844 5.6083403 -5.7220454 208 96440140 8886 63 60 20645
11.061516 1.9305063 3.5048807 484 96537880 6700 0 93 11763
11.150828 2.3868284 3.4227076 37 96537880 528 1 85 11906
11.632582 2.9508011 3.475034 382 96537880 5955 2 57 12494
11.644954 3.4254882 3.3906796 16 96537880 247 3 53 12603
11.379856 1.9920002 3.1208856 537 96537880 7693 4 91 11967
