# .PCD v0.7 - Point Cloud Data file format
VERSION 0.7
FIELDS x y z intensity t reflectivity ring noise range
SIZE 4 4 4 4 4 2 1 2 4
TYPE F F F F U U U U U
COUNT 1 1 1 1 1 1 1 1 1
WIDTH 771
HEIGHT 1
VIEWPOINT 0 0 0 1 0 0 0
POINTS 771
DATA ascii
-3.4515898 8.900198 1.1154913 695 68254750 6423 20 85 9611
-3.8267694 8.8921461 1.0369525 621 68254750 5889 21 90 9736
-4.2243185 8.9117184 0.96161318 670 68254750 6582 22 79 9909
-4.6389008 8.928812 0.88720942 678 68254750 6917 23 124 10101
-3.331506 8.5954475 0.73814005 732 68254750 6264 24 67 9248
-3.6968951 8.5965595 0.65977532 716 68254750 6302 25 103 9381
-4.0878363 8.6245699 0.58158064 634 68254750 5797 26 99 9562
-4.4771047 8.6299057 0.50049758 706 68254750 6691 27 101 9735
-3.2388866 8.3686199 0.39006656 649 68254750 5240 28 66 8982
-3.5857413 8.3461142 0.30784774 739 68254750 6101 29 48 9089
-3.9403143 8.3336115 0.22738068 745 68254750 6332 30 42 9221
-4.329824 8.3535013 0.14058036 735 68254750 6511 31 84 9410
-3.1180065 8.0575428 0.06031809 745 68254750 5562 32 110 8640
-3.4636457 8.0700808 -0.022224827 790 68254750 6096 33 70 8782
-3.8180032 8.0774813 -0.10666396 753 68254750 6013 34 96 8935
-4.1924987 8.1013603 -0.19569568 763 68254750 6354 35 75 9124
-3.0223429 7.8216848 -0.24901646 834 68254750 5867 36 147 8389
-3.3449378 7.809288 -0.33230424 830 68254750 6003 37 72 8502
-3.6871336 7.8090744 -0.42039576 840 68254750 6281 38 199 8646
-4.0401554 7.8066473 -0.51130044 857 68254750 6647 39 77 8805
-2.931227 7.6036382 -0.54083234 905 68254750 6037 40 105 8167
-3.2418346 7.5780768 -0.62452155 891 68254750 6088 41 110 8266
-3.5764551 7.5801477 -0.71560156 845 68254750 5976 42 167 8412
-3.9213696 7.5871749 -0.8104856 907 68254750 6678 43 69 8579
-2.8480043 7.3954477 -0.81811827 908 68254750 5764 44 121 7967
-3.1503427 7.3723888 -0.9032495 881 68254750 5737 45 71 8068
-3.4710062 7.3666453 -0.99512607 908 68254750 6112 46 118 8204
-3.7958698 7.3487568 -1.0921561 915 68254750 6368 47 131 8343
-2.7556753 7.1736097 -1.078508 928 68254750 5589 48 93 7760
-3.0659845 7.1836481 -1.1718975 885 68254750 5523 49 71 7898
-3.3680182 7.1577878 -1.2643812 908 68254750 5829 50 73 8011
-3.6805499 7.1303816 -1.3618126 923 68254750 6115 51 99 8139
-2.6722264 6.9749155 -1.3312896 933 68254750 5371 52 113 7587
-2.9705272 6.9697595 -1.4237674 936 68254750 5564 53 82 7709
-3.2710888 6.9574647 -1.5206045 918 68254750 5639 54 91 7837
-3.5916233 6.9578047 -1.6300933 831 68254750 5318 55 79 7998
-2.6072254 6.8166461 -1.5832692 943 68254750 5258 56 139 7468
-2.889852 6.7903261 -1.6732377 897 68254750 5138 57 73 7567
-3.1894968 6.7873058 -1.7769203 894 68254750 5312 58 74 7707
-3.4862497 6.7551179 -1.8812258 939 68254750 5760 59 75 7831
-2.525178 6.6253405 -1.8195438 926 68254750 4960 60 54 7320
-2.8106799 6.6196799 -1.9178563 861 68254750 4768 61 48 7443
-3.0930457 6.5853405 -2.0171418 857 68254750 4882 62 54 7550
-3.3891306 6.5601912 -2.1300035 804 68254750 4746 63 47 7685
-4.0928259 10.775433 3.5978436 498 68351970 7267 0 70 12075
-4.5732059 10.784132 3.5158505 586 68351970 8769 1 89 12230
-5.0920415 10.854436 3.4716964 488 68351970 7596 2 48 12482
-5.6077943 10.86944 3.4165072 576 68351970 9282 3 55 12699
-3.9099357 10.27825 2.97067 656 68351970 8517 4 70 11391
-4.2919002 10.13308 2.8555984 949 68351970 12260 5 45 11369
-4.8762703 10.404877 2.8624327 490 68351970 6873 6 101 11842
-5.3607383 10.416443 2.800401 571 68351970 8287 7 89 12045
-3.7593727 9.8767509 2.4353521 634 68351970 7458 8 102 10845
-4.2040491 9.9150629 2.3690143 595 68351970 7237 9 96 11027
-4.656456 9.9498472 2.3062065 612 68351970 7718 10 58 11225
-5.123486 9.9768267 2.2451472 681 68351970 8905 11 37 11438
-3.6218998 9.5110836 1.9526691 711 68351970 7634 12 134 10363
-4.0357723 9.528368 1.8788375 660 68351970 7303 13 90 10517
-4.4744253 9.565671 1.8134741 649 68351970 7454 14 81 10715
-4.9221449 9.5905266 1.7500137 663 68351970 7913 15 61 10921
-3.5002213 9.1920385 1.5156487 704 68351970 6968 16 57 9952
-3.8820019 9.171113 1.4368706 694 68351970 7029 17 89 10062
-4.2940531 9.193018 1.3660841 705 68351970 7384 18 54 10238
-4.7330923 9.2360525 1.2976387 660 68351970 7222 19 89 10459
-3.3757081 8.8655157 1.1085275 706 68351970 6442 20 92 9551
-3.772136 8.9154596 1.0369525 538 68351970 5102 21 84 9736
-4.1493597 8.8941765 0.95695502 701 68351970 6820 22 79 9861
-4.5622439 8.9145432 0.88299334 714 68351970 7215 23 135 10053
-3.2616854 8.5710096 0.73430896 730 68351970 6183 24 66 9200
-3.6300938 8.5860052 0.65724337 743 68351970 6492 25 67 9345
-4.0297761 8.6386356 0.58085078 639 68351970 5827 26 123 9550
-4.4022546 8.6145277 0.49802977 761 68351970 7141 27 102 9687
-3.1576676 8.3098879 0.38641867 770 68351970 6100 28 76 8898
-3.5111306 8.3127184 0.30581549 749 68351970 6103 29 44 9029
-3.8739223 8.3250017 0.22649296 754 68351970 6365 30 58 9185
-4.2566619 8.3371649 0.13986325 795 68351970 6969 31 109 9362
-3.059984 8.0540886 0.060150541 768 68351970 5703 32 87 8616
-3.3907378 8.0359001 -0.022072982 799 68351970 6081 33 74 8722
-3.7481246 8.0572376 -0.10609095 716 68351970 5657 34 96 8887
-4.1154675 8.0734892 -0.19440877 814 68351970 6691 35 64 9064
-2.9657843 7.8176537 -0.24830408 756 68351970 5289 36 123 8365
-3.2876511 7.8075633 -0.33136618 860 68351970 6185 37 63 8478
-3.6340976 7.8206816 -0.41981229 856 68351970 6384 38 185 8634
-3.9758563 7.7992711 -0.50920993 868 68351970 6678 39 66 8769
-2.8718019 7.5878849 -0.53844833 919 68351970 6077 40 93 8131
-3.1813593 7.5647354 -0.62180167 828 68351970 5608 41 109 8230
-3.5147703 7.569416 -0.71253908 895 68351970 6277 42 133 8376
-3.8530619 7.5685086 -0.80595088 875 68351970 6370 43 87 8531
-2.7941306 7.3904533 -0.81565374 906 68351970 5717 44 110 7943
-3.1004288 7.3805861 -0.90190607 884 68351970 5740 45 67 8056
-3.4207289 7.3769984 -0.99367046 921 68351970 6181 46 124 8192
-3.7345228 7.3400993 -1.0874434 888 68351970 6126 47 134 8307
-2.711607 7.1903834 -1.078508 919 68351970 5535 48 95 7760
-3.008075 7.1694965 -1.1665559 884 68351970 5467 49 63 7862
-3.3090975 7.1460605 -1.2586993 933 68351970 5931 50 55 7975
-3.6206439 7.1211934 -1.3557892 927 68351970 6088 51 85 8103
-2.6210613 6.9690652 -1.3270783 955 68351970 5463 52 113 7563
-2.9231482 6.9769773 -1.4215512 913 68351970 5409 53 107 7697
-3.2233939 6.9667206 -1.5182762 891 68351970 5458 54 70 7825
-3.5435388 6.9692397 -1.6276478 774 68351970 4939 55 73 7986
-2.5447395 6.7776213 -1.5705488 940 68351970 5158 56 126 7408
-2.8390994 6.7863374 -1.6679307 920 68351970 5237 57 66 7543
-3.128186 6.7643552 -1.7658535 876 68351970 5140 58 75 7659
-3.4288998 6.7452302 -1.8725777 904 68351970 5494 59 84 7795
-2.4763324 6.6189375 -1.8135781 921 68351970 4901 60 47 7296
-2.7610774 6.6154003 -1.9116721 923 68351970 5078 61 56 7419
-3.047729 6.5936985 -2.0139358 845 68351970 4799 62 54 7538
-3.338356 6.5603113 -2.1233513 808 68351970 4743 63 87 7661
-4.0026221 10.735943 3.5763905 529 68448630 7626 0 75 12003
-4.4759946 10.737729 3.4917023 629 68448630 9282 1 99 12146
-5.0011878 10.83315 3.4550083 534 68448630 8234 2 42 12422
-5.5305228 10.883038 3.4100502 597 68448630 9584 3 56 12675
-3.830586 10.258636 2.9581521 611 68448630 7864 4 86 11343
-4.2385731 10.180671 2.8616266 773 68448630 10029 5 37 11393
-4.792829 10.392305 2.8508301 312 68448630 4345 6 74 11794
-5.2650614 10.386679 2.7836611 668 68448630 9582 7 67 11973
-3.6864216 9.8667707 2.4272683 628 68448630 7340 8 89 10809
-4.1160803 9.8757658 2.3535461 606 68448630 7277 9 76 10955
-4.5658417 9.9142294 2.291414 676 68448630 8403 10 57 11153
-5.0303073 9.945076 2.2310143 642 68448630 8289 11 39 11366
-3.546967 9.4889717 1.9436246 699 68448630 7436 12 130 10315
-3.9545414 9.4984522 1.8681188 697 68448630 7625 13 88 10457
-4.4008121 9.5607157 1.8073814 624 68448630 7117 14 104 10679
-4.8364873 9.5676918 1.740399 647 68448630 7635 15 85 10861
-3.4312966 9.1800146 1.510166 632 68448630 6211 16 44 9916
-3.8165307 9.1728287 1.4334433 691 68448630 6966 17 81 10038
-4.2176976 9.1759691 1.3596792 658 68448630 6835 18 78 10190
-4.6441398 9.2011395 1.2887056 684 68448630 7382 19 92 10387
-3.308728 8.8525686 1.1043493 693 68448630 6276 20 97 9515
-3.694452 8.8833523 1.030562 636 68448630 5957 21 82 9676
-4.0697937 8.8651981 0.95113236 686 68448630 6593 22 82 9801
-4.4751768 8.8783236 0.87666935 695 68448630 6924 23 112 9981
-3.2006619 8.5684509 0.73239332 698 68448630 5880 24 78 9176
-3.5635614 8.5749559 0.65471143 730 68448630 6329 25 76 9309
-3.9417167 8.5869989 0.57574171 717 68448630 6425 26 102 9466
-4.3223753 8.5878544 0.49494508 697 68448630 6459 27 119 9627
-3.0982401 8.3066406 0.38537639 814 68448630 6413 28 75 8874
-3.4462626 8.3008757 0.30459616 728 68448630 5884 29 47 8993
-3.8027906 8.304986 0.22530931 757 68448630 6316 30 51 9137
-4.1838641 8.3202477 0.13914616 806 68448630 6996 31 70 9314
-3.0021214 8.0502253 0.059982989 787 68448630 5813 32 68 8592
-3.3367693 8.0454702 -0.022042612 818 68448630 6209 33 72 8710
-3.6986156 8.0800838 -0.10609095 751 68448630 5933 34 95 8887
-4.038938 8.04498 -0.19312188 816 68448630 6618 35 77 9004
-2.9135747 7.8244634 -0.24794787 838 68448630 5846 36 127 8353
-3.2259262 7.7943506 -0.32995909 836 68448630 5961 37 71 8442
-3.5611219 7.7883306 -0.41689488 850 68448630 6251 38 192 8574
-3.917176 7.8021083 -0.50781631 862 68448630 6595 39 73 8745
-2.8168502 7.5829144 -0.53685898 909 68448630 5974 40 110 8107
-3.1394539 7.5951719 -0.62270832 376 68448630 2556 41 85 8242
-3.4483836 7.547339 -0.70845568 901 68448630 6246 42 156 8328
-3.7851326 7.5492916 -0.80141622 911 68448630 6552 43 56 8483
-2.7528837 7.4186497 -0.81688601 676 68448630 4278 44 116 7955
-3.0459824 7.3774271 -0.89921916 890 68448630 5745 45 64 8032
-3.3556223 7.3545012 -0.9878481 905 68448630 6003 46 121 8144
-3.6787553 7.3416033 -1.0843016 899 68448630 6167 47 131 8283
-2.655062 7.1734524 -1.0735046 944 68448630 5633 48 93 7724
-2.9549789 7.1658769 -1.1629947 868 68448630 5335 49 72 7838
-3.2553616 7.1446638 -1.2549113 891 68448630 5634 50 99 7951
-3.5715837 7.1326962 -1.3537813 960 68448630 6287 51 85 8091
-2.5823414 6.9960999 -1.3291839 832 68448630 4775 52 101 7575
-2.8757927 6.9838767 -1.4193349 877 68448630 5181 53 91 7685
-3.1659536 6.9542265 -1.5112911 918 68448630 5571 54 78 7789
-3.4796686 6.948832 -1.6178646 885 68448630 5579 55 68 7938
-2.5031047 6.793108 -1.5705488 958 68448630 5257 56 113 7408
-2.7929554 6.7928061 -1.6652772 929 68448630 5271 57 62 7531
-3.0817857 6.7727938 -1.7630868 880 68448630 5148 58 68 7647
-3.3822324 6.7557263 -1.8696949 930 68448630 5636 59 62 7783
-2.4396789 6.6449189 -1.816561 858 68448630 4580 60 56 7308
-2.7028334 6.5893083 -1.8993039 891 68448630 4839 61 50 7371
-2.9928515 6.5806961 -2.0043178 839 68448630 4724 62 78 7502
-3.2928739 6.5703635 -2.1200254 804 68448630 4706 63 81 7649
-3.9248657 10.728027 3.5656643 536 68547380 7680 0 84 11967
-4.4013104 10.74372 3.484803 514 68547380 7557 1 84 12122
-4.9060206 10.800665 3.4349825 565 68547380 8625 2 61 12350
-5.4119153 10.813414 3.3777659 590 68547380 9293 3 54 12555
-3.7516248 10.238437 2.9456339 622 68547380 7939 4 84 11295
-4.171627 10.195736 2.8586125 592 68547380 7661 5 55 11381
-4.6760454 10.304879 2.8189232 139 68547380 1895 6 76 11662
-5.1595273 10.335251 2.7613418 647 68547380 9133 7 64 11877
-3.6177602 9.8672466 2.4218786 660 68547380 7681 8 76 10785
-4.0465217 9.8791447 2.3483901 631 68547380 7543 9 87 10931
-4.4806876 9.8885717 2.2790866 633 68547380 7795 10 67 11093
-4.9482055 9.9336262 2.2215927 621 68547380 7949 11 46 11318
-3.4724426 9.4663 1.9345801 710 68547380 7485 12 110 10267
-3.8917143 9.511611 1.865975 594 68547380 6486 13 59 10445
-4.3127904 9.5228968 1.7951955 603 68547380 6784 14 108 10607
-4.7460175 9.5335665 1.7288616 683 68547380 7944 15 54 10789
-3.3585677 9.1563568 1.5028558 703 68547380 6850 16 65 9868
-3.7511857 9.1740875 1.4300162 706 68547380 7082 17 92 10014
-4.1515145 9.1800032 1.3564768 653 68547380 6752 18 75 10166
-4.5716953 9.1974754 1.2842392 685 68547380 7343 19 73 10351
-3.2420344 8.8391333 1.1001709 723 68547380 6497 20 110 9479
-3.6263328 8.8727188 1.0267278 637 68547380 5921 21 103 9640
-4.0054889 8.8682337 0.94880331 722 68547380 6906 22 63 9777
-4.3993568 8.8627863 0.87245327 706 68547380 6964 23 142 9933
-3.1356759 8.5542355 0.72951996 701 68547380 5858 24 88 9140
-3.4927766 8.5523338 0.6513356 731 68547380 6272 25 73 9261
-3.8741634 8.5782747 0.57355213 684 68547380 6081 26 126 9430
-4.2536335 8.5820017 0.49309421 743 68547380 6835 27 103 9591
-3.0348513 8.2917194 0.38381299 785 68547380 6135 28 77 8838
-3.3862038 8.2996578 0.3037833 707 68547380 5683 29 53 8969
-3.7369788 8.2953501 0.22442161 734 68547380 6083 30 66 9101
-4.1061106 8.2920008 0.1382498 817 68547380 7001 31 60 9254
-2.9402986 8.0346889 0.05973167 774 68547380 5668 32 80 8556
-3.2692246 8.0213432 -0.021921139 791 68547380 5936 33 100 8662
-3.6144776 8.0260401 -0.10508818 757 68547380 5868 34 94 8803
-3.9788651 8.0481014 -0.1926071 802 68547380 6470 35 71 8980
-2.8531599 7.8083944 -0.24687926 847 68547380 5857 36 151 8317
-3.1644876 7.7806754 -0.32855201 856 68547380 6051 37 82 8406
-3.5034323 7.7881727 -0.41572791 851 68547380 6223 38 198 8550
-3.86392 7.8152575 -0.50711948 726 68547380 5539 39 90 8733
-2.7579677 7.5663066 -0.53447497 929 68547380 6052 40 106 8071
-3.0612707 7.5366893 -0.6163618 784 68547380 5218 41 110 8158
-3.3971069 7.5574503 -0.70743489 864 68547380 5973 42 148 8316
-3.7334509 7.5616627 -0.80028254 922 68547380 6618 43 81 8471
-2.7277315 7.4914823 -0.82304734 91 68547380 586 44 93 8015
-2.9827256 7.3517785 -0.89384526 877 68547380 5593 45 60 7984
-3.3104327 7.3749528 -0.9878481 832 68547380 5520 46 102 8144
-3.6389031 7.3747063 -1.0858725 792 68547380 5450 47 111 8295
-2.6028833 7.1672688 -1.070169 909 68547380 5390 48 112 7700
-2.8975842 7.150878 -1.1576532 899 68547380 5475 49 69 7802
-3.1969209 7.1320653 -1.2492294 892 68547380 5591 50 63 7915
-3.5120547 7.1226435 -1.3477578 922 68547380 5984 51 90 8055
-2.5313201 6.9895978 -1.3249727 879 68547380 5013 52 92 7551
-2.8151925 6.9576607 -1.4104699 937 68547380 5466 53 97 7637
-3.1136 6.952034 -1.5066345 914 68547380 5513 54 72 7765
-3.4213789 6.9384422 -1.6105274 928 68547380 5797 55 65 7902
-2.4534016 6.7862811 -1.5654606 955 68547380 5205 56 147 7384
-2.7336879 6.7664123 -1.6546633 903 68547380 5059 57 64 7483
-3.0401704 6.7915759 -1.7630868 815 68547380 4763 58 57 7647
-3.325264 6.7450085 -1.8610467 936 68547380 5620 59 74 7747
-2.3831043 6.6160207 -1.8046296 903 68547380 4758 60 45 7260
-2.6623511 6.6057682 -1.8993039 894 68547380 4855 61 53 7371
-2.9524169 6.5989361 -2.0043178 833 68547380 4686 62 46 7502
-3.2371891 6.5594268 -2.1100476 800 68547380 4634 63 55 7613
-3.8318784 10.676437 3.5406356 502 68643170 7095 0 62 11883
-4.3138471 10.717213 3.4675541 607 68643170 8834 1 99 12062
-4.8020368 10.746376 3.4082813 526 68643170 7891 2 55 12254
-5.325027 10.80495 3.3648522 589 68643170 9208 3 44 12507
-3.6730566 10.217657 2.9331162 605 68643170 7656 4 90 11247
-4.1219864 10.253472 2.8676548 473 68643170 6171 5 61 11417
-4.5937424 10.290845 2.8073208 154 68643170 2079 6 99 11614
-5.0908656 10.35624 2.7585518 647 68643170 9112 7 83 11865
-3.5373583 9.8342419 2.4084051 655 68643170 7538 8 73 10725
-3.9595742 9.8385534 2.3329215 617 68643170 7278 9 92 10859
-4.3960218 9.8622465 2.2667596 673 68643170 8188 10 48 11033
-4.8612523 9.9109793 2.2098153 687 68643170 8702 11 47 11258
-3.406312 9.46525 1.9300578 690 68643170 7241 12 103 10243
-3.8068552 9.4695807 1.8531122 673 68643170 7244 13 93 10373
-4.2350264 9.5059681 1.7870718 612 68643170 6825 14 90 10559
-4.6561503 9.4986935 1.7173241 675 68643170 7758 15 58 10717
-3.2902749 9.1433144 1.4973732 722 68643170 6976 16 49 9832
-3.6726856 9.1418266 1.421448 692 68643170 6860 17 81 9954
-4.0709395 9.1509743 1.3484709 668 68643170 6823 18 102 10106
-4.4890022 9.1718779 1.276795 658 68643170 6970 19 96 10291
-3.1796668 8.8364305 1.0973854 704 68643170 6296 20 92 9455
-3.5540376 8.8505135 1.0216154 697 68643170 6416 21 76 9592
-3.9316015 8.8489857 0.94414514 681 68643170 6451 22 63 9729
-4.339644 8.8788738 0.87139928 643 68643170 6328 23 128 9921
-3.0669374 8.5282898 0.72568876 708 68643170 5855 24 82 9092
-3.4357769 8.5624943 0.6504916 750 68643170 6418 25 85 9249
-3.8020034 8.5580997 0.57063264 713 68643170 6275 26 121 9382
-4.1798711 8.5648594 0.49062642 739 68643170 6729 27 118 9543
-2.9717627 8.2763348 0.38224959 790 68643170 6124 28 72 8802
-3.3262897 8.2980146 0.30297041 674 68643170 5390 29 37 8945
-3.6714287 8.2852201 0.22353387 772 68643170 6348 30 58 9065
-4.0498962 8.3062534 0.13807052 760 68643170 6488 31 54 9242
-2.8909433 8.0525789 0.05973167 780 68643170 5711 32 97 8556
-3.219945 8.0412521 -0.021921139 767 68643170 5756 33 111 8662
-3.5651627 8.0480671 -0.10508818 722 68643170 5597 34 96 8803
-3.9084044 8.0292158 -0.19157757 798 68643170 6366 35 112 8932
-2.8011472 7.8144631 -0.24652305 780 68643170 5379 36 132 8305
-3.1077883 7.7776761 -0.32761395 843 68643170 5920 37 47 8382
-3.4410291 7.7766404 -0.41397747 880 68643170 6375 38 169 8514
-3.79492 7.7957335 -0.50433213 832 68643170 6277 39 105 8685
-2.7074583 7.5718122 -0.53368032 899 68643170 5839 40 114 8059
-3.0460131 7.6331258 -0.62270832 273 68643170 1856 41 97 8242
-3.3361666 7.5453472 -0.70437247 896 68643170 6141 42 131 8280
-3.671314 7.552196 -0.7968815 910 68643170 6478 43 65 8435
-2.6536081 7.4293909 -0.81442147 209 68643170 1316 44 94 7931
-2.9287298 7.3477879 -0.8911584 860 68643170 5452 45 72 7960
-3.2362523 7.3297477 -0.97911477 890 68643170 5801 46 93 8072
-3.5675912 7.3433919 -1.0780182 894 68643170 6062 47 125 8235
-2.5468936 7.1495218 -1.0651656 937 68643170 5504 48 114 7664
-2.8448744 7.146471 -1.1540921 893 68643170 5405 49 60 7778
-3.1435382 7.1298618 -1.2454414 874 68643170 5445 50 58 7891
-3.4682848 7.1440592 -1.3477578 864 68643170 5609 51 69 8055
-2.4725668 6.9604683 -1.3165501 931 68643170 5241 52 127 7503
-2.7637353 6.9528842 -1.4060373 905 68643170 5246 53 98 7613
-3.061393 6.9494619 -1.5019777 910 68643170 5455 54 78 7741
-3.358217 6.9170313 -1.6007445 896 68643170 5530 55 59 7854
-2.4077961 6.7901545 -1.5629165 919 68643170 4994 56 109 7372
-2.6878011 6.7721806 -1.6520098 887 68643170 4953 57 63 7471
-2.9890304 6.7887287 -1.7575532 794 68643170 4616 58 59 7623
-3.2685552 6.7338471 -1.8523985 890 68643170 5293 59 90 7711
-2.3424642 6.6305184 -1.8046296 912 68643170 4805 60 54 7260
-2.6089642 6.5896382 -1.8900278 890 68643170 4786 61 45 7335
-2.89324 6.5745902 -1.9914935 818 68643170 4547 62 69 7454
-3.1968803 6.5791664 -2.1100476 740 68643170 4291 63 62 7613
-3.7586901 10.678138 3.5334845 493 68741110 6937 0 88 11859
-4.2226491 10.679351 3.4468558 624 68741110 8975 1 86 11990
-4.73137 10.765086 3.4049437 545 68741110 8161 2 51 12242
-5.2283559 10.775031 3.3454814 628 68741110 9704 3 50 12435
-3.598737 10.207225 2.9237275 633 68741110 7961 4 71 11211
-4.0504618 10.256964 2.8616266 472 68741110 6131 5 70 11393
-4.497745 10.244205 2.7870164 156 68741110 2078 6 84 11530
-4.9967184 10.324249 2.741812 656 68741110 9129 7 69 11793
-3.4652789 9.8226795 2.4003208 667 68741110 7623 8 93 10689
-3.8905137 9.8408661 2.3277655 614 68741110 7210 9 104 10835
-4.3259945 9.8675222 2.2618287 595 68741110 7216 10 74 11009
-4.7696476 9.8770466 2.1956825 670 68741110 8378 11 50 11186
-3.3324804 9.4415207 1.9210134 685 68741110 7120 12 113 10195
-3.7443426 9.4817791 1.8509685 671 68741110 7206 13 97 10361
-4.1623788 9.4992771 1.7809789 628 68741110 6957 14 80 10523
-4.5926313 9.5164165 1.7154013 631 68741110 7236 15 59 10705
-3.2143743 9.1074114 1.4882355 691 68741110 6596 16 41 9772
-3.6034436 9.1310453 1.4163071 681 68741110 6701 17 97 9918
-4.0051794 9.1539898 1.3452685 686 68741110 6976 18 80 10082
-4.4171338 9.1670685 1.2723285 653 68741110 6870 19 86 10255
-3.1174543 8.8332949 1.0945998 726 68741110 6460 20 84 9431
-3.4821522 8.8277569 1.0165032 658 68741110 5996 21 89 9544
-3.8628845 8.8401108 0.9406516 712 68741110 6693 22 81 9693
-4.2539845 8.8407059 0.86507529 713 68741110 6917 23 119 9849
-3.0065939 8.5243874 0.72377318 715 68741110 5882 24 85 9068
-3.3612263 8.5277319 0.64627171 770 68741110 6503 25 88 9189
-3.7302377 8.537365 0.5677132 740 68741110 6448 26 99 9334
-4.1064801 8.5471373 0.48815867 752 68741110 6781 27 93 9495
-2.9049954 8.2491817 0.3801651 799 68741110 6127 28 67 8754
-3.2665234 8.295949 0.30215752 737 68741110 5861 29 57 8921
-3.606144 8.2746 0.22264615 787 68741110 6413 30 41 9029
-3.9780848 8.2876787 0.13735342 753 68741110 6367 31 98 9194
-2.8374939 8.0588474 0.059647892 735 68741110 5367 32 96 8544
-3.1485822 8.0050211 -0.021769295 774 68741110 5729 33 96 8602
-3.5013359 8.0367899 -0.10465842 775 68741110 5959 34 85 8767
-3.8383262 8.0097694 -0.19054806 809 68741110 6387 35 74 8884
-2.7451897 7.8088713 -0.24581064 762 68741110 5224 36 140 8281
-3.0468645 7.7631135 -0.32620692 859 68741110 5987 37 63 8346
-3.383683 7.7756281 -0.41281056 874 68741110 6302 38 186 8490
-3.731483 7.7864618 -0.50224161 816 68741110 6107 39 84 8649
-2.6530232 7.5656848 -0.53209108 923 68741110 5960 40 100 8035
-2.9510872 7.5291266 -0.61273527 636 68741110 4183 41 109 8110
-3.2802706 7.543746 -0.70233077 912 68741110 6216 42 106 8256
-3.6094346 7.5422525 -0.7934804 929 68741110 6557 43 65 8399
-2.5645664 7.3216128 -0.80086666 604 68741110 3675 44 99 7799
-2.8835893 7.3656201 -0.8911584 870 68741110 5515 45 65 7960
-3.1864727 7.338541 -0.97765917 923 68741110 5998 46 95 8060
-3.507067 7.3329463 -1.0733055 882 68741110 5928 47 126 8199
-2.4990578 7.1537957 -1.0634978 954 68741110 5587 48 102 7652
-2.7923281 7.1416874 -1.1505309 893 68741110 5366 49 56 7754
-3.0950172 7.138144 -1.2435474 920 68741110 5708 50 55 7879
-3.3988769 7.1118336 -1.3377187 948 68741110 6062 51 83 7995
-2.4259255 6.9643526 -1.3144444 939 68741110 5270 52 111 7491
-2.716732 6.9587255 -1.403821 903 68741110 5219 53 77 7601
-3.014015 6.957314 -1.4996494 904 68741110 5402 54 78 7729
-3.3055797 6.916307 -1.595853 921 68741110 5644 55 53 7830
-2.354533 6.7715707 -1.5552843 920 68741110 4951 56 110 7336
-2.6376967 6.7667379 -1.646703 877 68741110 4865 57 82 7447
-2.9241211 6.7533641 -1.7437197 889 68741110 5082 58 56 7563
-3.2171309 6.7327547 -1.8466331 894 68741110 5284 59 90 7687
-2.2941272 6.6228008 -1.7986639 886 68741110 4642 60 60 7236
-2.5684819 6.6055226 -1.8900278 889 68741110 4781 61 50 7335
-2.8436592 6.5709939 -1.9850813 828 68741110 4568 62 56 7430
-3.1365497 6.557054 -2.0967438 780 68741110 4466 63 64 7565
-3.6781516 10.657687 3.5191827 540 68838340 7537 0 81 11811
-4.1445608 10.672917 3.4365065 613 68838340 8764 1 82 11954
-4.6286435 10.70927 3.3782427 558 68838340 8239 2 61 12146
-5.1272721 10.733907 3.3228822 588 68838340 8963 3 55 12351
-3.5208991 10.185318 2.9112096 638 68838340 7953 4 89 11163
-3.9664507 10.227477 2.8465562 602 68838340 7726 5 46 11333
-4.434803 10.27161 2.7870164 137 68838340 1825 6 80 11530
-4.8981371 10.280959 2.7222826 659 68838340 9038 7 86 11709
-3.3934755 9.8106041 2.3922367 635 68838340 7209 8 89 10653
-3.8130908 9.8208523 2.3174534 632 68838340 7357 9 83 10787
-4.2421203 9.8399572 2.2495015 680 68838340 8147 10 49 10949
-4.6887469 9.8636189 2.1862607 680 68838340 8429 11 56 11138
-3.2706313 9.450654 1.9187523 624 68838340 6470 12 123 10183
-3.6690164 9.4605436 1.8423935 698 68838340 7427 13 86 10313
-4.0759335 9.4594679 1.7687931 643 68838340 7025 14 84 10451
-4.5036573 9.4802227 1.7038636 666 68838340 7532 15 85 10633
-3.1506746 9.1045475 1.4845803 705 68838340 6696 16 44 9748
-3.5301809 9.1086874 1.4094527 679 68838340 6618 17 76 9870
-3.9254351 9.1237698 1.3372625 679 68838340 6824 18 66 10022
-4.3454943 9.1617241 1.2678621 663 68838340 6926 19 85 10219
-3.0515025 8.8184662 1.0904216 695 68838340 6136 20 103 9395
-3.4106803 8.8044519 1.0113908 720 68838340 6495 21 90 9496
-3.7849946 8.8087797 0.93482888 666 68838340 6183 22 83 9633
-4.1843081 8.8342323 0.86191326 715 68838340 6885 23 127 9813
-2.9503233 8.5313702 0.72281539 724 68838340 5941 24 73 9056
-3.3045168 8.5370321 0.64542776 727 68838340 6126 25 72 9177
-3.6588702 8.5160713 0.56479377 713 68838340 6149 26 101 9286
-4.0334644 8.5288382 0.48569086 771 68838340 6882 27 92 9447
-2.8504121 8.2555189 0.37964395 796 68838340 6087 28 60 8742
-3.1939318 8.2599058 0.30012527 709 68838340 5570 29 63 8861
-3.5364037 8.2524652 0.22146252 775 68838340 6248 30 41 8981
-3.9117804 8.2793856 0.13681559 801 68838340 6720 31 89 9158
-2.7644978 8.0080481 0.059145238 808 68838340 5801 32 91 8472
-3.0907576 8.0018015 -0.021708557 803 68838340 5911 33 84 8578
-3.4425073 8.0360622 -0.10437191 773 68838340 5911 34 87 8743
-3.783989 8.0223198 -0.19029067 843 68838340 6636 35 104 8872
-2.6815896 7.7802091 -0.24438584 847 68838340 5740 36 135 8233
-3.0034859 7.7928514 -0.32667595 803 68838340 5613 37 65 8358
-3.3217635 7.763185 -0.41106009 890 68838340 6363 38 189 8454
-3.658082 7.7550378 -0.49875748 839 68838340 6192 39 82 8589
-2.5987656 7.5591745 -0.53050172 931 68838340 5976 40 94 8011
-2.9177284 7.5805941 -0.61545521 699 68838340 4640 41 89 8146
-3.2245202 7.5417433 -0.70028907 856 68838340 5800 42 125 8232
-3.5376348 7.5102215 -0.78781205 915 68838340 6365 43 77 8339
-2.5544846 7.4388165 -0.811957 207 68838340 1294 44 126 7907
-2.8212247 7.3386526 -0.88578457 894 68838340 5598 45 84 7912
-3.1320302 7.3360448 -0.97474802 970 68838340 6266 46 93 8036
-3.4417386 7.3112721 -1.0670218 892 68838340 5925 47 140 8151
-2.4435654 7.1352673 -1.0584944 959 68838340 5563 48 97 7616
-2.748455 7.1586866 -1.1505309 865 68838340 5204 49 58 7754
-3.032572 7.113399 -1.2359717 891 68838340 5466 50 71 7831
-3.3501396 7.1218491 -1.3357109 945 68838340 6025 51 73 7983
-2.3755124 6.9567471 -1.3102332 936 68838340 5219 52 106 7467
-2.66554 6.9532394 -1.3993884 906 68838340 5203 53 80 7577
-2.9574294 6.9431849 -1.4926643 898 68838340 5315 54 113 7693
-3.253078 6.9151983 -1.5909613 926 68838340 5640 55 52 7806
-2.3091557 6.7747898 -1.5527401 899 68838340 4822 56 113 7324
-2.5877602 6.7609358 -1.641396 876 68838340 4828 57 89 7423
-2.8734808 6.7496924 -1.7381864 900 68838340 5112 58 49 7539
-3.1608863 6.7207456 -1.8379849 915 68838340 5357 59 90 7651
-2.2459731 6.6147404 -1.7926981 917 68838340 4772 60 65 7212
-2.5113602 6.5778294 -1.8776594 898 68838340 4767 61 36 7287
-2.7987592 6.5776777 -1.9818753 837 68838340 4608 62 66 7418
-3.0913458 6.5657444 -2.0934179 822 68838340 4692 63 59 7553
-3.5906649 10.614949 3.4977295 526 68936780 7254 0 65 11739
-4.0544271 10.633712 3.4158084 629 68936780 8885 1 82 11882
-4.5493217 10.705645 3.3682299 539 68936780 7910 2 68 12110
-5.0416436 10.723328 3.3099685 647 68936780 9801 3 58 12303
-3.4471843 10.173815 2.9018211 546 68936780 6762 4 92 11127
-3.8829546 10.197348 2.8314857 613 68936780 7784 5 48 11273
-4.3443942 10.234318 2.7696126 121 68936780 1591 6 95 11458
-4.8151412 10.268552 2.7111228 664 68936780 9034 7 72 11661
-3.3181961 9.7869434 2.3814578 657 68936780 7390 8 104 10605
-3.7360604 9.8002596 2.3071411 555 68936780 6406 9 69 10739
-4.1587486 9.811738 2.2371745 650 68936780 7713 10 60 10889
-4.6032047 9.838913 2.1744833 690 68936780 8463 11 46 11078
-3.1974382 9.4259024 1.9097077 682 68936780 7004 12 130 10135
-3.5898905 9.4277077 1.8316746 656 68936780 6899 13 86 10253
-4.0085878 9.4625196 1.7647312 634 68936780 6895 14 89 10427
-4.4303522 9.4754877 1.6980948 652 68936780 7325 15 73 10597
-3.0795121 9.0787821 1.4772702 713 68936780 6714 16 59 9700
-3.4700005 9.1190758 1.407739 633 68936780 6156 17 63 9858
-3.8554795 9.1148243 1.3324589 675 68936780 6734 18 75 9986
-4.2539396 9.1126871 1.2574402 708 68936780 7275 19 93 10135
-2.9820223 8.7918739 1.0848504 675 68936780 5899 20 99 9347
-3.3523512 8.8140612 1.0101126 695 68936780 6255 21 67 9484
-3.7215784 8.8098345 0.93249983 641 68936780 5921 22 90 9609
-4.1098213 8.8164024 0.85769719 717 68936780 6836 23 132 9765
-2.8864002 8.5153265 0.71994203 761 68936780 6196 24 60 9020
-3.2350626 8.5123901 0.64205194 755 68936780 6292 25 107 9129
-3.5972264 8.5162935 0.56333399 732 68936780 6280 26 93 9262
-3.9709427 8.5316973 0.48445696 758 68936780 6731 27 103 9423
-2.7843311 8.2274294 0.37755942 822 68936780 6217 28 66 8694
-3.1346769 8.2569246 0.29931241 715 68936780 5580 29 52 8837
-3.4763861 8.2518978 0.2208707 769 68936780 6167 30 40 8957
-3.8406694 8.2597122 0.13609852 811 68936780 6733 31 81 9110
-2.7037714 7.9907608 0.058893919 805 68936780 5731 32 78 8436
-3.0288365 7.9869556 -0.021617452 831 68936780 6066 33 76 8542
-3.3884768 8.0459757 -0.10422865 640 68936780 4881 34 95 8731
-3.7144878 8.0018587 -0.18926114 807 68936780 6285 35 85 8824
-2.626123 7.7737889 -0.24367343 843 68936780 5678 36 152 8209
-2.9343956 7.7550592 -0.32433081 820 68936780 5650 37 67 8298
-3.2647722 7.7613244 -0.40989316 868 68936780 6170 38 195 8430
-3.5902519 7.7338729 -0.49597013 840 68936780 6125 39 55 8541
-2.5485113 7.5636306 -0.52970707 926 68936780 5926 40 100 7999
-2.8500118 7.5423875 -0.61092204 873 68936780 5708 41 104 8086
-3.2106147 7.6385436 -0.70743489 213 68936780 1471 42 143 8316
-3.4864621 7.5209479 -0.78667837 931 68936780 6458 43 66 8327
-2.4745257 7.3525329 -0.80086666 569 68936780 3461 44 120 7799
-2.7677217 7.3335128 -0.88309765 869 68936780 5409 45 72 7888
-3.0731289 7.3221745 -0.97038126 910 68936780 5826 46 96 8000
-3.3868115 7.3106642 -1.0638802 907 68936780 5988 47 148 8127
-2.3921762 7.1275945 -1.0551589 929 68936780 5356 48 93 7592
-2.6877367 7.1309977 -1.1434088 877 68936780 5210 49 68 7706
-2.993448 7.1428013 -1.2378656 808 68936780 4968 50 48 7843
-3.2864974 7.0993261 -1.3276795 902 68936780 5681 51 90 7935
-2.3252838 6.9487853 -1.3060219 936 68936780 5185 52 124 7443
-2.610364 6.9363508 -1.3927397 931 68936780 5297 53 68 7541
-2.9011312 6.9286256 -1.4856794 837 68936780 4909 54 90 7657
-3.2056501 6.9243674 -1.5885156 908 68936780 5518 55 79 7794
-2.256397 6.7554622 -1.545108 943 68936780 5009 56 107 7288
-2.5379949 6.754776 -1.636089 898 68936780 4918 57 79 7399
-2.8275034 6.7564249 -1.7354196 890 68936780 5045 58 63 7527
-3.1049104 6.7083001 -1.8293366 940 68936780 5453 59 72 7615
-2.1980045 6.6063385 -1.7867323 918 68936780 4741 60 57 7188
-2.4750211 6.6039724 -1.8807515 786 68936780 4185 61 48 7299
-2.7494226 6.5733905 -1.9754633 819 68936780 4480 62 70 7394
-3.0364587 6.5532045 -2.0834398 803 68936780 4540 63 64 7517
-3.5182574 10.615034 3.4905787 581 69034820 7978 0 74 11715
-3.9729886 10.615332 3.4020092 607 69034820 8503 1 100 11834
-4.4480047 10.64827 3.3415289 472 69034820 6806 2 56 12014
-4.9466329 10.691126 3.2905977 574 69034820 8581 3 47 12231
-3.3627923 10.128806 2.8830442 649 69034820 7933 4 101 11055
-3.7959116 10.1557 2.813401 652 69034820 8174 5 52 11201
-4.268064 10.228543 2.760911 109 69034820 1426 6 83 11422
-4.717813 10.223723 2.6915934 645 69034820 8650 7 72 11577
-3.2396486 9.7516336 2.3679841 651 69034820 7241 8 93 10545
-3.6553195 9.768117 2.294251 622 69034820 7097 9 86 10679
-4.0849166 9.8045483 2.2297781 652 69034820 7685 10 66 10853
-4.5279856 9.8349085 2.167417 672 69034820 8188 11 53 11042
-3.1246729 9.4006109 1.9006634 666 69034820 6776 12 121 10087
-3.5237079 9.4274378 1.827387 689 69034820 7213 13 83 10229
-3.9322662 9.4432659 1.7566074 601 69034820 6476 14 95 10379
-4.3523245 9.4594517 1.6904033 549 69034820 6104 15 46 10549
-3.0162663 9.0749979 1.4736151 711 69034820 6661 16 64 9676
-3.3932025 9.0845642 1.3991709 683 69034820 6558 17 109 9798
-3.7812166 9.0943851 1.3260542 671 69034820 6630 18 72 9938
-4.1880045 9.1169767 1.2544626 669 69034820 6842 19 86 10111
-2.916743 8.7760754 1.0806721 737 69034820 6391 20 97 9311
-3.2815135 8.789753 1.0050005 674 69034820 6002 21 100 9436
-3.6582921 8.8104429 0.93017071 703 69034820 6463 22 65 9585
-4.0307283 8.7871294 0.85242718 728 69034820 6856 23 137 9705
-2.819015 8.4874687 0.71611083 741 69034820 5968 24 73 8972
-3.1744032 8.5096493 0.64036393 718 69034820 5954 25 83 9105
-3.5311253 8.5050201 0.56114447 721 69034820 6138 26 100 9226
-3.9085381 8.5341101 0.48322305 720 69034820 6360 27 113 9399
-2.7300227 8.2329788 0.37703827 801 69034820 6042 28 59 8682
-3.0713909 8.2422876 0.29809308 733 69034820 5674 29 51 8801
-3.4165089 8.250906 0.22027889 742 69034820 5918 30 48 8933
-3.7649553 8.2285681 0.13520214 824 69034820 6750 31 97 9050
-2.6471376 7.9844203 0.058726367 787 69034820 5570 32 98 8412
-2.9672141 7.9716511 -0.021526346 848 69034820 6138 33 83 8506
-3.3252766 8.0333557 -0.1037989 715 69034820 5408 34 88 8695
-3.645381 7.9808483 -0.18823162 827 69034820 6371 35 76 8776
-2.563298 7.7442074 -0.24224859 829 69034820 5521 36 125 8161
-2.878407 7.7504368 -0.32339275 842 69034820 5768 37 61 8274
-3.2079291 7.7590575 -0.40872619 881 69034820 6228 38 186 8406
-3.5327752 7.733963 -0.49457645 886 69034820 6429 39 87 8517
-2.490793 7.5450153 -0.52732307 856 69034820 5428 40 102 7963
-2.7953575 7.5372949 -0.60910875 910 69034820 5916 41 81 8062
-3.1225982 7.5586438 -0.69824743 276 69034820 1858 42 144 8208
-3.4303331 7.5204606 -0.78441101 918 69034820 6325 43 57 8303
-2.3882473 7.2428799 -0.78731179 898 69034820 5279 44 115 7667
-2.7143879 7.3279929 -0.88041073 913 69034820 5649 45 71 7864
-3.0190587 7.3188705 -0.96747017 903 69034820 5745 46 112 7976
-3.3369558 7.3204823 -1.0623094 868 69034820 5715 47 122 8115
-2.3446851 7.1308494 -1.053491 958 69034820 5505 48 96 7580
-2.6356969 7.1250949 -1.1398476 886 69034820 5230 49 77 7682
-2.9315126 7.1172085 -1.2302898 861 69034820 5234 50 64 7795
-3.2330663 7.0978251 -1.3236638 930 69034820 5823 51 73 7911
-2.2752428 6.9404697 -1.3018106 922 69034820 5076 52 94 7419
-2.555496 6.9190478 -1.3860909 931 69034820 5245 53 81 7505
-2.8496034 6.9245234 -1.4810226 914 69034820 5327 54 70 7633
-3.1533628 6.9225245 -1.5836241 909 69034820 5491 55 64 7770
-2.211257 6.7580338 -1.5425638 952 69034820 5039 56 122 7276
-2.4884026 6.7482615 -1.6307821 896 69034820 4876 57 62 7375
-2.7726688 6.74125 -1.7271194 875 69034820 4907 58 57 7491
-3.0636907 6.7272248 -1.8293366 862 69034820 5000 59 80 7615
-2.1502242 6.5975986 -1.7807667 884 69034820 4540 60 59 7164
-2.4264486 6.5972705 -1.8745674 814 69034820 4306 61 39 7275
-2.6958473 6.5580506 -1.965845 834 69034820 4513 62 53 7358
-2.9818428 6.5402398 -2.073462 804 69034820 4501 63 74 7481
-3.4318364 10.571052 3.4691257 539 69132450 7312 0 65 11643
-3.8879662 10.585566 3.3847606 595 69132450 8251 1 98 11774
-4.3782072 10.6647 3.338191 546 69132450 7870 2 71 12002
-4.8522072 10.658163 3.2712269 643 69132450 9501 3 41 12159
-3.2898316 10.116199 2.8736556 621 69132450 7542 4 92 11019
-3.7175267 10.13518 2.8013449 662 69132450 8230 5 33 11153
-4.1787143 10.189898 2.7435069 176 69132450 2269 6 98 11350
-4.630867 10.199343 2.6776435 650 69132450 8627 7 70 11517
-3.1688974 9.7379704 2.3599002 657 69132450 7259 8 87 10509
-3.5831943 9.7573576 2.2865167 639 69132450 7241 9 92 10643
-3.9979799 9.7642183 2.2149854 629 69132450 7317 10 60 10781
-4.4432788 9.8089151 2.1556396 703 69132450 8474 11 41 10982
-3.0523386 9.3747816 1.8916187 646 69132450 6512 12 96 10039
-3.441401 9.3823729 1.8145244 680 69132450 7020 13 69 10157
-3.8608112 9.4343786 1.7505145 630 69132450 6739 14 118 10343
-4.2746606 9.4428158 1.6827116 553 69132450 6093 15 47 10501
-2.9531832 9.0707798 1.46996 701 69132450 6536 16 60 9652
-3.329222 9.0829105 1.3957436 700 69132450 6689 17 94 9774
-3.70735 9.0733776 1.3196495 663 69132450 6487 18 82 9890
-4.1172733 9.109951 1.2499962 699 69132450 7096 19 107 10075
-2.8591495 8.7824736 1.0792794 703 69132450 6081 20 97 9299
-3.2152052 8.7761116 1.0011661 702 69132450 6205 21 87 9400
-3.5861146 8.7884922 0.92551267 705 69132450 6417 22 61 9537
-3.9669013 8.7899046 0.85031921 708 69132450 6635 23 133 9681
-2.7631831 8.4932308 0.71515298 727 69132450 5839 24 77 8960
-3.09744 8.4615211 0.6353001 731 69132450 5967 25 77 9033
-3.4698234 8.5043459 0.55968469 746 69132450 6316 26 118 9202
-3.8364077 8.5142269 0.4807553 746 69132450 6524 27 95 9351
-2.6757512 8.2381725 0.37651715 791 69132450 5948 28 91 8670
-3.0084031 8.2271872 0.29687372 715 69132450 5490 29 36 8765
-3.3522534 8.2383785 0.21939115 727 69132450 5758 30 63 8897
-3.6996195 8.2186918 0.13466433 814 69132450 6617 31 76 9014
-2.5943899 7.9890995 0.058642592 786 69132450 5547 32 101 8400
-2.9141283 7.978436 -0.021495977 792 69132450 5717 33 78 8494
-3.2578378 8.0091476 -0.10322589 767 69132450 5737 34 87 8647
-3.5914254 7.9921236 -0.18797424 776 69132450 5963 35 70 8764
-2.5083337 7.736969 -0.24153619 839 69132450 5554 36 131 8137
-2.81848 7.7341537 -0.32198566 879 69132450 5969 37 65 8238
-3.1467259 7.7452826 -0.40697578 893 69132450 6257 38 211 8370
-3.4754329 7.7336402 -0.49318278 889 69132450 6416 39 67 8493
-2.4297159 7.514585 -0.52414441 926 69132450 5802 40 102 7915
-2.7326891 7.5093274 -0.60548216 908 69132450 5831 41 115 8014
-3.0446794 7.5001125 -0.69110167 439 69132450 2896 42 135 8124
-3.374342 7.5195684 -0.78214365 939 69132450 6433 43 50 8279
-2.3327558 7.223321 -0.78361499 975 69132450 5677 44 133 7631
-2.6612263 7.3220954 -0.87772381 863 69132450 5301 45 57 7840
-2.9651451 7.3151793 -0.96455902 899 69132450 5686 46 101 7952
-3.2822392 7.319109 -1.0591675 933 69132450 6107 47 124 8091
-2.289959 7.1111674 -1.0484877 979 69132450 5573 48 80 7544
-2.579782 7.1076679 -1.134506 889 69132450 5200 49 66 7646
-2.8788958 7.1130934 -1.2265018 895 69132450 5407 50 64 7771
-3.1749401 7.0851402 -1.3176404 942 69132450 5843 51 93 7875
-2.2253919 6.9318032 -1.2975994 899 69132450 4917 52 106 7395
-2.5049572 6.9124222 -1.3816583 920 69132450 5151 53 76 7481
-2.7982357 6.9200511 -1.4763659 929 69132450 5380 54 79 7609
-3.0916102 6.8988595 -1.5738412 906 69132450 5404 55 78 7722
-2.1661704 6.7603068 -1.5400198 953 69132450 5029 56 109 7264
-2.4389863 6.7413931 -1.6254752 896 69132450 4844 57 73 7351
-2.7181273 6.7256579 -1.7188194 865 69132450 4810 58 64 7455
-3.0033045 6.7033753 -1.8178056 955 69132450 5471 59 68 7567
-2.1061676 6.5995951 -1.7777839 923 69132450 4724 60 61 7152
-2.3741162 6.5793152 -1.8652911 897 69132450 4698 61 51 7239
-2.6555569 6.5744686 -1.965845 839 69132450 4545 62 66 7358
-2.9416566 6.558413 -2.073462 814 69132450 4558 63 68 7481
-3.3599687 10.570076 3.4619746 507 69228490 6850 0 69 11619
-3.8034599 10.555159 3.367512 590 69228490 8100 1 87 11714
-4.2825031 10.616535 3.3148274 562 69228490 7989 2 58 11918
-4.7536502 10.6139 3.2486279 602 69228490 8785 3 58 12075
-3.2136378 10.09204 2.8611379 644 69228490 7754 4 91 10971
-3.6474025 10.135942 2.7953167 636 69228490 7871 5 50 11129
-4.107408 10.193746 2.7377057 233 69228490 2993 6 77 11326
-4.5443988 10.174283 2.6636939 666 69228490 8747 7 72 11457
-3.0984361 9.7238054 2.3518159 581 69228490 6376 8 83 10473
-3.5073669 9.735055 2.2762043 623 69228490 6995 9 105 10595
-3.9292262 9.7667761 2.2100546 646 69228490 7471 10 43 10757
-4.3638515 9.793004 2.1462178 660 69228490 7885 11 50 10934
-2.9911788 9.3821058 1.8893576 554 69228490 5570 12 114 10027
-3.3797693 9.3922024 1.8123807 677 69228490 6970 13 102 10145
-3.7807901 9.4030247 1.7403598 671 69228490 7095 14 108 10283
-4.1973658 9.4255838 1.6750199 687 69228490 7510 15 73 10453
-2.8830609 9.0435295 1.4626497 730 69228490 6737 16 70 9604
-3.2613709 9.0696383 1.3906028 711 69228490 6746 17 78 9738
-3.6471763 9.084918 1.3180482 694 69228490 6774 18 80 9878
-4.0322742 9.0697594 1.2410631 722 69228490 7228 19 76 10003
-2.7943473 8.7657833 1.0751011 720 69228490 6180 20 91 9263
-3.153224 8.7732172 0.99860996 681 69228490 5987 21 110 9376
-3.5187888 8.7770729 0.922019 725 69228490 6549 22 60 9501
-3.893492 8.7703781 0.84610313 721 69228490 6690 23 127 9633
-2.7001252 8.4758348 0.71227968 726 69228490 5784 24 92 8924
-3.0414174 8.4691029 0.63445616 739 69228490 6015 25 95 9021
-3.3997493 8.4810047 0.55676526 730 69228490 6117 26 109 9154
-3.7598126 8.4828253 0.47767055 755 69228490 6519 27 89 9291
-2.6069853 8.1973124 0.37391153 787 69228490 5837 28 79 8610
-2.9538157 8.2342024 0.29646727 715 69228490 5474 29 56 8753
-3.2927344 8.2365141 0.21879934 797 69228490 6279 30 64 8873
-3.644263 8.2302656 0.13448505 824 69228490 6682 31 58 9002
-2.530776 7.9591255 0.058307488 774 69228490 5399 32 109 8352
-2.8529754 7.962276 -0.02140487 786 69228490 5625 33 87 8458
-3.1908216 7.9844174 -0.10265287 794 69228490 5873 34 100 8599
-3.5277681 7.9810901 -0.1872021 864 69228490 6582 35 101 8728
-2.4608133 7.7522144 -0.24153619 852 69228490 5639 36 156 8137
-2.7628987 7.7287211 -0.32104763 878 69228490 5927 37 75 8214
-3.0813696 7.7199168 -0.40464184 859 69228490 5952 38 182 8322
-3.4182281 7.7329059 -0.49178916 876 69228490 6286 39 79 8469
-2.376334 7.5065212 -0.52255511 911 69228490 5673 40 98 7891
-2.682539 7.5146852 -0.60457557 881 69228490 5642 41 105 8002
-3.016319 7.563076 -0.69518489 240 69228490 1602 42 134 8172
-3.3184912 7.5182734 -0.77987629 930 69228490 6341 43 59 8255
-2.3423691 7.4082165 -0.80209893 388 69228490 2368 44 105 7811
-2.6122444 7.3270545 -0.87638038 908 69228490 5566 45 77 7828
-2.9113908 7.3111029 -0.96164787 921 69228490 5790 46 109 7928
-3.2180631 7.2955713 -1.052884 928 69228490 6003 47 118 8043
-2.2427096 7.1137509 -1.0468199 941 69228490 5339 48 104 7532
-2.5321412 7.1121836 -1.1327255 885 69228490 5160 49 64 7634
-2.8176842 7.0865798 -1.218926 906 69228490 5406 50 61 7723
-3.1218634 7.0828362 -1.3136247 952 69228490 5870 51 83 7851
-2.1757329 6.9227867 -1.2933881 936 69228490 5085 52 118 7371
-2.454596 6.905437 -1.3772258 886 69228490 4928 53 88 7457
-2.7426844 6.9042697 -1.4693809 901 69228490 5169 54 72 7573
-3.0397444 6.8961992 -1.5689497 936 69228490 5549 55 78 7698
-2.1141193 6.7399015 -1.5323874 934 69228490 4879 56 130 7228
-2.3897481 6.7341733 -1.6201682 893 69228490 4796 57 69 7327
-2.6768084 6.7422094 -1.7188194 838 69228490 4659 58 74 7455
-2.962117 6.7216768 -1.8178056 898 69228490 5143 59 82 7567
-2.0621679 6.6012993 -1.774801 916 69228490 4672 60 61 7140
-2.3220961 6.5609674 -1.856015 881 69228490 4569 61 52 7203
-2.6023719 6.5583935 -1.9562269 863 69228490 4629 62 64 7322
-2.8920515 6.5552411 -2.0668101 757 69228490 4212 63 61 7457
-3.2746303 10.524867 3.440522 540 69327200 7204 0 79 11547
-3.7309632 10.556624 3.3606126 618 69327200 8451 1 71 11690
-4.2002959 10.59975 3.3014772 535 69327200 7545 2 60 11870
-4.6744566 10.611137 3.2389424 627 69327200 9081 3 55 12039
-3.1482065 10.100509 2.8580084 647 69327200 7773 4 91 10959
-3.5619464 10.092412 2.7772319 646 69327200 7903 5 60 11057
-4.0019283 10.110488 2.7086995 200 69327200 2514 6 95 11206
-4.4631081 10.159233 2.652534 662 69327200 8622 7 69 11409
-3.0282681 9.7091446 2.3437316 669 69327200 7291 8 73 10437
-3.4280441 9.7011423 2.2633142 629 69327200 6982 9 109 10535
-3.8476427 9.7360907 2.1977274 668 69327200 7650 10 59 10697
-4.2800641 9.7657108 2.1344404 651 69327200 7693 11 47 10874
-2.9265335 9.3777828 1.8848354 617 69327200 6175 12 101 10003
-3.3102875 9.3793621 1.8059493 631 69327200 6452 13 80 10109
-3.7099891 9.3930464 1.7342669 622 69327200 6533 14 88 10247
-4.1156926 9.3969126 1.6654054 635 69327200 6861 15 92 10393
-2.8239837 9.0497284 1.4608221 671 69327200 6178 16 70 9592
-3.1938083 9.0558767 1.385462 739 69327200 6961 17 65 9702
-3.5739124 9.0628729 1.3116435 697 69327200 6738 18 72 9830
-3.9670064 9.0725107 1.2380854 718 69327200 7153 19 79 9979
-2.7334085 8.7600079 1.0723156 721 69327200 6158 20 74 9239
-3.0834663 8.7473869 0.99349761 665 69327200 5789 21 85 9328
-3.456115 8.7762737 0.91968995 732 69327200 6579 22 64 9477
-3.8300383 8.772193 0.84399509 717 69327200 6620 23 127 9609
-2.6373851 8.457984 0.70940626 748 69327200 5913 24 61 8888
-2.9814415 8.465024 0.63276821 756 69327200 6123 25 60 8997
-3.3257048 8.445981 0.55311596 728 69327200 6020 26 119 9094
-3.6933258 8.4727783 0.47581971 726 69327200 6220 27 83 9255
-2.5495119 8.1902599 0.37286925 808 69327200 5960 28 74 8586
-2.8992558 8.2408581 0.29606083 619 69327200 4726 29 56 8741
-3.2289801 8.2230644 0.21791163 800 69327200 6244 30 50 8837
-3.5697417 8.1974669 0.13358869 828 69327200 6623 31 88 8942
-2.4783263 7.9630466 0.058223713 796 69327200 5537 32 101 8340
-2.8000877 7.9683104 -0.021374501 800 69327200 5708 33 98 8446
-3.1286173 7.9703379 -0.10222312 772 69327200 5662 34 107 8563
-3.4595993 7.9585752 -0.18617256 846 69327200 6376 35 80 8680
-2.3989651 7.7213502 -0.24011138 859 69327200 5619 36 145 8089
-2.70749 7.7228971 -0.32010958 873 69327200 5859 37 64 8190
-3.0295682 7.7275195 -0.40405837 807 69327200 5575 38 185 8310
-3.3516111 7.7097878 -0.48900181 887 69327200 6292 39 88 8421
-2.3195994 7.486649 -0.52017117 926 69327200 5713 40 120 7855
-2.6324253 7.5197091 -0.60366893 903 69327200 5765 41 108 7990
-2.9306071 7.4812465 -0.68599749 636 69327200 4133 42 158 8064
-3.2532706 7.4946604 -0.77534163 911 69327200 6137 43 96 8207
-2.275697 7.3540311 -0.79470533 625 69327200 3744 44 108 7739
-2.5514953 7.2979193 -0.87100655 903 69327200 5463 45 53 7780
-2.8491209 7.2844572 -0.95582563 933 69327200 5795 46 105 7880
-3.1732376 7.3151793 -1.052884 884 69327200 5718 47 127 8043
-2.1920114 7.1046672 -1.0434842 956 69327200 5390 48 89 7508
-2.4806306 7.1051784 -1.1291643 909 69327200 5266 49 74 7610
-2.7741487 7.1037354 -1.218926 865 69327200 5161 50 73 7723
-3.0689349 7.0801477 -1.3096091 951 69327200 5829 51 70 7827
-2.1227961 6.9021316 -1.2870712 964 69327200 5188 52 96 7335
-2.4082971 6.9092317 -1.3750095 896 69327200 4967 53 100 7445
-2.6959901 6.9100013 -1.4670526 898 69327200 5136 54 62 7561
-2.9880278 6.8931627 -1.5640582 946 69327200 5573 55 70 7674
-2.0727243 6.7527466 -1.5323874 917 69327200 4790 56 135 7228
-2.3522291 6.7597628 -1.6228217 883 69327200 4758 57 58 7339
-2.6184204 6.7149916 -1.7077526 867 69327200 4759 58 59 7407
-2.9069219 6.7076612 -1.8091574 933 69327200 5294 59 68 7531
-2.0080335 6.5693655 -1.7628696 929 69327200 4671 60 46 7092
-2.2779934 6.5641379 -1.8529229 878 69327200 4543 61 60 7191
-2.5536833 6.5526891 -1.9498148 858 69327200 4568 62 46 7298
-2.8471856 6.5622859 -2.063484 709 69327200 3932 63 68 7445
-3.1966455 10.500928 3.4262197 489 69424270 6471 0 67 11499
-3.6435387 10.514159 3.3399143 592 69424270 7994 1 90 11618
-4.1184559 10.582355 3.2881265 534 69424270 7469 2 67 11822
-4.5816941 10.575989 3.2195718 629 69424270 9002 3 47 11967
-3.0692749 10.064231 2.8423607 629 69424270 7474 4 92 10899
-3.4923568 10.092125 2.771204 553 69424270 6725 5 54 11033
-3.9187214 10.080588 2.6941965 219 69424270 2725 6 76 11146
-4.3821735 10.143571 2.6413746 641 69424270 8276 7 90 11361
-2.9583974 9.6939898 2.3356476 664 69424270 7185 8 97 10401
-3.3684545 9.7219934 2.2633142 637 69424270 7073 9 89 10535
-3.7708337 9.7157221 2.1878657 627 69424270 7106 10 53 10649
-4.2060909 9.7593708 2.1273742 679 69424270 7970 11 50 10838
-2.8551707 9.3504782 1.875791 717 69424270 7107 12 102 9955
-3.2295079 9.332551 1.7930868 699 69424270 7045 13 86 10037
-3.630899 9.3605013 1.724112 690 69424270 7163 14 83 10187
-4.0439005 9.3893518 1.6596366 668 69424270 7170 15 60 10357
-2.754549 9.0215139 1.4535121 724 69424270 6600 16 60 9544
-3.1226563 9.0304031 1.3786075 671 69424270 6256 17 84 9654
-3.5053515 9.0513601 1.3068399 657 69424270 6306 18 61 9794
-3.8924506 9.0529251 1.2321302 691 69424270 6818 19 85 9931
-2.6656849 8.7310171 1.0667444 717 69424270 6059 20 85 9191
-3.0180426 8.7323112 0.98966342 674 69424270 5821 21 91 9292
-3.3806601 8.7416182 0.91386735 710 69424270 6300 22 74 9417
