# .PCD v0.7 - Point Cloud Data file format
VERSION 0.7
FIELDS x y z intensity t reflectivity ring noise range
SIZE 4 4 4 4 4 2 1 2 4
TYPE F F F F U U U U U
COUNT 1 1 1 1 1 1 1 1 1
WIDTH 810
HEIGHT 1
VIEWPOINT 0 0 0 1 0 0 0
POINTS 810
DATA ascii
0 -0 -0 8 13680380 0 38 80 0
0 -0 -0 7 13680380 0 39 68 0
1.5021027 -1.9501505 -0.16336882 103 13680380 63 40 98 2467
1.5498036 -1.867792 -0.18389612 77 13680380 46 41 114 2434
1.6570599 -1.8544766 -0.21233255 170 13680380 106 42 147 2496
1.6960709 -1.7652358 -0.23230961 226 13680380 137 43 93 2459
1.4191107 -1.8437344 -0.24018812 110 13680380 60 44 105 2339
1.5399224 -1.8574001 -0.2718257 158 13680380 93 45 53 2428
1.4964905 -1.6765435 -0.27461791 70 13680380 36 46 112 2264
1.7407898 -1.8126646 -0.33184892 214 13680380 137 47 129 2535
1.3008527 -1.693024 -0.29964733 14 13680380 7 48 90 2156
1.522872 -1.8384665 -0.35818696 11 13680380 7 49 74 2414
1.3610172 -1.5263785 -0.32686722 15 13680380 6 50 48 2071
1.4029473 -1.4616898 -0.34384137 11 13680380 5 51 64 2055
1.4972233 -1.9521892 -0.43849909 280 13680380 175 52 110 2499
1.5143815 -1.8301013 -0.44639328 191 13680380 112 53 93 2417
1.7314607 -1.9430587 -0.51475871 301 13680380 212 54 91 2653
1.8751785 -1.9536256 -0.56374574 233 13680380 179 55 63 2766
1.4786282 -1.9301749 -0.52747375 266 13680380 164 56 142 2488
1.5626872 -1.8904921 -0.55612433 99 13680380 63 57 72 2515
1.7183753 -1.9291197 -0.61213487 348 13680380 245 58 83 2655
1.8759277 -1.9547476 -0.6704765 354 13680380 276 59 83 2791
1.4962313 -1.9578922 -0.63236606 164 13680380 106 60 37 2544
1.6475312 -1.9965376 -0.69030464 221 13680380 158 61 48 2679
1.6084727 -1.8064365 -0.67059952 199 13680380 126 62 65 2510
1.8642738 -1.9409759 -0.77633566 289 13680380 227 63 80 2801
1.1407186 -1.4962319 0.58727533 63 13777810 25 0 67 1971
1.3172532 -1.5977464 0.62152648 30 13777810 14 1 92 2162
1.6560787 -1.8616388 0.72148538 31 13777810 21 2 51 2594
1.4262633 -1.4865825 0.57547122 23 13777810 10 3 47 2139
1.3793176 -1.8072941 0.61416268 33 13777810 19 4 73 2355
1.5539075 -1.8864698 0.63421464 34 13777810 21 5 46 2525
1.4840187 -1.6695123 0.55643642 31 13777810 17 6 93 2302
1.652661 -1.7260492 0.57123989 24 13777810 15 7 89 2457
1.2613409 -1.6520536 0.47898629 54 13777810 25 8 81 2133
1.5276161 -1.8531014 0.52828568 43 13777810 26 9 43 2459
1.6485353 -1.8566145 0.5212335 30 13777810 20 10 66 2537
1.570474 -1.6430806 0.45499659 17 13777810 9 11 44 2318
1.2917418 -1.6913208 0.40832132 121 13777810 57 12 104 2167
1.4594392 -1.7717837 0.41678503 37 13777810 20 13 60 2333
1.4753143 -1.6621721 0.38165042 18 13777810 9 14 99 2255
1.62076 -1.696521 0.38089758 23 13777810 13 15 45 2377
1.3053287 -1.7091724 0.33139586 174 13777810 82 16 30 2176
1.3550853 -1.6458571 0.30759484 115 13777810 54 17 82 2154
1.5082607 -1.7011445 0.30609462 28 13777810 15 18 61 2294
1.6241394 -1.7021391 0.29416782 24 13777810 14 19 81 2371
1.3594036 -1.7800415 0.26172438 115 13777810 59 20 79 2255
1.3673884 -1.6613319 0.23048122 470 13777810 220 21 90 2164
1.4789047 -1.6696186 0.21747655 79 13777810 40 22 82 2241
1.7463725 -1.8322263 0.22318572 36 13777810 23 23 127 2541
1.2750304 -1.6702254 0.16825251 359 13777810 160 24 71 2108
1.5418394 -1.8742839 0.17111537 61 13777810 36 25 65 2433
1.4837705 -1.6752297 0.13636309 94 13777810 47 26 126 2242
1.6051327 -1.6860452 0.11984179 78 13777810 42 27 95 2331
1.3994637 -1.8350854 0.10031772 541 13777810 289 28 66 2310
1.5644336 -1.9031035 0.083490446 122 13777810 74 29 51 2465
1.6639251 -1.8822016 0.061968073 41 13777810 26 30 47 2513
1.6223111 -1.7053406 0.035167497 63 13777810 35 31 81 2354
1.4333974 -1.8797861 0.016503699 61 13777810 34 32 84 2364
1.5144844 -1.8437184 -0.0060383095 435 13777810 248 33 71 2386
1.6892458 -1.9113145 -0.03045325 79 13777810 52 34 78 2551
1.7959275 -1.8902856 -0.055937562 161 13777810 110 35 80 2608
1.3525351 -1.7755406 -0.06628368 14 13777810 7 36 111 2233
0 -0 -0 7 13777810 0 37 58 0
0 -0 -0 5 13777810 0 38 81 0
0 -0 -0 0 13777810 0 39 78 0
1.5335978 -2.0165141 -0.16813679 94 13777810 61 40 107 2539
1.4852251 -1.8124799 -0.17754968 44 13777810 24 41 100 2350
1.6219145 -1.8377159 -0.20927006 163 13777810 98 42 143 2460
1.6523122 -1.7409493 -0.22777489 206 13777810 120 43 62 2411
1.49444 -1.9664501 -0.25497523 116 13777810 72 44 106 2483
1.5133878 -1.8483609 -0.26913878 157 13777810 91 45 59 2404
1.4940524 -1.6946288 -0.27607349 43 13777810 22 46 102 2276
1.7132595 -1.8060497 -0.32870716 139 13777810 87 47 141 2511
1.3119873 -1.7293762 -0.30465072 13 13777810 6 48 86 2192
1.3838251 -1.691626 -0.32791764 16 13777810 8 49 46 2210
1.3594577 -1.5435934 -0.32876122 9 13777810 4 50 61 2083
0 -0 -0 5 13777810 0 51 63 0
1.4709529 -1.9425029 -0.43428785 224 13777810 137 52 110 2475
1.4881983 -1.8210948 -0.44196075 106 13777810 61 53 86 2393
1.7272834 -1.9624829 -0.51708704 293 13777810 208 54 88 2665
1.8469898 -1.9480439 -0.55885422 392 13777810 295 55 66 2742
1.5021288 -1.9859767 -0.54019415 272 13777810 176 56 135 2548
1.5658592 -1.9181765 -0.56143129 99 13777810 64 57 63 2539
1.7219322 -1.9571605 -0.61766827 326 13777810 234 58 64 2679
1.8478706 -1.9493136 -0.66471106 387 13777810 297 59 82 2767
1.4841897 -1.967036 -0.63236606 195 13777810 126 60 49 2544
1.6206002 -1.9886328 -0.68412048 248 13777810 175 61 48 2655
1.574448 -1.7902218 -0.66098136 222 13777810 136 62 58 2474
1.8523291 -1.9523784 -0.77633566 186 13777810 146 63 59 2801
1.1866283 -1.5764185 0.61587936 58 13876370 25 0 77 2067
1.2421141 -1.5255831 0.5904789 40 13876370 17 1 85 2054
1.7359223 -1.975672 0.76153702 27 13876370 20 2 57 2738
1.2899125 -1.3610849 0.52381605 33 13876370 12 3 38 1947
1.2775699 -1.6954464 0.57347935 43 13876370 21 4 71 2199
1.4616759 -1.7968529 0.60105962 28 13876370 16 5 43 2393
1.6658077 -1.8973427 0.62895203 28 13876370 19 6 88 2602
1.5778812 -1.6683221 0.54892039 24 13876370 14 7 79 2361
1.2089463 -1.6037362 0.46281797 108 13876370 46 8 69 2061
1.4792211 -1.816996 0.51539546 29 13876370 17 9 33 2399
1.6138816 -1.8402064 0.51383722 19 13876370 12 10 69 2501
1.5603627 -1.6526859 0.45499659 23 13876370 12 11 32 2318
1.2671487 -1.6803958 0.40379909 100 13876370 46 12 94 2143
1.403836 -1.72575 0.40392241 40 13876370 20 13 55 2261
1.667796 -1.9024181 0.43445528 32 13876370 21 14 102 2567
1.5208952 -1.6116719 0.3597455 26 13876370 13 15 64 2245
1.3019575 -1.7266192 0.33322343 131 13876370 63 16 50 2188
1.3674394 -1.6817865 0.31273568 129 13876370 62 17 102 2190
1.3802689 -1.576162 0.28207672 32 13876370 14 18 87 2114
1.5973308 -1.6947426 0.29119018 22 13876370 12 19 65 2347
1.269522 -1.6836653 0.24640393 343 13876370 155 20 83 2123
1.3947984 -1.7159854 0.23687166 170 13876370 84 21 105 2224
1.4450399 -1.6516951 0.21398295 73 13876370 36 22 59 2205
1.7924559 -1.9038299 0.23056377 39 13876370 27 23 160 2625
1.2647581 -1.6780174 0.16825251 288 13876370 128 24 65 2108
1.5227622 -1.8744184 0.1702714 107 13876370 63 25 78 2421
1.4892366 -1.7023324 0.13782281 169 13876370 87 26 150 2266
1.6275965 -1.7307836 0.12230958 67 13876370 38 27 101 2379
1.3809662 -1.8340604 0.099796593 545 13876370 288 28 93 2298
1.5073735 -1.8567998 0.081051782 107 13876370 61 29 44 2393
1.7075764 -1.9556308 0.064039432 31 13876370 21 30 37 2597
1.5953836 -1.697775 0.034808949 69 13876370 38 31 65 2330
1.4074014 -1.8693728 0.01633615 63 13876370 35 32 91 2340
1.5031431 -1.8529763 -0.0060383095 486 13876370 277 33 89 2386
1.6617045 -1.9035646 -0.030166743 67 13876370 43 34 88 2527
1.8007151 -1.918766 -0.05645233 155 13876370 108 35 73 2632
0 -0 -0 10 13876370 0 36 118 0
0 -0 -0 8 13876370 0 37 57 0
0 -0 -0 7 13876370 0 38 88 0
0 -0 -0 6 13876370 0 39 80 0
1.4780583 -1.9684367 -0.16336882 575 13876370 350 40 98 2467
1.474076 -1.8215588 -0.17754968 33 13876370 18 41 93 2350
1.610608 -1.8476331 -0.20927006 169 13876370 102 42 158 2460
1.674281 -1.7859163 -0.23230961 495 13876370 299 43 98 2459
1.4608541 -1.9469396 -0.25127846 419 13876370 251 44 130 2447
1.4945204 -1.8483396 -0.26779535 106 13876370 61 45 66 2392
1.4054035 -1.613935 -0.26151776 45 13876370 21 46 103 2156
1.742818 -1.8599337 -0.33656159 73 13876370 48 47 127 2571
1.372593 -1.8325065 -0.32132867 18 13876370 10 48 65 2312
0 -0 -0 8 13876370 0 49 59 0
1.3577378 -1.5608461 -0.33065516 12 13876370 5 50 56 2095
0 -0 -0 5 13876370 0 51 74 0
1.4519322 -1.9420301 -0.43218219 137 13876370 83 52 101 2463
1.499216 -1.857725 -0.44860956 166 13876370 98 53 93 2429
1.7229325 -1.9819285 -0.51941538 307 13876370 220 54 79 2677
1.8189408 -1.9421906 -0.55396277 385 13876370 285 55 87 2718
1.482898 -1.9857599 -0.53765005 245 13876370 158 56 121 2536
1.5687499 -1.9459707 -0.56673825 116 13876370 76 57 62 2563
1.6639363 -1.9148062 -0.60106802 213 13876370 145 58 99 2607
1.8199512 -1.9436095 -0.6589455 368 13876370 277 59 103 2743
1.4651484 -1.9667845 -0.62938321 183 13876370 117 60 48 2532
1.5938287 -1.9804732 -0.67793632 247 13876370 171 61 48 2631
1.6241006 -1.8696892 -0.68662977 248 13876370 164 62 68 2570
1.848199 -1.9721203 -0.77966166 108 13876370 86 63 58 2813
1.1017735 -1.4825356 0.57654881 48 13975730 18 0 79 1935
1.3983742 -1.7391918 0.66982269 29 13975730 16 1 85 2330
1.5651151 -1.8034724 0.69144666 27 13975730 16 2 37 2486
1.7159559 -1.833033 0.70138079 24 13975730 16 3 51 2607
1.2049092 -1.6196011 0.54531389 74 13975730 32 4 49 2091
1.4724461 -1.8329539 0.61010194 34 13975730 20 5 44 2429
1.62362 -1.8723392 0.61734951 35 13975730 23 6 89 2554
1.7827388 -1.9082406 0.6242488 25 13975730 18 7 67 2685
1.1571938 -1.5548401 0.44664967 250 13975730 99 8 43 1989
1.5194473 -1.8899759 0.53344178 33 13975730 20 9 44 2483
1.6410059 -1.8944583 0.52616435 30 13975730 19 10 50 2561
1.4699411 -1.5761776 0.43144202 23 13975730 11 11 34 2198
1.2497764 -1.6786863 0.40153795 75 13975730 34 12 95 2131
1.3340658 -1.6606932 0.38677222 84 13975730 39 13 53 2165
1.6715751 -1.9304976 0.43851715 42 13975730 28 14 96 2591
1.405983 -1.5083357 0.33474758 17 13975730 8 15 82 2089
1.2771739 -1.7155488 0.3295683 118 13975730 55 16 50 2164
1.3124776 -1.6345789 0.30245396 512 13975730 230 17 56 2118
1.4328116 -1.6565607 0.29488626 49 13975730 24 18 71 2210
1.6923798 -1.8178067 0.31054494 25 13975730 16 19 99 2503
1.2378154 -1.6627415 0.24222563 366 13975730 160 20 58 2087
1.3618363 -1.6965967 0.23303741 108 13975730 52 21 79 2188
1.5051578 -1.7418628 0.22446375 73 13975730 39 22 72 2313
1.6260704 -1.7484789 0.21053766 32 13975730 18 23 134 2397
1.2830023 -1.7241313 0.17208371 281 13975730 131 24 82 2156
1.5337042 -1.9117373 0.17280331 153 13975730 93 25 84 2457
1.4709322 -1.7023749 0.13709295 76 13975730 38 26 143 2254
1.5843215 -1.7056156 0.11984179 63 13975730 34 27 105 2331
1.362534 -1.8328779 0.099275455 540 13975730 282 28 73 2286
1.5709683 -1.9595875 0.085116215 298 13975730 188 29 44 2513
1.6720408 -1.9388174 0.06315171 50 13975730 33 30 28 2561
1.6012617 -1.7251204 0.035167497 165 13975730 92 31 80 2354
1.3672707 -1.8394507 0.016001049 88 13975730 46 32 87 2292
1.4992474 -1.8715299 -0.0060686776 515 13975730 296 33 103 2398
1.6343224 -1.8955492 -0.029880235 44 13975730 28 34 64 2503
1.7889079 -1.9297789 -0.05645233 193 13975730 134 35 84 2632
1.3878511 -1.8690455 -0.069133312 11 13975730 6 36 127 2329
0 -0 -0 5 13975730 0 37 59 0
0 -0 -0 6 13975730 0 38 73 0
0 -0 -0 5 13975730 0 39 57 0
1.4231683 -1.9197562 -0.15860088 437 13975730 251 40 130 2395
1.5002213 -1.8773073 -0.18208286 35 13975730 20 41 95 2410
1.5758373 -1.8302982 -0.20620757 186 13975730 109 42 140 2424
1.6551744 -1.7873905 -0.23117591 212 13975730 127 43 67 2447
1.4346699 -1.9366837 -0.24881393 434 13975730 255 44 126 2423
1.5501161 -1.9413407 -0.27988642 181 13975730 113 45 68 2500
1.4964453 -1.7399279 -0.28044018 38 13975730 20 46 105 2312
1.6990484 -1.8356688 -0.33027804 35 13975730 22 47 147 2523
1.3613232 -1.8408941 -0.32132867 22 13975730 12 48 81 2312
1.4221675 -1.7826948 -0.34216201 9 13975730 5 49 61 2306
1.4485213 -1.6859912 -0.35527676 15 13975730 7 50 42 2251
1.5043471 -1.6262223 -0.37596673 11 13975730 5 51 54 2247
1.3978941 -1.8938724 -0.41954836 162 13975730 93 52 91 2391
1.5612903 -1.9591191 -0.47077224 184 13975730 120 53 82 2549
1.6723962 -1.9478055 -0.50777364 315 13975730 216 54 72 2617
1.7990116 -1.9446909 -0.55151695 364 13975730 267 55 81 2706
1.4637266 -1.9853823 -0.535106 266 13975730 169 56 134 2524
1.4401581 -1.8090643 -0.52428263 205 13975730 115 57 63 2371
1.5989219 -1.8629551 -0.58170104 103 13975730 65 58 53 2523
1.8159007 -1.9632915 -0.66182828 388 13975730 295 59 86 2755
1.4461665 -1.9663739 -0.62640035 84 13975730 53 60 55 2520
1.5816467 -1.9902154 -0.67793632 166 13975730 115 61 42 2631
1.6728349 -1.9498308 -0.71227819 336 13975730 239 62 65 2666
1.8203984 -1.9665011 -0.77300966 202 13975730 157 63 51 2789
1.126537 -1.535447 0.59442633 67 14074640 27 0 65 1995
1.2947675 -1.6307231 0.62497616 25 14074640 12 1 81 2174
1.6515367 -1.9268129 0.73483592 21 14074640 14 2 49 2642
1.5712839 -1.6992698 0.64649713 21 14074640 12 3 45 2403
1.1949489 -1.6269639 0.54531389 118 14074640 52 4 72 2091
1.4106411 -1.7782553 0.58900326 42 14074640 23 5 44 2345
1.4909095 -1.7407647 0.57093954 26 14074640 15 6 84 2362
1.6206101 -1.7561768 0.57123989 14 14074640 9 7 70 2457
1.1545557 -1.5713346 0.4493444 295 14074640 118 8 45 2001
1.3912284 -1.7524015 0.49219298 31 14074640 16 9 49 2291
1.5148318 -1.7706343 0.48918286 38 14074640 22 10 63 2381
1.5479364 -1.6803638 0.45735207 19 14074640 10 11 40 2330
1.2673709 -1.7243069 0.41058245 76 14074640 36 12 120 2179
1.3018376 -1.6410977 0.3803409 109 14074640 49 13 49 2129
1.6289513 -1.9047649 0.43039337 62 14074640 40 14 107 2543
1.3967016 -1.5169343 0.33474758 21 14074640 9 15 59 2089
1.2174571 -1.6564578 0.31677547 274 14074640 118 16 34 2080
1.3245609 -1.6705209 0.30759484 192 14074640 89 17 100 2154
1.3608232 -1.5929813 0.28207672 105 14074640 47 18 66 2114
1.648954 -1.7930983 0.30458963 23 14074640 14 19 70 2455
1.2275897 -1.6703053 0.24222563 304 14074640 133 20 71 2087
1.3736356 -1.7329726 0.23687166 108 14074640 54 21 87 2224
1.4324154 -1.6783881 0.21514747 96 14074640 47 22 85 2217
1.5182713 -1.6527859 0.19788958 47 14074640 24 23 125 2253
1.265317 -1.7223313 0.1711259 264 14074640 122 24 81 2144
1.4922124 -1.8835813 0.16942744 102 14074640 59 25 81 2409
1.5537624 -1.8207015 0.14585131 44 14074640 25 26 116 2398
1.54952 -1.6888136 0.11799095 80 14074640 42 27 90 2295
1.3512621 -1.8412037 0.099275455 335 14074640 175 28 90 2286
1.5216944 -1.9221739 0.083084002 354 14074640 213 29 68 2453
1.6523341 -1.9399078 0.062855795 71 14074640 46 30 41 2549
1.6068637 -1.7526013 0.035526041 45 14074640 26 31 85 2378
1.3701569 -1.8671544 0.0161686 68 14074640 37 32 83 2316
1.472846 -1.8618714 -0.0060079405 544 14074640 307 33 98 2374
1.6071019 -1.8872703 -0.029593728 24 14074640 15 34 104 2479
1.6960135 -1.8522364 -0.053878512 99 14074640 63 35 87 2512
1.2912579 -1.7614404 -0.064858869 20 14074640 10 36 122 2185
1.4381543 -1.8207579 -0.090756342 14 14074640 8 37 69 2322
0 -0 -0 5 14074640 0 38 83 0
0 -0 -0 7 14074640 0 39 70 0
1.4113622 -1.9284524 -0.15860088 422 14074640 242 40 107 2395
1.4812615 -1.8770838 -0.18117622 111 14074640 64 41 92 2398
1.6110498 -1.8945843 -0.21233255 183 14074640 114 42 147 2496
1.619987 -1.771068 -0.22777489 172 14074640 100 43 75 2411
1.4157132 -1.9358152 -0.24758166 436 14074640 253 44 123 2411
1.4717259 -1.8665404 -0.26779535 141 14074640 81 45 74 2392
1.5859902 -1.8670945 -0.29936263 72 14074640 44 46 116 2468
1.4469322 -1.5826503 -0.28315157 18 14074640 8 47 143 2163
1.3429952 -1.8396145 -0.31966087 52 14074640 28 48 112 2300
1.3671407 -1.7354553 -0.33147874 13 14074640 7 49 60 2234
1.438149 -1.6948473 -0.35527676 18 14074640 9 50 69 2251
1.4783795 -1.6179543 -0.37195104 14 14074640 7 51 64 2223
1.421034 -1.9501535 -0.43007657 156 14074640 94 52 91 2451
1.5638268 -1.987198 -0.4752048 201 14074640 133 53 72 2573
1.6604131 -1.9580306 -0.50777364 321 14074640 220 54 100 2617
1.8028948 -1.9730382 -0.55640846 336 14074640 251 55 85 2730
1.4308139 -1.9658809 -0.52747375 279 14074640 173 56 125 2488
1.4579611 -1.854669 -0.53489655 239 14074640 140 57 80 2419
1.6176623 -1.9083595 -0.59276789 103 14074640 68 58 62 2571
1.7802492 -1.948597 -0.65318006 382 14074640 283 59 76 2719
1.4135871 -1.9469931 -0.61745179 64 14074640 39 60 43 2484
1.5765632 -2.0090044 -0.68102837 198 14074640 138 61 32 2643
1.6608394 -1.9600585 -0.71227819 333 14074640 237 62 63 2666
1.808298 -1.9776338 -0.77300966 289 14074640 224 63 53 2789
1.1238139 -1.5516076 0.59800184 77 14172630 31 0 55 2007
1.2634628 -1.6115023 0.614627 29 14172630 13 1 80 2138
1.4237065 -1.6817834 0.63804454 20 14172630 10 2 55 2294
1.623183 -1.7771488 0.67232472 31 14172630 19 3 47 2499
1.1849436 -1.6342653 0.54531389 85 14172630 37 4 76 2091
1.3280767 -1.6954381 0.55886239 51 14172630 25 5 51 2225
1.5854813 -1.8743423 0.6115483 28 14172630 18 6 90 2530
1.7277383 -1.8954713 0.61308903 30 14172630 21 7 53 2637
1.1586242 -1.5973204 0.45473382 252 14172630 103 8 55 2025
1.3587579 -1.7332346 0.48445883 41 14172630 21 9 39 2255
1.5645766 -1.8516599 0.50890636 45 14172630 28 10 71 2477
1.5613537 -1.7159392 0.46441847 32 14172630 18 11 52 2366
1.2636881 -1.7415897 0.41284361 142 14172630 68 12 104 2191
1.2917435 -1.6490546 0.3803409 180 14172630 81 13 47 2129
1.5867074 -1.878583 0.42226952 42 14172630 26 14 96 2495
1.6184849 -1.7796 0.39051214 33 14172630 19 15 43 2437
1.1585151 -1.5967009 0.30398259 392 14172630 156 16 1 1996
1.3508954 -1.7253749 0.31616291 116 14172630 57 17 77 2214
1.3663611 -1.6194805 0.2852791 102 14172630 47 18 68 2138
1.5658655 -1.723857 0.29119018 20 14172630 11 19 80 2347
1.2173178 -1.6778063 0.24222563 256 14172630 112 20 69 2087
1.4071015 -1.7977434 0.24454014 88 14172630 46 21 94 2296
1.4528795 -1.7236739 0.21980561 64 14172630 33 22 63 2265
1.4920365 -1.6443655 0.19578157 74 14172630 37 23 144 2229
1.2617478 -1.739746 0.17208371 268 14172630 125 24 65 2156
1.3994967 -1.7889922 0.16014375 183 14172630 95 25 90 2277
1.5425615 -1.8302009 0.14585131 74 14172630 42 26 130 2398
1.6035103 -1.769329 0.12292652 84 14172630 48 27 105 2391
1.3188379 -1.8203349 0.097712062 204 14172630 104 28 71 2250
1.4877129 -1.9031285 0.081864662 393 14172630 229 29 56 2417
1.5631745 -1.8582087 0.059896722 99 14172630 58 30 47 2429
1.636351 -1.8068962 0.036422413 57 14172630 34 31 54 2438
1.4079528 -1.9435506 0.016755026 116 14172630 67 32 101 2400
1.4613941 -1.8708735 -0.0060079405 253 14172630 143 33 87 2374
1.641831 -1.9521949 -0.03045325 98 14172630 64 34 64 2551
1.6685214 -1.8448125 -0.053363752 221 14172630 137 35 69 2488
0 -0 -0 10 14172630 0 36 140 0
1.3827087 -1.7728179 -0.08794219 14 14172630 7 37 61 2250
0 -0 -0 5 14172630 0 38 66 0
0 -0 -0 5 14172630 0 39 62 0
1.3854785 -1.9176648 -0.15701155 413 14172630 232 40 112 2371
1.4844255 -1.9050145 -0.18298951 124 14172630 73 41 103 2422
1.5917052 -1.8952781 -0.21131173 235 14172630 145 42 147 2484
1.6170982 -1.789839 -0.22890857 187 14172630 110 43 74 2423
1.3968217 -1.9347875 -0.24634942 434 14172630 250 44 101 2399
1.3869889 -1.7814451 -0.2543608 120 14172630 62 45 71 2272
1.5132592 -1.8037877 -0.28771806 71 14172630 40 46 103 2372
1.5488207 -1.7151102 -0.30514392 13 14172630 7 47 107 2331
1.4497967 -2.011714 -0.3480134 27 14172630 17 48 100 2504
1.5021924 -1.93115 -0.36708972 11 14172630 6 49 53 2474
1.3820556 -1.6491475 -0.34391293 11 14172630 5 50 69 2179
1.6428119 -1.8202144 -0.41612339 25 14172630 16 51 60 2487
1.4228384 -1.9780169 -0.43428785 157 14172630 96 52 110 2475
1.5154221 -1.9501934 -0.46412343 286 14172630 181 53 82 2513
1.6332508 -1.950132 -0.50311697 300 14172630 202 54 86 2593
1.7750118 -1.9666212 -0.55151695 332 14172630 243 55 70 2706
1.4187245 -1.9746232 -0.52747375 350 14172630 217 56 126 2488
1.5326651 -1.9745165 -0.56673825 270 14172630 178 57 64 2563
1.6209135 -1.936156 -0.59830129 109 14172630 74 58 65 2595
1.7604553 -1.9508356 -0.65029734 390 14172630 286 59 78 2707
1.415156 -1.974525 -0.6234175 75 14172630 47 60 35 2508
1.5144928 -1.9544834 -0.65938389 212 14172630 139 61 36 2559
1.6339388 -1.9524759 -0.7058661 325 14172630 227 62 57 2642
1.7343049 -1.9202396 -0.74640197 251 14172630 182 63 73 2693
1.1275967 -1.5771104 0.60515285 70 14270150 29 0 72 2031
1.2465153 -1.6101363 0.61117727 23 14270150 11 1 82 2126
1.4429337 -1.7258594 0.65139502 23 14270150 12 2 44 2342
1.5425711 -1.7098424 0.64326864 23 14270150 13 3 39 2391
1.1276956 -1.5755625 0.52340752 98 14270150 39 4 54 2007
1.2892231 -1.6668042 0.54680604 38 14270150 18 5 58 2177
1.5366236 -1.8393545 0.59704512 35 14270150 22 6 86 2470
1.5052266 -1.6718482 0.53776067 28 14270150 15 7 70 2313
1.1624168 -1.6234146 0.46012324 274 14270150 115 8 55 2049
1.2476627 -1.6117926 0.44836611 52 14270150 22 9 50 2087
1.5230875 -1.8251578 0.4990446 37 14270150 22 10 61 2429
1.7474306 -1.9442724 0.523305 37 14270150 26 11 36 2666
1.2049406 -1.6822444 0.39701572 194 14270150 86 12 98 2107
1.3032718 -1.6849675 0.38677222 165 14270150 77 13 49 2165
1.5221195 -1.8247099 0.40805283 38 14270150 22 14 103 2411
1.5442098 -1.7190043 0.37512884 22 14270150 12 15 68 2341
1.1279781 -1.5748534 0.29849994 438 14270150 168 16 1 1960
1.3257545 -1.7148386 0.31273568 158 14270150 76 17 81 2190
1.3411723 -1.6095607 0.28207672 114 14270150 51 18 58 2114
1.5632106 -1.7422955 0.29267901 22 14270150 12 19 87 2359
1.207 -1.685244 0.24222563 280 14270150 122 20 77 2087
1.3887479 -1.7969028 0.24326208 101 14270150 53 21 85 2284
1.4269936 -1.7141981 0.21747655 235 14270150 118 22 48 2241
1.4978747 -1.6712929 0.19788958 69 14270150 35 23 120 2253
1.2649755 -1.7669073 0.17399928 277 14270150 131 24 57 2180
1.3153183 -1.7028133 0.15170401 337 14270150 157 25 80 2157
1.508314 -1.8120141 0.14366174 47 14270150 26 26 131 2362
1.5686444 -1.7523471 0.12107567 79 14270150 44 27 96 2355
1.3634366 -1.9064045 0.10188112 51 14270150 28 28 59 2346
1.4393668 -1.8647518 0.079832442 460 14270150 255 29 35 2357
1.5747416 -1.8954471 0.060784444 100 14270150 61 30 49 2465
1.6252333 -1.8169026 0.036422413 59 14270150 35 31 71 2438
1.3820409 -1.9326315 0.016587475 230 14270150 130 32 89 2376
1.4718736 -1.9083111 -0.0060990467 35 14270150 21 33 76 2410
1.5454875 -1.8606977 -0.028877463 463 14270150 271 34 91 2419
1.673156 -1.8729097 -0.053878512 96 14270150 61 35 90 2512
1.2277111 -1.7185928 -0.06272164 14 14270150 6 36 127 2113
1.2913256 -1.6767675 -0.082782917 12 14270150 6 37 70 2118
1.4198833 -1.7109334 -0.10823513 15 14270150 8 38 80 2226
0 -0 -0 5 14270150 0 39 61 0
1.3806382 -1.9358783 -0.15780622 431 14270150 245 40 90 2383
1.4873019 -1.9330539 -0.18480277 105 14270150 63 41 112 2446
1.5647798 -1.8866029 -0.20927006 164 14270150 99 42 127 2460
1.5901772 -1.7819012 -0.22664122 157 14270150 91 43 74 2399
1.3918512 -1.9530424 -0.24758166 446 14270150 259 44 112 2411
1.4559776 -1.893914 -0.26913878 71 14270150 41 45 56 2404
1.4413669 -1.7396611 -0.27607349 33 14270150 17 46 118 2276
1.3798876 -1.5470183 -0.27372628 12 14270150 5 47 127 2091
1.4236484 -2.0012052 -0.34467781 241 14270150 148 48 101 2480
1.4324852 -1.865039 -0.35284531 14 14270150 8 49 57 2378
1.5532371 -1.8766823 -0.38936815 18 14270150 11 50 53 2467
1.5371401 -1.7242862 -0.3920294 132 14270150 72 51 57 2343
1.3833162 -1.9481797 -0.42586526 221 14270150 130 52 99 2427
1.3957406 -1.8191043 -0.43087944 193 14270150 105 53 80 2333
1.6062484 -1.9419744 -0.49846023 300 14270150 198 54 79 2569
1.7238225 -1.933629 -0.53928822 331 14270150 232 55 66 2646
1.3997976 -1.9737254 -0.52492964 265 14270150 162 56 117 2476
1.5062826 -1.9653063 -0.56143129 270 14270150 174 57 72 2539
1.5718006 -1.9010696 -0.58446777 117 14270150 75 58 66 2535
1.7174489 -1.9268183 -0.63876641 332 14270150 235 59 82 2659
1.356023 -1.9167489 -0.60253745 93 14270150 54 60 54 2424
1.432016 -1.8716532 -0.62846321 120 14270150 71 61 43 2439
1.6219279 -1.9624648 -0.7058661 284 14270150 199 62 65 2642
1.6610867 -1.8620142 -0.71979421 205 14270150 139 63 63 2597
1.0914785 -1.5465636 0.59085083 100 14370400 39 0 48 1983
1.2854717 -1.681673 0.63532537 32 14370400 16 1 80 2210
1.4323169 -1.7346807 0.65139502 23 14370400 12 2 42 2342
1.6320088 -1.8314489 0.68523854 26 14370400 17 3 40 2547
1.1514301 -1.6297601 0.53905493 81 14370400 35 4 76 2067
1.3988199 -1.8316128 0.59804553 40 14370400 22 5 51 2381
1.5771816 -1.911621 0.61734951 27 14370400 18 6 101 2554
1.5414751 -1.7333812 0.55450034 24 14370400 14 7 71 2385
1.1726816 -1.659164 0.46820739 242 14370400 105 8 65 2085
1.1950479 -1.563549 0.43289781 140 14370400 57 9 38 2015
1.4595765 -1.7710289 0.48178655 53 14370400 29 10 65 2345
1.7120332 -1.9285593 0.51623857 28 14370400 19 11 50 2630
1.1129528 -1.5741323 0.36988223 385 14370400 149 12 76 1963
1.2642435 -1.6553986 0.37819713 129 14370400 58 13 48 2117
1.4281746 -1.7336044 0.38571233 53 14370400 28 14 95 2279
1.549356 -1.7461671 0.37897465 25 14370400 14 15 63 2365
1.1525272 -1.6301657 0.30763769 314 14370400 128 16 13 2020
1.3007942 -1.7040596 0.30930847 99 14370400 47 17 91 2166
1.4143966 -1.7187741 0.29968983 110 14370400 56 18 71 2246
1.3866459 -1.5647126 0.26141357 24 14370400 11 19 74 2107
1.2172785 -1.7218153 0.24640393 285 14370400 129 20 75 2123
1.2908361 -1.6915652 0.22792506 276 14370400 127 21 79 2140
1.4164486 -1.7229216 0.21747655 254 14370400 128 22 89 2241
1.4479754 -1.6356999 0.19261955 73 14370400 35 23 121 2193
1.2817237 -1.8137105 0.17783047 291 14370400 145 24 72 2228
1.2903268 -1.691816 0.15001607 314 14370400 143 25 88 2133
1.5884424 -1.9322668 0.1524201 38 14370400 24 26 108 2506
1.5102338 -1.708071 0.117374 130 14370400 68 27 100 2283
1.3517134 -1.9147345 0.10188112 187 14370400 103 28 67 2346
1.4133584 -1.8544713 0.079019561 450 14370400 245 29 51 2333
1.5783002 -1.9236223 0.061376259 80 14370400 49 30 40 2489
1.6140543 -1.8268406 0.036422413 88 14370400 52 31 89 2438
1.3978363 -1.9802887 0.016922574 132 14370400 78 32 119 2424
1.445596 -1.898213 -0.0060383095 65 14370400 37 33 63 2386
1.5492612 -1.8887002 -0.02916397 444 14370400 265 34 104 2443
1.6457571 -1.8651489 -0.053363752 53 14370400 33 35 68 2488
1.3553891 -1.9221476 -0.069845729 21 14370400 12 36 133 2353
1.382623 -1.8182868 -0.089349262 12 14370400 6 37 67 2286
0 -0 -0 8 14370400 0 38 78 0
1.099777 -1.2463417 -0.096685432 10 14370400 3 39 73 1665
1.354949 -1.9247315 -0.1562169 430 14370400 239 40 108 2359
1.5116045 -1.9897839 -0.18933596 95 14370400 60 41 101 2506
1.5380214 -1.8776696 -0.20722841 47 14370400 28 42 139 2436
1.6108111 -1.8274722 -0.23117591 149 14370400 89 43 69 2447
1.3661059 -1.9420199 -0.24511716 418 14370400 238 44 130 2387
1.3938619 -1.8363245 -0.2597346 39 14370400 21 45 69 2320
1.4231225 -1.7392539 -0.27461791 12 14370400 6 46 106 2264
1.6534871 -1.8768127 -0.33027804 12 14370400 8 47 117 2523
1.363539 -1.9418257 -0.33300325 444 14370400 255 48 100 2396
1.4998935 -1.9778057 -0.37243137 37 14370400 23 49 53 2510
1.5791883 -1.9320513 -0.39883801 68 14370400 43 50 57 2527
1.5343494 -1.7425647 -0.39403719 199 14370400 111 51 61 2355
1.3442148 -1.9179338 -0.41744274 90 14370400 51 52 103 2379
1.477133 -1.949842 -0.4596909 124 14370400 77 53 88 2489
1.5943024 -1.9517936 -0.49846023 306 14370400 202 54 81 2569
1.7196894 -1.952987 -0.54173398 276 14370400 195 55 77 2658
1.3876607 -1.9822773 -0.52492964 178 14370400 109 56 150 2476
1.4871335 -1.9651797 -0.55877781 237 14370400 152 57 82 2527
1.6118022 -1.9739907 -0.60383475 83 14370400 57 58 62 2619
1.6825019 -1.9110909 -0.63011819 142 14370400 98 59 81 2623
1.3242726 -1.8964436 -0.59358889 98 14370400 56 60 37 2388
1.4274938 -1.8896564 -0.63155532 33 14370400 20 61 34 2451
1.6171677 -1.9813383 -0.70907211 258 14370400 182 62 71 2654
1.7258551 -1.9586792 -0.7530539 314 14370400 231 63 53 2717
1.0623261 -1.525034 0.58012438 111 14469370 42 0 55 1947
1.1920435 -1.5794419 0.59392858 54 14469370 23 1 80 2066
1.3997933 -1.7166373 0.6413821 27 14469370 14 2 48 2306
1.5978326 -1.8154011 0.6755532 31 14469370 19 3 51 2511
1.1480348 -1.6462969 0.54218441 61 14469370 26 4 85 2079
1.3176237 -1.7474191 0.56790465 65 14469370 33 5 46 2261
1.4624503 -1.7948834 0.5767408 38 14469370 22 6 87 2386
1.4537883 -1.6551183 0.5266009 23 14469370 12 7 65 2265
1.149098 -1.6471474 0.46281797 279 14469370 118 8 55 2061
1.1783719 -1.5614972 0.43031973 474 14469370 190 9 20 2003
1.419029 -1.7435175 0.47192484 41 14469370 22 10 58 2297
1.6303507 -1.8594023 0.49503943 46 14469370 29 11 27 2522
1.0830399 -1.5519384 0.36309883 385 14469370 143 12 51 1927
1.2682794 -1.6819792 0.38248464 112 14469370 51 13 48 2141
1.3055528 -1.6047219 0.355248 109 14469370 48 14 94 2099
1.585454 -1.8090895 0.39051214 33 14469370 19 15 47 2437
1.1560774 -1.6566589 0.31129283 301 14469370 126 16 50 2044
1.3546509 -1.7973723 0.32473105 77 14469370 40 17 93 2274
1.3438207 -1.6535858 0.28688031 336 14469370 155 18 83 2150
1.4319167 -1.6359102 0.27183539 52 14469370 25 19 65 2191
1.19987 -1.7194775 0.24501115 269 14469370 120 20 79 2111
1.2517126 -1.6613351 0.22281271 372 14469370 163 21 97 2092
1.4359621 -1.768669 0.22213466 105 14469370 55 22 69 2289
1.4615163 -1.6715505 0.19578157 63 14469370 31 23 125 2229
1.2637275 -1.8117299 0.17687267 286 14469370 141 24 99 2216
1.3159252 -1.7475129 0.15423593 267 14469370 129 25 84 2193
1.5161616 -1.8675836 0.14658119 50 14469370 29 26 119 2410
1.4524274 -1.6631461 0.11367233 70 14469370 34 27 95 2211
1.3193777 -1.8934835 0.10031772 221 14469370 118 28 69 2310
1.401953 -1.8631086 0.079019561 487 14469370 265 29 61 2333
1.5815719 -1.9519117 0.061968073 291 14469370 184 30 32 2513
1.6501497 -1.8909525 0.037498053 129 14469370 82 31 75 2510
1.3307816 -1.9100629 0.016252374 69 14469370 37 32 95 2328
1.4483448 -1.9262296 -0.0060990467 59 14469370 35 33 70 2410
1.5074317 -1.8608756 -0.028590959 462 14469370 265 34 91 2395
1.6500465 -1.8933008 -0.053878512 28 14469370 18 35 77 2512
1.2819012 -1.8418236 -0.066639885 17 14469370 8 36 151 2245
0 -0 -0 8 14469370 0 37 65 0
1.5722142 -1.9425105 -0.12165511 10 14469370 6 38 75 2502
0 -0 -0 5 14469370 0 39 77 0
1.3362813 -1.9231759 -0.15542224 394 14469370 217 40 99 2347
1.4850076 -1.9798768 -0.18752268 191 14469370 118 41 98 2482
1.5415103 -1.9056631 -0.20927006 60 14469370 36 42 133 2460
1.5917234 -1.8283114 -0.23004226 171 14469370 102 43 69 2435
1.3405489 -1.9307559 -0.24265264 430 14469370 240 44 124 2363
1.5041388 -2.0070615 -0.28257334 140 14469370 89 45 60 2524
0 -0 -0 10 14469370 0 46 110 0
1.4467036 -1.6625564 -0.29100597 15 14469370 7 47 128 2223
1.3312906 -1.9208544 -0.32799986 449 14469370 250 48 99 2360
1.4450538 -1.9299748 -0.36174807 122 14469370 73 49 62 2438
1.5524184 -1.9232633 -0.39505005 145 14469370 91 50 56 2503
1.539156 -1.7698008 -0.3980529 223 14469370 126 51 55 2379
1.3122586 -1.8969984 -0.41112581 68 14469370 37 52 86 2343
1.4792687 -1.977757 -0.46412343 131 14469370 83 53 108 2513
1.5896875 -1.9707019 -0.50078857 311 14469370 207 54 86 2581
1.6922544 -1.9457728 -0.53684247 288 14469370 200 55 61 2634
1.335474 -1.932865 -0.50966507 265 14469370 153 56 121 2404
1.4820518 -1.9836427 -0.56143129 252 14469370 163 57 75 2539
1.5923301 -1.9747536 -0.60106802 146 14469370 99 58 44 2607
1.655457 -1.9037982 -0.62435275 185 14469370 125 59 87 2599
1.3455915 -1.9523863 -0.60850322 107 14469370 64 60 36 2448
1.4297363 -1.9169686 -0.63773942 20 14469370 12 61 31 2475
1.5759525 -1.9552108 -0.69624794 229 14469370 156 62 76 2606
1.7138044 -1.969232 -0.7530539 321 14469370 237 63 49 2717
1.0724176 -1.5598414 0.59085083 121 14567250 48 0 76 1983
1.1273911 -1.5129968 0.56633079 82 14567250 32 1 68 1970
1.3097115 -1.6264404 0.60466814 31 14567250 14 2 45 2174
1.472924 -1.6943343 0.6271264 31 14567250 17 3 57 2331
1.1510478 -1.6723959 0.54844344 56 14567250 25 4 82 2103
1.2236438 -1.6436675 0.5317356 94 14567250 42 5 48 2117
1.4222109 -1.7675347 0.56513828 49 14567250 27 6 111 2338
1.5430323 -1.7786145 0.56287009 27 14567250 16 7 82 2421
1.1190751 -1.6252735 0.45473382 305 14567250 125 8 60 2025
1.1827729 -1.5874945 0.43547586 255 14567250 105 9 24 2027
1.3788751 -1.7155764 0.4620631 38 14567250 19 10 69 2249
1.549584 -1.7893186 0.47384027 42 14567250 24 11 40 2414
1.093552 -1.5876714 0.36988223 375 14567250 144 12 38 1963
1.2790867 -1.7181417 0.38891599 144 14567250 68 13 54 2177
1.3253114 -1.6495817 0.36337182 95 14567250 44 14 85 2147
1.582076 -1.8277396 0.39243507 47 14567250 28 15 49 2449
1.1526178 -1.6734885 0.31312034 288 14567250 122 16 6 2056
1.251424 -1.68178 0.30245396 253 14567250 114 17 84 2118
1.3187621 -1.6432499 0.28367794 350 14567250 158 18 78 2126
1.4296393 -1.6536731 0.27332422 93 14567250 45 19 83 2203
1.2028179 -1.7464395 0.24779668 269 14567250 123 20 91 2135
1.2343739 -1.6594107 0.22153464 353 14567250 153 21 78 2080
1.4250828 -1.7774466 0.22213466 87 14567250 46 22 71 2289
1.4981093 -1.734769 0.20210561 76 14567250 40 23 140 2301
1.2729361 -1.8490077 0.17974605 281 14567250 143 24 85 2252
1.3337455 -1.7939798 0.15761182 355 14567250 178 25 103 2241
1.5121659 -1.8861969 0.14731106 129 14567250 76 26 135 2422
1.4969869 -1.73555 0.11799095 48 14567250 25 27 96 2295
1.314528 -1.9114214 0.10083885 143 14567250 77 28 83 2322
1.3833426 -1.8620485 0.07861311 427 14567250 230 29 51 2321
1.5620706 -1.9522126 0.06167217 363 14567250 227 30 60 2501
1.6228487 -1.8828646 0.037139505 92 14567250 57 31 86 2486
1.2986392 -1.8885298 0.016001049 46 14567250 24 32 76 2292
1.4150404 -1.9061744 -0.0060079405 79 14567250 45 33 97 2374
1.4884896 -1.86072 -0.028447704 419 14567250 238 34 110 2383
1.6697054 -1.9397602 -0.054908041 30 14567250 20 35 74 2560
1.2773675 -1.8595413 -0.06699609 13 14567250 7 36 128 2257
1.5244299 -2.0566795 -0.10013684 13 14567250 9 37 66 2562
0 -0 -0 6 14567250 0 38 84 0
0 -0 -0 4 14567250 0 39 62 0
1.3041402 -1.9017148 -0.15303825 115 14567250 62 40 95 2311
1.4301062 -1.9312541 -0.18208286 370 14567250 215 41 109 2410
1.44024 -1.8029833 -0.19702011 35 14567250 19 42 137 2316
1.6038415 -1.865218 -0.23344329 177 14567250 108 43 77 2471
1.3286767 -1.9389449 -0.24265264 448 14567250 250 44 111 2363
1.4563328 -1.968323 -0.27585608 358 14567250 218 45 76 2464
1.5948353 -1.9986607 -0.31246281 20 14567250 13 46 96 2576
1.4442294 -1.6804243 -0.29257688 13 14567250 6 47 132 2235
1.3261887 -1.9387954 -0.32966766 459 14567250 258 48 109 2372
1.4049674 -1.9006335 -0.35462588 87 14567250 49 49 44 2390
1.5332023 -1.9234866 -0.39315611 174 14567250 108 50 50 2491
1.4974325 -1.7433132 -0.39002153 203 14567250 111 51 65 2331
1.2806106 -1.8757441 -0.40480891 45 14567250 24 52 105 2307
1.4460887 -1.9583347 -0.45747465 110 14567250 68 53 92 2477
1.5849003 -1.9896266 -0.50311697 280 14567250 188 54 95 2593
1.6879386 -1.9650314 -0.53928822 330 14567250 231 55 59 2646
1.3500168 -1.9797789 -0.51984149 299 14567250 180 56 123 2452
1.4559587 -1.973863 -0.55612433 260 14567250 165 57 84 2515
1.5656362 -1.9662176 -0.59553462 295 14567250 196 58 56 2583
1.6361549 -1.9050832 -0.62146997 130 14567250 87 59 89 2587
1.3401238 -1.9702166 -0.61148602 100 14567250 60 60 41 2460
1.3766977 -1.8696846 -0.619187 29 14567250 17 61 43 2403
1.5495229 -1.9467485 -0.68983579 185 14567250 124 62 65 2582
1.6941733 -1.9709669 -0.74972796 305 14567250 223 63 45 2705
1.0563948 -1.5569134 0.58727533 99 14665660 39 0 59 1971
1.1385183 -1.5476604 0.57667994 63 14665660 26 1 68 2006
1.4790596 -1.8599907 0.6881091 30 14665660 18 2 47 2474
1.470029 -1.712109 0.63035488 32 14665660 17 3 27 2343
1.1082177 -1.6315119 0.53279591 50 14665660 21 4 69 2043
1.1791414 -1.6043479 0.51666516 209 14665660 88 5 22 2057
1.3823636 -1.7397615 0.55353582 49 14665660 26 6 102 2290
1.4713379 -1.7171474 0.54055059 35 14665660 19 7 70 2325
1.0696474 -1.5740788 0.43856549 477 14665660 182 8 10 1953
1.1799542 -1.6041627 0.43805388 263 14665660 109 9 50 2039
1.4121284 -1.7791975 0.4768557 35 14665660 19 10 62 2321
1.5003345 -1.754084 0.46206298 39 14665660 21 11 54 2354
1.0771643 -1.584605 0.36762109 310 14665660 118 12 59 1951
1.2405512 -1.6879027 0.3803409 265 14665660 120 13 57 2129
1.3519183 -1.7040081 0.37352657 151 14665660 74 14 95 2207
1.5939224 -1.8644223 0.39820382 51 14665660 32 15 66 2485
1.1423278 -1.6805294 0.31312034 299 14665660 126 16 24 2056
1.19186 -1.6224242 0.29045865 407 14665660 168 17 48 2034
1.3751336 -1.7351967 0.29808867 104 14665660 52 18 85 2234
1.3730737 -1.6080818 0.26439124 95 14665660 43 19 105 2131
1.1987796 -1.7636443 0.24918947 291 14665660 134 20 93 2147
1.2453563 -1.6958046 0.2253689 284 14665660 127 21 91 2116
1.4363906 -1.8142489 0.22562827 96 14665660 52 22 71 2325
1.448651 -1.6984545 0.19683559 79 14665660 40 23 130 2241
1.2615668 -1.8567835 0.17974605 292 14665660 148 24 86 2252
1.308547 -1.7828296 0.15592387 304 14665660 150 25 90 2217
1.4633907 -1.8484843 0.14366174 136 14665660 76 26 132 2362
1.6028829 -1.8815422 0.12724514 91 14665660 56 27 92 2475
1.3499038 -1.9888889 0.10448677 95 14665660 55 28 69 2406
1.3577055 -1.8511599 0.077800229 140 14665660 74 29 55 2297
1.5054387 -1.9052843 0.059896722 441 14665660 260 30 55 2429
1.5879322 -1.8653771 0.036601685 264 14665660 159 31 74 2450
1.2735503 -1.8766043 0.015833499 35 14665660 18 32 100 2268
1.3962244 -1.9051422 -0.0059775724 180 14665660 101 33 94 2362
1.4993582 -1.8980656 -0.028877463 80 14665660 47 34 91 2419
1.6266886 -1.9134068 -0.053878512 198 14665660 125 35 81 2512
1.2592027 -1.8574158 -0.066639885 21 14665660 11 36 119 2245
1.4055676 -1.9208428 -0.093101472 16 14665660 9 37 51 2382
1.4071701 -1.7828976 -0.11056904 13 14665660 7 38 76 2274
0 -0 -0 9 14665660 0 39 72 0
1.3260025 -1.9592617 -0.15701155 279 14665660 157 40 107 2371
1.4252911 -1.9496526 -0.18298951 376 14665660 221 41 103 2422
1.4957942 -1.8962739 -0.20620757 29 14665660 17 42 149 2424
1.5923666 -1.875024 -0.23344329 182 14665660 111 43 64 2471
1.303381 -1.9272857 -0.24018812 425 14665660 233 44 108 2339
1.4231273 -1.9483337 -0.2718257 360 14665660 212 45 74 2428
1.5088208 -1.9148493 -0.29790705 17 14665660 10 46 111 2456
0 -0 -0 8 14665660 0 47 135 0
1.3142675 -1.9468963 -0.32966766 441 14665660 248 48 120 2372
1.316328 -1.803772 -0.33503985 56 14665660 29 49 65 2258
1.4993843 -1.9049243 -0.38747421 197 14665660 118 50 57 2455
1.532629 -1.8065987 -0.40206856 236 14665660 137 51 65 2403
1.2690771 -1.8835665 -0.40480891 51 14665660 27 52 90 2307
1.4618345 -2.0052912 -0.46633971 197 14665660 126 53 96 2525
1.4707699 -1.8697788 -0.47052011 209 14665660 123 54 74 2425
1.6682494 -1.9663928 -0.53684247 329 14665660 228 55 75 2634
1.3182015 -1.9588372 -0.51220918 278 14665660 162 56 133 2416
1.4438199 -1.9827595 -0.55612433 241 14665660 153 57 68 2515
1.5463247 -1.966608 -0.59276789 260 14665660 172 58 78 2571
1.64704 -1.9417363 -0.63011819 119 14665660 82 59 88 2623
1.3344877 -1.9880532 -0.61446893 122 14665660 74 60 45 2472
1.412922 -1.9437481 -0.64083153 89 14665660 55 61 38 2487
1.5018195 -1.9107614 -0.67380553 181 14665660 115 62 55 2522
1.6745858 -1.9725354 -0.74640197 317 14665660 230 63 59 2693
1.0850619 -1.6204751 0.60872829 65 14763630 27 0 79 2043
1.1425081 -1.5732168 0.58357948 89 14763630 37 1 68 2030
1.3679584 -1.742112 0.6413821 33 14763630 17 2 49 2306
1.5491962 -1.8268747 0.66909629 30 14763630 18 3 46 2487
1.111087 -1.6575269 0.53905493 78 14763630 33 4 51 2067
1.1556325 -1.59275 0.51063693 221 14763630 91 5 22 2033
1.4938543 -1.9039465 0.60284644 44 14763630 27 6 105 2494
1.3552213 -1.6014153 0.50149143 43 14763630 20 7 52 2157
1.0404303 -1.5514766 0.43048134 381 14763630 140 8 21 1917
1.1976341 -1.6493059 0.44836611 226 14763630 98 9 47 2087
1.3287411 -1.6953946 0.4522014 55 14763630 27 10 60 2201
1.5123231 -1.7902225 0.46912938 54 14763630 31 11 50 2390
1.0608557 -1.5813977 0.36535999 329 14763630 124 12 77 1939
1.2371048 -1.7050391 0.38248464 158 14763630 73 13 70 2141
1.2612064 -1.6098609 0.35118607 482 14763630 208 14 90 2075
1.4831114 -1.7565134 0.3732059 42 14763630 23 15 69 2329
1.1452087 -1.7072055 0.31677547 317 14763630 137 16 12 2080
1.1749097 -1.6200919 0.28874502 355 14763630 145 17 82 2022
1.342473 -1.7155043 0.2932851 128 14763630 62 18 74 2198
1.4169149 -1.6801951 0.27481306 91 14763630 45 19 65 2215
1.1945752 -1.7808651 0.25058225 311 14763630 145 20 81 2159
1.2209208 -1.6840935 0.22281271 278 14763630 122 21 92 2092
1.3958075 -1.7853917 0.22097015 85 14763630 44 22 61 2277
1.4459033 -1.7164534 0.19788958 100 14763630 51 23 137 2253
1.236827 -1.8446193 0.17783047 292 14763630 145 24 70 2228
1.2975831 -1.7908252 0.15592387 256 14763630 126 25 80 2217
1.4446441 -1.8479921 0.14293186 130 14763630 72 26 142 2350
1.5913078 -1.8913419 0.12724514 211 14763630 129 27 83 2475
1.3109879 -1.9572911 0.10240224 437 14763630 243 28 66 2358
1.3463213 -1.8594557 0.077800229 42 14763630 22 29 56 2297
1.4568226 -1.867195 0.058417182 461 14763630 259 30 58 2369
1.5996209 -1.9026376 0.037139505 145 14763630 90 31 89 2486
1.3087528 -1.9541752 0.016419925 62 14763630 34 32 84 2352
1.3634067 -1.8845065 -0.0058864662 209 14763630 113 33 77 2326
1.5024437 -1.9261521 -0.02916397 29 14763630 17 34 88 2443
1.553201 -1.8498482 -0.051819462 483 14763630 282 35 85 2416
1.307809 -1.9548317 -0.069845729 21 14763630 12 36 136 2353
1.3867337 -1.9197109 -0.092632443 15 14763630 9 37 72 2370
0 -0 -0 8 14763630 0 38 78 0
0 -0 -0 6 14763630 0 39 67 0
1.3006555 -1.9474467 -0.15542224 241 14763630 133 40 109 2347
1.3992966 -1.9389554 -0.18117622 357 14763630 205 41 118 2398
1.4400475 -1.8488196 -0.20008259 121 14763630 67 42 135 2352
1.5808318 -1.8847592 -0.23344329 201 14763630 123 43 80 2471
1.2981567 -1.9451752 -0.24142037 430 14763630 238 44 103 2351
1.4111457 -1.9570292 -0.2718257 377 14763630 223 45 64 2428
1.4238977 -1.8300613 -0.28335136 16 14763630 9 46 106 2336
0 -0 -0 9 14763630 0 47 137 0
1.2957084 -1.9450338 -0.32799986 444 14763630 247 48 94 2360
1.3399184 -1.8599588 -0.34394258 60 14763630 32 49 60 2318
1.5094827 -1.9421566 -0.39315611 204 14763630 127 50 70 2491
1.5291132 -1.8250374 -0.4040764 226 14763630 132 51 79 2415
1.3098234 -1.9700204 -0.42165402 339 14763630 196 52 96 2403
1.421948 -1.975933 -0.45747465 334 14763630 205 53 104 2477
1.3942792 -1.7950951 -0.44956499 199 14763630 107 54 81 2317
1.6486074 -1.9675871 -0.53439677 337 14763630 232 55 58 2622
1.3321078 -2.0059659 -0.52238554 188 14763630 114 56 104 2464
1.4452884 -2.0105865 -0.56143129 130 14763630 84 57 66 2539
1.5485506 -1.9945054 -0.59830129 252 14763630 170 58 64 2595
1.6201339 -1.9339472 -0.62435275 96 14763630 65 59 70 2599
1.3094265 -1.9768234 -0.60850322 223 14763630 133 60 37 2448
1.3198512 -1.839336 -0.60372669 146 14763630 80 61 43 2343
1.4687972 -1.8925344 -0.66418737 78 14763630 48 62 71 2486
1.6402274 -1.9562676 -0.73642403 278 14763630 197 63 58 2657
1.0687836 -1.6175454 0.60515285 56 14861370 23 0 56 2031
1.126137 -1.5708563 0.58012968 120 14861370 49 1 62 2018
1.3784319 -1.7778003 0.65139502 33 14861370 18 2 48 2342
1.5305368 -1.8274854 0.66586781 31 14861370 19 3 35 2475
1.036983 -1.5676912 0.50776005 216 14861370 82 4 51 1947
1.1593647 -1.618697 0.51666516 94 14861370 40 5 38 2057
1.3965669 -1.8026185 0.56803894 50 14861370 28 6 111 2350
1.5324864 -1.833581 0.57123989 47 14861370 29 7 65 2457
1.0244379 -1.5480797 0.42778662 350 14861370 127 8 42 1905
1.1601797 -1.6185218 0.43805388 267 14861370 111 9 46 2039
1.2751881 -1.6477896 0.4374088 110 14861370 50 10 56 2129
1.5013101 -1.7994683 0.46912938 52 14861370 30 11 31 2390
1.0641428 -1.6075312 0.36988223 321 14861370 124 12 72 1963
1.1647443 -1.6262079 0.36319071 328 14861370 136 13 34 2033
1.2730142 -1.645633 0.35727894 137 14861370 61 14 98 2111
1.3964463 -1.6746103 0.35397676 68 14861370 33 15 52 2209
1.1281655 -1.7043107 0.3149479 307 14861370 131 16 48 2068
1.1856878 -1.6562427 0.29388586 318 14861370 135 17 59 2058
1.3246499 -1.7142986 0.29168388 87 14861370 42 18 88 2186
1.3989584 -1.6797079 0.27332422 104 14861370 51 19 66 2203
1.1967829 -1.8080389 0.25336778 292 14861370 139 20 95 2183
1.2175084 -1.7012563 0.2240908 282 14861370 125 21 102 2104
1.3629317 -1.7655602 0.21747655 139 14861370 70 22 78 2241
1.4429891 -1.7344824 0.19894359 151 14861370 77 23 141 2265
1.2716885 -1.922004 0.18453501 338 14861370 181 24 106 2312
1.3004981 -1.8182257 0.15761182 290 14861370 146 25 102 2241
1.3527703 -1.7525234 0.13490336 262 14861370 129 26 135 2218
1.5720136 -1.891853 0.12662819 67 14861370 41 27 103 2463
1.2659013 -1.9152908 0.099796593 549 14861370 290 28 62 2298
1.348834 -1.8871958 0.07861311 69 14861370 37 29 53 2321
1.4526595 -1.8856019 0.058713086 476 14861370 270 30 74 2381
1.5802516 -1.9031857 0.036960233 80 14861370 49 31 96 2474
1.2835056 -1.9421467 0.016252374 57 14861370 31 32 90 2328
1.3866884 -1.9416631 -0.0060383095 148 14861370 84 33 78 2386
1.4613096 -1.8973094 -0.028590959 60 14861370 35 34 96 2395
1.5265052 -1.8408734 -0.051304702 481 14861370 275 35 89 2392
1.2693563 -1.9227788 -0.068420909 29 14861370 15 36 145 2305
1.2983501 -1.820791 -0.087473169 20 14861370 10 37 66 2238
1.4217335 -1.8475257 -0.11348643 10 14861370 6 38 71 2334
0 -0 -0 6 14861370 0 39 81 0
1.2755039 -1.9353954 -0.15383291 307 14861370 166 40 96 2323
1.3804306 -1.9377593 -0.1802696 279 14861370 159 41 116 2386
1.4578331 -1.8955315 -0.20416592 96 14861370 55 42 132 2400
1.5616165 -1.8852235 -0.23230961 224 14861370 136 43 63 2459
1.273067 -1.9331659 -0.23895586 468 14861370 254 44 99 2327
1.3783665 -1.9365063 -0.26779535 398 14861370 228 45 73 2392
1.4489255 -1.8859922 -0.29062921 20 14861370 11 46 122 2396
0 -0 -0 10 14861370 0 47 116 0
1.2772219 -1.9430171 -0.32633203 469 14861370 259 48 105 2348
1.3353581 -1.8778166 -0.34572315 30 14861370 16 49 49 2330
1.4903233 -1.9419814 -0.39126211 224 14861370 137 50 45 2479
1.5028014 -1.8161554 -0.40006071 250 14861370 143 51 75 2391
1.2523477 -1.9088758 -0.40691453 443 14861370 238 52 95 2319
1.3688179 -1.9269329 -0.44417703 318 14861370 184 53 102 2405
1.4047303 -1.8316399 -0.45655003 193 14861370 107 54 81 2353
1.621524 -1.9595634 -0.52950519 348 14861370 235 55 71 2598
1.2169347 -1.8571587 -0.48168015 61 14861370 31 56 113 2272
1.4193797 -2.0003281 -0.55612433 177 14861370 112 57 65 2515
1.5078666 -1.966902 -0.5872345 268 14861370 174 58 49 2547
1.6379387 -1.9797519 -0.63588363 123 14861370 86 59 64 2647
1.2845539 -1.9653616 -0.60253745 244 14861370 143 60 56 2424
1.3487515 -1.9041702 -0.62227911 119 14861370 69 61 38 2415
1.4782584 -1.9290471 -0.67380553 25 14861370 16 62 61 2522
1.6134862 -1.948534 -0.72977215 293 14861370 203 63 75 2633
1.0713506 -1.6432643 0.61230379 71 14959980 30 0 68 2055
1.0832816 -1.5308267 0.56288105 304 14959980 116 1 29 1958
1.2273612 -1.6031787 0.58464235 47 14959980 21 2 51 2102
1.5929574 -1.9259012 0.6981523 32 14959980 21 3 49 2595
0.98935312 -1.515817 0.48898306 509 14959980 179 4 1 1875
1.1494108 -1.6257803 0.51666516 94 14959980 40 5 42 2057
1.350106 -1.7649115 0.55353582 58 14959980 30 6 102 2290
1.328038 -1.6089244 0.49870154 54 14959980 25 7 74 2145
1.0149198 -1.5543364 0.42778662 316 14959980 115 8 24 1905
1.170535 -1.6543114 0.44578803 248 14959980 107 9 52 2075
1.2294014 -1.6089247 0.42508161 342 14959980 147 10 66 2069
1.5650644 -1.8994571 0.49268401 34 14959980 21 11 41 2510
1.0735936 -1.6436305 0.37666559 308 14959980 123 12 89 1999
1.1206641 -1.5851197 0.35247186 368 14959980 143 13 32 1973
1.3275031 -1.7380028 0.37555754 101 14959980 50 14 101 2219
1.3409649 -1.6282868 0.34243926 114 14959980 52 15 67 2137
