# .PCD v0.7 - Point Cloud Data file format
VERSION 0.7
FIELDS x y z intensity t reflectivity ring noise range
SIZE 4 4 4 4 4 2 1 2 4
TYPE F F F F U U U U U
COUNT 1 1 1 1 1 1 1 1 1
WIDTH 770
HEIGHT 1
VIEWPOINT 0 0 0 1 0 0 0
POINTS 770
DATA ascii
-0.26544198 -1.8128515 0.31462887 57 27662190 20 14 98 1859
-0.18521179 -1.6965777 0.27706012 75 27662190 22 15 45 1729
-0.40037534 -1.7982236 0.28387955 66 27662190 23 16 47 1864
-0.31577837 -1.7110888 0.25104538 72 27662190 22 17 63 1758
-0.24758539 -1.6845403 0.22923738 71 27662190 21 18 67 1718
-0.1917766 -1.7468209 0.21972635 48 27662190 15 19 82 1771
-0.39354366 -1.7673949 0.21158472 64 27662190 21 20 74 1823
-0.32147676 -1.7404343 0.18958253 69 27662190 22 21 80 1780
-0.25219595 -1.7103076 0.16856617 71 27662190 22 22 67 1737
-0.17926994 -1.6247979 0.14413528 69 27662190 19 23 130 1641
-0.38684112 -1.735723 0.14239207 59 27662190 19 24 47 1784
-0.31734747 -1.7155643 0.12300895 68 27662190 21 25 60 1749
-0.24963291 -1.6925164 0.10424903 62 27662190 18 26 114 1714
-0.17739071 -1.5990603 0.08282502 63 27662190 16 27 89 1611
-0.3724457 -1.6672941 0.074261166 92 27662190 27 28 66 1710
-0.29596806 -1.5968716 0.055039342 52 27662190 14 29 42 1625
-0.25616825 -1.7255584 0.043029964 49 27662190 15 30 43 1745
-0.17542733 -1.5760901 0.023693988 67 27662190 17 31 78 1586
-0.35586733 -1.5926874 0.011393418 217 27662190 58 32 65 1632
-0.31297389 -1.685178 -0.0043376624 63 27662190 19 33 81 1714
-0.24791528 -1.6685628 -0.020139016 66 27662190 19 34 76 1687
-0.16329806 -1.4585495 -0.031486329 192 27662190 41 35 71 1468
-0.35671562 -1.5928257 -0.04847347 231 27662190 62 36 108 1633
-0.29125571 -1.5618604 -0.062145814 240 27662190 61 37 39 1590
-0.22875932 -1.535212 -0.075560369 132 27662190 32 38 105 1554
-0.15959176 -1.4256705 -0.083445624 293 27662190 61 39 87 1437
-0.34026998 -1.5138156 -0.10297468 264 27662190 64 40 67 1555
-0.28329 -1.5153283 -0.11680502 222 27662190 53 41 99 1546
-0.21362121 -1.4308783 -0.12352037 327 27662190 69 42 156 1452
-0.15746745 -1.3998425 -0.13367958 345 27662190 69 43 48 1415
-0.34061646 -1.5128887 -0.16009118 278 27662190 68 44 64 1559
-0.28402016 -1.5158648 -0.17375349 251 27662190 60 45 47 1552
-0.22356318 -1.4921215 -0.18437245 259 27662190 60 46 129 1520
-0.16159691 -1.4333991 -0.1904695 296 27662190 63 47 146 1455
-0.32399085 -1.4334388 -0.20625076 275 27662190 61 48 71 1484
-0.27856517 -1.4831752 -0.22642639 238 27662190 55 49 32 1526
-0.22127168 -1.4715689 -0.23785076 263 27662190 60 50 96 1507
-0.16508575 -1.4606817 -0.24947324 248 27662190 55 51 101 1491
-0.32749838 -1.4429829 -0.26373115 287 27662190 65 52 73 1503
-0.26939785 -1.4303743 -0.2735244 280 27662190 62 53 66 1481
-0.22466621 -1.4909587 -0.29822242 100 27662190 24 54 81 1537
-0.15632106 -1.3833479 -0.28982157 323 27662190 65 55 101 1422
-0.32611445 -1.4331764 -0.31885871 299 27662190 68 56 77 1504
-0.27277732 -1.44416 -0.33323237 162 27662190 37 57 48 1507
-0.20774387 -1.3768623 -0.32993034 283 27662190 58 58 97 1431
-0.15653461 -1.384155 -0.34472725 245 27662190 50 59 108 1435
-0.30587789 -1.3370141 -0.35197732 356 27662190 71 60 2 1416
-0.26641119 -1.4040053 -0.38109761 240 27662190 52 61 6 1479
-0.21276261 -1.4082922 -0.39487889 231 27662190 50 62 100 1478
-0.14769582 -1.3109157 -0.38054579 262 27662190 49 63 89 1373
-0.46277431 -2.0122254 0.64448327 84 27759790 39 0 68 2163
-0.37190947 -1.9552255 0.59737831 62 27759790 27 1 88 2078
-0.27145037 -1.7911289 0.52456492 73 27759790 26 2 39 1886
-0.20316958 -1.7944031 0.50444531 185 27759790 65 3 44 1875
-0.4462617 -1.9449319 0.53905493 66 27759790 28 4 52 2067
-0.35332859 -1.8531358 0.48953834 54 27759790 20 5 33 1949
-0.27083448 -1.782445 0.44911331 80 27759790 28 6 97 1858
-0.17719287 -1.5509299 0.37315428 318 27759790 82 7 52 1605
-0.42525241 -1.8550013 0.43856549 62 27759790 24 8 76 1953
-0.33935979 -1.7835945 0.39938313 78 27759790 27 9 32 1859
-0.26099843 -1.7114754 0.36344582 72 27759790 22 10 56 1769
-0.19537038 -1.6969018 0.34193447 65 27759790 20 11 31 1742
-0.40416443 -1.7642854 0.34727097 74 27759790 25 12 86 1843
-0.34589052 -1.8141247 0.33532169 75 27759790 26 13 43 1877
-0.25335255 -1.6592008 0.28822646 71 27759790 21 14 104 1703
-0.201049 -1.7424767 0.2847518 61 27759790 19 15 62 1777
-0.39551044 -1.7263701 0.27291423 88 27759790 28 16 36 1792
-0.31959015 -1.6741199 0.24590451 82 27759790 24 17 69 1722
-0.26872596 -1.7535222 0.23884453 74 27759790 24 18 77 1790
-0.1970031 -1.6982994 0.21377105 58 27759790 17 19 85 1723
-0.39639521 -1.7300932 0.20740642 51 27759790 16 20 68 1787
-0.32991061 -1.7267092 0.18830444 63 27759790 20 21 74 1768
-0.25179696 -1.6378999 0.16157895 62 27759790 17 22 61 1665
-0.19061995 -1.6355407 0.1451893 44 27759790 12 23 115 1653
-0.39481038 -1.7216578 0.14143428 71 27759790 22 24 59 1772
-0.30987182 -1.6195287 0.11625718 67 27759790 18 25 68 1653
-0.2581929 -1.6791141 0.10351916 66 27759790 19 26 113 1702
-0.20114309 -1.716969 0.088994481 53 27759790 16 27 92 1731
-0.382669 -1.6649774 0.074261166 229 27759790 67 28 22 1710
-0.31253448 -1.6303614 0.056258675 54 27759790 15 29 40 1661
-0.25941366 -1.6765329 0.041846327 53 27759790 15 30 50 1697
-0.18929614 -1.610734 0.02423181 69 27759790 18 31 85 1622
-0.37369862 -1.6255578 0.011644742 198 27759790 55 32 71 1668
-0.31651747 -1.6478722 -0.0042465562 86 27759790 24 33 58 1678
-0.25447622 -1.6432946 -0.01985251 55 27759790 15 34 98 1663
-0.18210042 -1.5409204 -0.033287998 96 27759790 23 35 67 1552
-0.3637892 -1.5789185 -0.048117261 232 27759790 61 36 85 1621
-0.30537453 -1.5835918 -0.063083865 230 27759790 60 37 39 1614
-0.24921004 -1.6048427 -0.07906124 87 27759790 23 38 90 1626
-0.16974224 -1.4365615 -0.084142461 295 27759790 62 39 60 1449
-0.34955218 -1.5116993 -0.10297468 259 27759790 63 40 37 1555
-0.29485357 -1.5253097 -0.11771166 245 27759790 60 41 74 1558
-0.23710082 -1.5240558 -0.13168702 261 27759790 62 42 157 1548
-0.16464554 -1.386987 -0.1325459 333 27759790 66 43 77 1403
-0.34989297 -1.5107702 -0.16009118 305 27759790 74 44 74 1559
-0.2978518 -1.5375075 -0.1764404 220 27759790 55 45 51 1576
-0.23455167 -1.5024905 -0.18582802 270 27759790 63 46 125 1532
-0.16898377 -1.4205672 -0.18889862 318 27759790 66 47 115 1443
-0.34623489 -1.4892981 -0.21458973 284 27759790 68 48 42 1544
-0.29218468 -1.5047373 -0.22998749 229 27759790 55 49 36 1550
-0.23396452 -1.4935971 -0.24163868 259 27759790 61 50 98 1531
-0.16984291 -1.4243984 -0.24344975 283 27759790 60 51 90 1455
-0.34171697 -1.4639554 -0.26794243 288 27759790 67 52 44 1527
-0.2826772 -1.4518467 -0.27795693 292 27759790 66 53 54 1505
-0.23928671 -1.5244408 -0.30520746 168 27759790 42 54 110 1573
-0.16758773 -1.4056938 -0.29471308 235 27759790 49 55 69 1446
-0.33490214 -1.4311484 -0.31885871 281 27759790 64 56 90 1504
-0.272663 -1.3965148 -0.32261845 289 27759790 61 57 27 1459
-0.22343983 -1.4217021 -0.34099716 199 27759790 44 58 88 1479
-0.16364469 -1.3716019 -0.34184453 352 27759790 71 59 103 1423
-0.43651229 -1.8555796 -0.48918882 302 27759790 117 60 1 1968
-0.27055815 -1.3795881 -0.37491345 283 27759790 60 61 37 1455
-0.21241193 -1.3498441 -0.37884864 297 27759790 60 62 98 1418
-0.15982008 -1.3443325 -0.3905237 87 27759790 17 63 66 1409
-0.51201433 -2.1654136 0.69454026 110 27857310 60 0 71 2331
-0.38389951 -1.9529067 0.59737831 75 27857310 33 1 84 2078
-0.28782657 -1.8235862 0.53457785 90 27857310 33 2 52 1922
-0.21280527 -1.7816466 0.50121683 133 27857310 46 3 32 1863
-0.44488713 -1.8857809 0.52340752 85 27857310 34 4 66 2007
-0.36020175 -1.8281406 0.48351017 73 27857310 27 5 33 1925
-0.29268509 -1.8497561 0.46651706 78 27857310 29 6 73 1930
-0.18949772 -1.5729883 0.37873417 242 27857310 64 7 71 1629
-0.42052963 -1.7840674 0.42239717 67 27857310 24 8 73 1881
-0.35708091 -1.8159775 0.40711728 66 27857310 24 9 44 1895
-0.27333662 -1.7214406 0.36591125 63 27857310 20 10 56 1781
-0.21144882 -1.7423944 0.3513563 78 27857310 25 11 31 1790
-0.43119428 -1.8305991 0.36083773 81 27857310 30 12 89 1915
-0.34788543 -1.7656313 0.32674661 61 27857310 20 13 43 1829
-0.27467 -1.7276962 0.30041218 78 27857310 25 14 79 1775
-0.20172791 -1.658902 0.27129138 69 27857310 20 15 54 1693
-0.40337643 -1.7123667 0.27108669 65 27857310 20 16 50 1780
-0.35054418 -1.7769995 0.26132709 75 27857310 25 17 67 1830
-0.27011228 -1.6931194 0.23083858 58 27857310 17 18 70 1730
-0.20741996 -1.6970587 0.21377105 62 27857310 18 19 80 1723
-0.38240555 -1.6232167 0.19487152 58 27857310 16 20 82 1679
-0.34512141 -1.7480639 0.1908606 57 27857310 18 21 79 1792
-0.26184216 -1.6363239 0.16157895 58 27857310 16 22 69 1665
-0.21084832 -1.7173921 0.15256734 56 27857310 17 23 119 1737
-0.39164111 -1.6609906 0.13664532 60 27857310 17 24 54 1712
-0.33373293 -1.6880547 0.12132101 58 27857310 17 25 75 1725
-0.25523987 -1.5947075 0.098410107 52 27857310 14 26 127 1618
-0.20727219 -1.6800207 0.087143645 60 27857310 17 27 82 1695
-0.40114903 -1.6976001 0.075824559 80 27857310 24 28 52 1746
-0.32020214 -1.6166484 0.055852227 69 27857310 19 29 30 1649
-0.25253192 -1.5683155 0.039183158 45 27857310 11 30 54 1589
-0.19917585 -1.6095423 0.02423181 70 27857310 19 31 79 1622
-0.386426 -1.6349121 0.011728518 228 27857310 64 32 50 1680
-0.31727946 -1.5988173 -0.0041250815 169 27857310 45 33 55 1630
-0.27409944 -1.7009337 -0.020568775 62 27857310 18 34 88 1723
-0.19895726 -1.5993013 -0.034574907 68 27857310 18 35 78 1612
-0.37623519 -1.5883284 -0.04847347 241 27857310 64 36 103 1633
-0.31508553 -1.5816883 -0.063083865 255 27857310 66 37 54 1614
-0.25905249 -1.6032833 -0.07906124 107 27857310 28 38 79 1626
-0.17855363 -1.435493 -0.084142461 308 27857310 65 39 75 1449
-0.37820446 -1.5910696 -0.10853729 255 27857310 69 40 61 1639
-0.31592241 -1.582142 -0.12224484 264 27857310 69 41 49 1618
-0.24071644 -1.4871635 -0.12862453 253 27857310 58 42 160 1512
-0.17463382 -1.3978047 -0.13367958 339 27857310 68 43 82 1415
-0.36744982 -1.543431 -0.16378796 302 27857310 77 44 66 1595
-0.30961984 -1.5473437 -0.17778386 257 27857310 65 45 31 1588
-0.24376637 -1.5010231 -0.18582802 251 27857310 59 46 117 1532
-0.18213022 -1.4549173 -0.19361128 263 27857310 57 47 130 1479
-0.36089036 -1.5102619 -0.21792533 280 27857310 69 48 47 1568
-0.30607912 -1.5261871 -0.2335486 250 27857310 62 49 35 1574
-0.23931344 -1.4687427 -0.23785076 256 27857310 58 50 93 1507
-0.1800525 -1.4350682 -0.24545759 317 27857310 68 51 113 1467
-0.34793729 -1.4503434 -0.26583681 285 27857310 66 52 63 1515
-0.29623002 -1.4732091 -0.28238946 301 27857310 70 53 44 1529
-0.22587465 -1.3835261 -0.27726731 259 27857310 53 54 117 1429
-0.17913438 -1.4279524 -0.29960456 106 27857310 23 55 55 1470
-0.34367719 -1.4290665 -0.31885871 282 27857310 64 56 82 1504
-0.28585276 -1.4177595 -0.32792541 150 27857310 33 57 51 1483
-0.23780994 -1.4548756 -0.34929731 213 27857310 49 58 94 1515
-0.17350854 -1.3821299 -0.34472725 358 27857310 74 59 116 1435
-0.50524139 -2.0901234 -0.55182886 410 27857310 202 60 46 2220
-0.27211452 -1.3438096 -0.36563724 322 27857310 65 61 6 1419
-0.22629328 -1.3827513 -0.38846681 170 27857310 36 62 87 1454
-0.17522256 -1.40053 -0.40715355 62 27857310 13 63 55 1469
-0.5415166 -2.2290184 0.71599323 102 27956740 59 0 74 2403
-0.39130291 -1.9279869 0.5904789 101 27956740 43 1 80 2054
-0.30274421 -1.8445345 0.54125309 56 27956740 21 2 49 1946
-0.22229214 -1.7688401 0.4979884 101 27956740 35 3 33 1851
-0.4700954 -1.9393091 0.53905493 82 27956740 35 4 74 2067
-0.36909693 -1.8145138 0.48049608 67 27956740 24 5 43 1913
-0.30402946 -1.8479254 0.46651706 66 27956740 25 6 111 1930
-0.2182169 -1.7223179 0.41500336 109 27956740 35 7 65 1785
-0.44247895 -1.8269134 0.43317607 68 27956740 25 8 69 1929
-0.37288028 -1.8367233 0.41227338 81 27956740 30 9 32 1919
-0.29919657 -1.8124284 0.38563472 56 27956740 20 10 50 1877
-0.2206468 -1.7293923 0.34900084 79 27956740 25 11 43 1778
-0.43964618 -1.8164645 0.3585766 67 27956740 24 12 95 1903
-0.35635906 -1.7518934 0.32460281 71 27956740 23 13 57 1817
-0.29297999 -1.7726526 0.30853602 67 27956740 22 14 82 1823
-0.21640885 -1.692881 0.27706012 88 27956740 26 15 73 1729
-0.4138757 -1.7098594 0.27108669 84 27956740 27 16 25 1780
-0.35907096 -1.763177 0.25961345 63 27956740 21 17 67 1818
-0.28827849 -1.73836 0.23724335 69 27956740 22 18 78 1778
-0.21934611 -1.7075644 0.21525988 63 27956740 19 19 72 1735
-0.42320472 -1.7482673 0.21019195 50 27956740 16 20 93 1811
-0.34869227 -1.7108393 0.18702635 59 27956740 18 21 90 1756
-0.28363439 -1.7053757 0.16856617 69 27956740 21 22 52 1737
-0.22444087 -1.7397767 0.15467535 53 27956740 16 23 118 1761
-0.39900884 -1.6469308 0.13568752 50 27956740 15 24 73 1700
-0.34647802 -1.6977037 0.12216499 67 27956740 20 25 78 1737
-0.28074431 -1.6876348 0.10424903 60 27956740 18 26 126 1714
-0.20833449 -1.6074089 0.083441965 68 27956740 18 27 91 1623
-0.41155776 -1.6951067 0.075824559 83 27956740 25 28 56 1746
-0.34212717 -1.6734036 0.057884451 47 27956740 14 29 37 1709
-0.28392726 -1.696887 0.042438146 40 27956740 12 30 47 1721
-0.21523444 -1.655884 0.024948904 64 27956740 18 31 78 1670
-0.39645037 -1.6325103 0.011728518 218 27956740 62 32 62 1680
-0.32467565 -1.5850846 -0.0040947124 201 27956740 53 33 44 1618
-0.2746228 -1.640048 -0.01985251 54 27956740 15 34 103 1663
-0.20565845 -1.5742581 -0.034060143 74 27956740 19 35 76 1588
-0.38313755 -1.5743352 -0.048117261 224 27956740 59 36 95 1621
-0.31995511 -1.5562348 -0.062145814 254 27956740 64 37 36 1590
-0.26690078 -1.5898433 -0.078477763 165 27956740 43 38 120 1614
-0.18580665 -1.4224914 -0.083445624 275 27956740 57 39 61 1437
-0.37659812 -1.5421915 -0.10535866 282 27956740 71 40 52 1591
-0.32079431 -1.5567349 -0.12043157 242 27956740 62 41 72 1594
-0.25380263 -1.5092404 -0.13066618 247 27956740 58 42 166 1536
-0.18009989 -1.3730171 -0.13141222 312 27956740 60 43 63 1391
-0.37691322 -1.5411474 -0.16378796 290 27956740 74 44 71 1595
-0.31669697 -1.5337367 -0.1764404 263 27956740 65 45 55 1576
-0.25693491 -1.52299 -0.18873917 271 27956740 66 46 124 1556
-0.19105399 -1.4537724 -0.19361128 252 27956740 55 47 131 1479
-0.36731759 -1.4964781 -0.21625753 260 27956740 63 48 63 1556
-0.31303298 -1.5126593 -0.23176803 247 27956740 60 49 22 1562
-0.24832097 -1.4672468 -0.23785076 265 27956740 60 50 103 1507
-0.18885452 -1.4339365 -0.24545759 371 27956740 80 51 119 1467
-0.36248261 -1.4711225 -0.27004805 294 27956740 70 52 57 1539
-0.30047232 -1.4482685 -0.27795693 262 27956740 59 53 54 1505
-0.25994393 -1.5329957 -0.3075358 105 27956740 26 54 67 1585
-0.19556186 -1.4850643 -0.31183332 93 27956740 22 55 73 1530
-0.35525131 -1.438316 -0.32140279 266 27956740 61 56 74 1516
-0.31599706 -1.5190982 -0.3518067 174 27956740 44 57 40 1591
-0.23500651 -1.3843172 -0.33269703 339 27956740 71 58 127 1443
-0.18046403 -1.3694905 -0.34184453 355 27956740 72 59 89 1423
-0.51805663 -2.0869839 -0.55182886 435 27956740 214 60 56 2220
-0.2993218 -1.4329132 -0.39037383 175 27956740 40 61 4 1515
-0.25608709 -1.5067401 -0.42373338 63 27956740 16 62 58 1586
-0.18531428 -1.4108602 -0.41047952 110 27956740 24 63 67 1481
-0.54409361 -2.1811962 0.70169121 117 28054660 65 0 65 2355
-0.41725644 -1.9930469 0.61117727 84 28054660 38 1 73 2126
-0.36440864 -2.1380708 0.62803161 13 28054660 6 2 45 2258
-0.2255841 -1.7101513 0.48184618 246 28054660 79 3 40 1791
-0.47638953 -1.9139045 0.53279591 74 28054660 31 4 82 2043
-0.39691928 -1.8917894 0.50159472 69 28054660 27 5 41 1997
-0.30163679 -1.76568 0.44621268 72 28054660 25 6 122 1846
-0.23800887 -1.7903628 0.431743 91 28054660 31 7 49 1857
-0.45368034 -1.8241639 0.43317607 61 28054660 23 8 73 1929
-0.38174102 -1.8229297 0.40969533 69 28054660 25 9 38 1907
-0.3023763 -1.7642576 0.37577298 66 28054660 22 10 49 1829
-0.23593631 -1.7629937 0.35606724 87 28054660 29 11 19 1814
-0.4536261 -1.8251698 0.36083773 67 28054660 25 12 96 1915
-0.36467734 -1.7381185 0.32245904 77 28054660 25 13 53 1805
-0.30185115 -1.7591652 0.30650505 79 28054660 26 14 96 1811
-0.22836614 -1.7032611 0.27898303 69 28054660 21 15 50 1741
-0.45010707 -1.810876 0.28753465 71 28054660 25 16 43 1888
-0.36011696 -1.7144471 0.25275898 52 28054660 16 17 87 1770
-0.30095702 -1.7482787 0.23884453 78 28054660 25 18 69 1790
-0.23140892 -1.7179869 0.21674871 65 28054660 20 19 82 1747
-0.44254971 -1.7803383 0.21437027 76 28054660 26 20 56 1847
-0.371456 -1.7670503 0.19341677 63 28054660 21 21 91 1816
-0.29409304 -1.7036033 0.16856617 59 28054660 18 22 79 1737
-0.21588624 -1.5962176 0.14202727 57 28054660 15 23 143 1617
-0.43220922 -1.7373147 0.14334987 58 28054660 19 24 65 1796
-0.35688841 -1.6955459 0.12216499 49 28054660 15 25 76 1737
-0.30332217 -1.7566992 0.10862822 64 28054660 20 26 109 1786
-0.22787301 -1.6773506 0.087143645 41 28054660 12 27 87 1695
-0.427751 -1.7158149 0.076866828 80 28054660 25 28 49 1770
-0.34496552 -1.6360676 0.056665119 57 28054660 16 29 41 1673
-0.27996773 -1.6123765 0.040366787 52 28054660 14 30 45 1637
-0.21081454 -1.5475324 0.023335442 66 28054660 16 31 85 1562
-0.40065324 -1.6067606 0.011560968 213 28054660 58 32 49 1656
-0.33687553 -1.5948035 -0.0041250815 224 28054660 59 33 47 1630
-0.28057232 -1.614688 -0.019566003 66 28054660 18 34 87 1639
-0.21531405 -1.5729666 -0.034060143 73 28054660 18 35 89 1588
-0.39279029 -1.5719547 -0.048117261 226 28054660 59 36 128 1621
-0.33198479 -1.5659724 -0.062614843 249 28054660 64 37 44 1602
-0.26636642 -1.5291356 -0.075560369 247 28054660 60 38 137 1554
-0.1945314 -1.4213245 -0.083445624 275 28054660 57 39 68 1437
-0.38896552 -1.5514659 -0.10615332 286 28054660 73 40 44 1603
-0.33034021 -1.5547372 -0.12043157 228 28054660 58 41 65 1594
-0.26511353 -1.5194334 -0.13168702 262 28054660 63 42 156 1548
-0.19177388 -1.3955564 -0.13367958 291 28054660 58 43 68 1415
-0.38345563 -1.5272284 -0.16255569 296 28054660 74 44 84 1583
-0.32858482 -1.5434277 -0.17778386 231 28054660 58 45 50 1588
-0.2642214 -1.5096517 -0.18728359 240 28054660 57 46 121 1544
-0.20321552 -1.4761438 -0.19675303 243 28054660 55 47 139 1503
-0.37358934 -1.4826727 -0.21458973 299 28054660 71 48 66 1544
-0.32973695 -1.5455279 -0.23710968 222 28054660 57 49 31 1598
-0.26551512 -1.5123798 -0.24542663 243 28054660 59 50 114 1555
-0.19603266 -1.4210308 -0.24344975 301 28054660 64 51 107 1455
-0.37729585 -1.4917771 -0.27425936 296 28054660 72 52 53 1563
-0.30935308 -1.4463975 -0.27795693 274 28054660 62 53 57 1505
-0.26934534 -1.531372 -0.3075358 70 28054660 18 54 83 1585
-0.20627561 -1.4954742 -0.31427908 137 28054660 33 55 70 1542
-0.45917004 -1.8112406 -0.4053576 242 28054660 89 56 93 1912
-0.30568299 -1.4255879 -0.33057889 357 28054660 80 57 24 1495
-0.24754594 -1.4058487 -0.33823046 346 28054660 74 58 127 1467
-0.18886366 -1.3683574 -0.34184453 317 28054660 64 59 109 1423
-0.53085238 -2.083766 -0.55182886 438 28054660 216 60 78 2220
-0.32031065 -1.4877248 -0.40583417 91 28054660 23 61 14 1575
-0.25528982 -1.4481994 -0.4077031 120 28054660 28 62 88 1526
-0.19553931 -1.4211187 -0.41380545 130 28054660 29 63 44 1493
-0.55178577 -2.1556222 0.69454026 143 28153070 78 0 60 2331
-0.41493282 -1.9230398 0.5904789 78 28153070 33 1 84 2054
-0.32535669 -1.8406805 0.54125309 34 28153070 13 2 34 1946
-0.22341931 -1.6171445 0.45601857 267 28153070 77 3 37 1695
-0.49385831 -1.9333943 0.53905493 63 28153070 27 4 59 2067
-0.4011552 -1.8552595 0.49255243 58 28153070 22 5 55 1961
-0.32871467 -1.8555211 0.46941769 73 28153070 28 6 92 1942
-0.24094494 -1.73107 0.4177933 76 28153070 25 7 60 1797
-0.48799944 -1.9119883 0.45473382 59 28153070 24 8 66 2025
-0.38797414 -1.7976412 0.40453923 78 28153070 28 9 21 1883
-0.3049764 -1.7161176 0.36591125 67 28153070 21 10 46 1781
-0.24348478 -1.7382072 0.3513563 72 28153070 23 11 32 1790
-0.47938004 -1.8794492 0.37214336 74 28153070 29 12 109 1975
-0.39779311 -1.8397106 0.34175301 66 28153070 24 13 58 1913
-0.30020988 -1.6874156 0.29431933 64 28153070 19 14 93 1739
-0.23716682 -1.6900979 0.27706012 78 28153070 23 15 52 1729
-0.45827848 -1.7965881 0.28570709 71 28153070 25 16 39 1876
-0.38570631 -1.7818543 0.26304072 70 28153070 24 17 67 1842
-0.31376806 -1.7581068 0.24044572 70 28153070 23 18 82 1802
-0.2319745 -1.6457903 0.20781574 74 28153070 21 19 82 1675
-0.45346531 -1.7775894 0.21437027 62 28153070 21 20 76 1847
-0.36460835 -1.683109 0.18447019 57 28153070 17 21 91 1732
-0.30874842 -1.7252798 0.17089522 60 28153070 19 22 76 1761
-0.24242416 -1.7132201 0.15256734 56 28153070 17 23 118 1737
-0.43102509 -1.6882701 0.13951869 54 28153070 16 24 57 1748
-0.37489748 -1.7284189 0.1246969 72 28153070 23 25 74 1773
-0.31198496 -1.7430145 0.10789835 51 28153070 16 26 116 1774
-0.23141637 -1.6284611 0.084675863 46 28153070 12 27 103 1647
-0.44124234 -1.7247726 0.077387959 69 28153070 22 28 59 1782
-0.36009035 -1.6573595 0.057478003 70 28153070 20 29 27 1697
-0.3026045 -1.6814684 0.042142238 56 28153070 16 30 40 1709
-0.23723097 -1.6649967 0.025128176 69 28153070 20 31 72 1682
-0.42835259 -1.6740229 0.012063618 215 28153070 64 32 50 1728
-0.3543109 -1.6278828 -0.0042161876 217 28153070 60 33 44 1666
-0.28834787 -1.6011269 -0.019422751 77 28153070 20 34 105 1627
-0.23346135 -1.6309968 -0.035347052 72 28153070 20 35 74 1648
-0.41136557 -1.6043717 -0.049185876 224 28153070 62 36 112 1657
-0.34158716 -1.563906 -0.062614843 252 28153070 65 37 39 1602
-0.27787331 -1.5392677 -0.076143853 233 28153070 57 38 115 1566
-0.20324881 -1.4201041 -0.083445624 293 28153070 61 39 58 1437
-0.39549485 -1.5374539 -0.10535866 239 28153070 61 40 63 1591
-0.33731502 -1.540992 -0.11952493 227 28153070 57 41 93 1582
-0.28294113 -1.5648409 -0.13577034 252 28153070 64 42 172 1596
-0.20373112 -1.4180032 -0.13594693 335 28153070 69 43 61 1439
-0.39877489 -1.5479652 -0.16502023 287 28153070 74 44 48 1607
-0.34315801 -1.564678 -0.18047076 251 28153070 65 45 47 1612
-0.27135399 -1.4962817 -0.18582802 253 28153070 59 46 111 1532
-0.21565868 -1.49842 -0.1998948 242 28153070 56 47 138 1527
-0.3916024 -1.5148685 -0.21959312 281 28153070 70 48 30 1580
-0.32902479 -1.4971135 -0.22998749 226 28153070 54 49 32 1550
-0.26418707 -1.4524307 -0.2359568 252 28153070 56 50 88 1495
-0.20981419 -1.4549303 -0.24947324 237 28153070 53 51 105 1491
-0.38347518 -1.4779989 -0.27215371 299 28153070 72 52 66 1551
-0.32329682 -1.4675069 -0.28238946 278 28153070 65 53 67 1529
-0.27240565 -1.4949466 -0.30055076 164 28153070 39 54 104 1549
-0.20371133 -1.4127854 -0.29715881 161 28153070 34 55 79 1458
-0.55882043 -2.1488807 -0.48168015 425 28153070 219 56 128 2272
-0.30937687 -1.4008303 -0.32527193 330 28153070 71 57 32 1471
-0.25197652 -1.3813289 -0.33269703 323 28153070 67 58 122 1443
-0.19891962 -1.378702 -0.34472725 354 28153070 73 59 104 1435
-0.54656672 -2.0917153 -0.55481172 411 28153070 205 60 62 2232
-0.33947298 -1.5310107 -0.41820243 189 28153070 50 61 9 1623
-0.25170687 -1.3783517 -0.38846681 172 28153070 36 62 84 1454
-0.20753887 -1.4427171 -0.42045739 60 28153070 14 63 66 1517
-0.56791067 -2.1632757 0.69811577 166 28250450 91 0 74 2343
-0.4317106 -1.9428972 0.59737831 88 28250450 38 1 65 2078
-0.34079659 -1.8613255 0.54792839 62 28250450 24 2 37 1970
-0.23829356 -1.6500598 0.4657039 236 28250450 71 3 35 1731
-0.50277615 -1.919121 0.53592545 88 28250450 37 4 65 2055
-0.39990926 -1.7960749 0.47748199 65 28250450 23 5 42 1901
-0.33589071 -1.8305632 0.46361643 63 28250450 23 6 106 1918
-0.25828156 -1.7757576 0.42895305 80 28250450 27 7 53 1845
-0.499722 -1.908958 0.45473382 58 28250450 24 8 68 2025
-0.41425332 -1.8638704 0.42000753 73 28250450 28 9 35 1955
-0.32612944 -1.7719641 0.37823841 69 28250450 23 10 42 1841
-0.25925696 -1.7716081 0.3584227 64 28250450 21 11 35 1826
-0.47300687 -1.8080643 0.3585766 57 28250450 21 12 138 1903
-0.38854533 -1.7450372 0.32460281 60 28250450 20 13 54 1817
-0.32770211 -1.7785907 0.31056696 71 28250450 24 14 98 1835
-0.24925058 -1.7003305 0.27898303 78 28250450 23 15 54 1741
-0.46929353 -1.7937423 0.28570709 78 28250450 27 16 46 1876
-0.39146444 -1.756269 0.25961345 68 28250450 23 17 59 1818
-0.31374338 -1.6976752 0.23243977 63 28250450 19 18 78 1742
-0.25247383 -1.7150179 0.21674871 51 28250450 16 19 79 1747
-0.48548275 -1.8554887 0.22411963 68 28250450 25 20 83 1931
-0.40090543 -1.7972956 0.19725104 60 28250450 21 21 73 1852
-0.33020878 -1.7820703 0.17671789 62 28250450 21 22 74 1821
-0.24943697 -1.6880499 0.15045932 63 28250450 18 23 129 1713
-0.43531594 -1.6624506 0.1376031 47 28250450 14 24 62 1724
-0.38027757 -1.7027211 0.12300895 75 28250450 23 25 90 1749
-0.32267401 -1.7410674 0.10789835 59 28250450 19 26 130 1774
-0.23964521 -1.6151562 0.084058918 62 28250450 17 27 104 1635
-0.44268939 -1.6872442 0.075824559 62 28250450 19 28 55 1746
-0.37025294 -1.6551188 0.057478003 190 28250450 55 29 17 1697
-0.3129161 -1.67958 0.042142238 58 28250450 17 30 61 1709
-0.24214669 -1.6279055 0.024590356 77 28250450 21 31 102 1646
-0.4416621 -1.6829698 0.012147394 224 28250450 68 32 40 1740
-0.35904479 -1.6022589 -0.00415545 238 28250450 64 33 50 1642
-0.31136161 -1.670103 -0.02028227 81 28250450 23 34 80 1699
-0.23991896 -1.6058025 -0.034832288 73 28250450 19 35 66 1624
-0.43645382 -1.6598192 -0.0509669 213 28250450 63 36 86 1717
-0.35117668 -1.5617806 -0.062614843 234 28250450 60 37 16 1602
-0.28951448 -1.5493155 -0.076727331 218 28250450 54 38 90 1578
-0.22257864 -1.48992 -0.087626614 297 28250450 68 39 66 1509
-0.41102922 -1.5581535 -0.10694798 281 28250450 73 40 50 1615
-0.3441337 -1.5272202 -0.11861829 246 28250450 61 41 61 1570
-0.28373936 -1.5160656 -0.13168702 261 28250450 62 42 145 1548
-0.22659971 -1.5112406 -0.14501637 273 28250450 64 43 68 1535
-0.40521684 -1.5339484 -0.16378796 270 28250450 69 44 69 1595
-0.34487438 -1.5276475 -0.1764404 244 28250450 61 45 39 1576
-0.29151672 -1.5531235 -0.19310589 251 28250450 64 46 113 1592
-0.22131477 -1.473539 -0.19675303 241 28250450 54 47 135 1503
-0.40089008 -1.5124371 -0.21959312 269 28250450 67 48 45 1580
-0.33820471 -1.4950664 -0.22998749 259 28250450 62 49 26 1550
-0.28405434 -1.5090077 -0.24542663 260 28250450 63 50 82 1555
-0.22225846 -1.4770138 -0.25348893 272 28250450 62 51 105 1515
-0.39253679 -1.475618 -0.27215371 277 28250450 67 52 55 1551
-0.340119 -1.5000004 -0.28903827 285 28250450 70 53 62 1565
-0.2684854 -1.4238386 -0.28658071 297 28250450 65 54 133 1477
-0.219368 -1.4579782 -0.30694181 72 28250450 16 55 66 1506
-0.56595302 -2.1227486 -0.476592 424 28250450 214 56 141 2248
-0.31796637 -1.3989055 -0.32527193 333 28250450 72 57 25 1471
-0.26477924 -1.4027051 -0.33823046 351 28250450 76 58 108 1467
-0.20737544 -1.3774555 -0.34472725 347 28250450 71 59 122 1435
-0.56540591 -2.1107774 -0.56077743 468 28250450 238 60 67 2256
-0.38239259 -1.6758541 -0.45839936 277 28250450 88 61 16 1779
-0.26874802 -1.4222322 -0.40129101 87 28250450 20 62 75 1502
-0.218099 -1.4528185 -0.42378336 94 28250450 22 63 51 1529
-0.5811736 -2.1597502 0.69811577 203 28347560 112 0 74 2343
-0.43850023 -1.9178032 0.5904789 82 28347560 35 1 81 2054
-0.37366554 -1.9724501 0.58130473 73 28347560 32 2 49 2090
-0.24669154 -1.6371381 0.46247548 172 28347560 51 3 35 1719
-0.52055144 -1.9383764 0.54218441 79 28347560 34 4 86 2079
-0.42389187 -1.8501971 0.49255243 78 28347560 30 5 30 1961
-0.35363173 -1.8627872 0.47231832 73 28347560 28 6 86 1954
-0.26216969 -1.7279829 0.4177933 89 28347560 29 7 63 1797
-0.51142573 -1.9058558 0.45473382 69 28347560 28 8 79 2025
-0.42306915 -1.8498688 0.41742948 57 28347560 21 9 40 1943
-0.3501755 -1.8391501 0.393031 67 28347560 24 10 54 1913
-0.26834729 -1.7583522 0.35606724 67 28347560 22 11 42 1814
-0.49630246 -1.8506594 0.36762109 85 28347560 32 12 124 1951
-0.4097923 -1.7886554 0.33317792 69 28347560 24 13 45 1865
-0.33860916 -1.7765464 0.31056696 81 28347560 27 14 82 1835
-0.27041808 -1.7690227 0.29052055 73 28347560 24 15 59 1813
-0.48029089 -1.7908289 0.28570709 66 28347560 23 16 42 1876
-0.40223333 -1.7538339 0.25961345 60 28347560 20 17 76 1818
-0.3263872 -1.7073994 0.23404096 57 28347560 18 18 81 1754
-0.25576636 -1.6663586 0.21079339 60 28347560 17 19 83 1699
-0.47524494 -1.7718909 0.21437027 53 28347560 18 20 82 1847
-0.40658772 -1.771543 0.19469486 63 28347560 21 21 82 1828
-0.32315296 -1.6861714 0.16740163 64 28347560 19 22 70 1725
-0.26888946 -1.745559 0.15572935 59 28347560 18 23 154 1773
-0.46721524 -1.7406175 0.14430767 55 28347560 18 24 67 1808
-0.40680259 -1.7703532 0.12807278 55 28347560 18 25 85 1821
-0.32433128 -1.6920003 0.1049789 58 28347560 17 26 144 1726
-0.26237208 -1.6965587 0.088377535 54 28347560 16 27 99 1719
-0.4530338 -1.6844962 0.075824559 82 28347560 25 28 52 1746
-0.38578147 -1.676191 0.058290895 219 28347560 65 29 19 1721
-0.3209464 -1.6658485 0.041846327 53 28347560 15 30 39 1697
-0.24845451 -1.6026751 0.02423181 73 28347560 19 31 74 1622
-0.44886318 -1.6686403 0.012063618 213 28347560 64 32 72 1728
-0.37156507 -1.611719 -0.0041858186 239 28347560 65 33 50 1654
-0.31706035 -1.6445967 -0.019995764 185 28347560 52 34 92 1675
-0.23315731 -1.4976102 -0.032515854 79 28347560 18 35 85 1516
-0.4310227 -1.5992028 -0.049185876 229 28347560 63 36 111 1657
-0.36615747 -1.5829611 -0.063552886 276 28347560 73 37 39 1626
-0.30128932 -1.559278 -0.077310808 220 28347560 56 38 111 1590
-0.22618841 -1.4530146 -0.085536122 219 28347560 48 39 71 1473
-0.41433197 -1.5324849 -0.10535866 267 28347560 68 40 60 1591
-0.36700755 -1.5833634 -0.12315148 240 28347560 64 41 74 1630
-0.29303643 -1.5142961 -0.13168702 256 28347560 61 42 150 1548
-0.23771214 -1.5216249 -0.14615004 259 28347560 62 43 71 1547
-0.4208602 -1.5544767 -0.16625248 289 28347560 76 44 59 1619
-0.35963589 -1.5487335 -0.17912731 251 28347560 64 45 36 1600
-0.29196438 -1.5045325 -0.18728359 274 28347560 65 46 131 1544
-0.23403037 -1.4956608 -0.1998948 227 28347560 53 47 133 1527
-0.41327786 -1.5214169 -0.22126092 280 28347560 71 48 49 1592
-0.35275057 -1.51608 -0.2335486 232 28347560 57 49 37 1574
-0.28878114 -1.4839735 -0.24163868 262 28347560 61 50 98 1531
-0.22765262 -1.4522461 -0.24947324 226 28347560 50 51 100 1491
-0.44197503 -1.6213547 -0.29952702 230 28347560 67 52 55 1707
-0.34395951 -1.4749146 -0.28460574 264 28347560 63 53 69 1541
-0.2794691 -1.4337189 -0.28890905 294 28347560 65 54 151 1489
-0.23922506 -1.5262433 -0.32161632 125 28347560 31 55 81 1578
-0.58514845 -2.1418612 -0.48168015 428 28347560 221 56 124 2272
-0.32920775 -1.4083239 -0.32792541 280 28347560 62 57 36 1483
-0.27338108 -1.401054 -0.33823046 350 28347560 75 58 117 1467
-0.22304262 -1.4221889 -0.35625818 306 28347560 67 59 87 1483
-0.57834673 -2.1072683 -0.56077743 452 28347560 230 60 51 2256
-0.48272368 -2.0572753 -0.56352973 387 28347560 185 61 35 2187
-0.28190321 -1.4432549 -0.4077031 84 28347560 20 62 76 1526
-0.21988271 -1.4058874 -0.41047952 273 28347560 60 63 96 1481
-0.59441459 -2.1561437 0.69811577 272 28443960 150 0 61 2343
-0.45288989 -1.9262646 0.59392858 82 28443960 35 1 84 2066
-0.37911654 -1.9361851 0.57129186 50 28443960 21 2 49 2054
-0.27823853 -1.7726066 0.50121683 156 28443960 54 3 24 1863
-0.59082651 -2.1473699 0.60164475 98 28443960 52 4 62 2307
-0.43789986 -1.858867 0.49556652 64 28443960 25 5 33 1973
-0.35832927 -1.8263035 0.46361643 62 28443960 23 6 96 1918
-0.29644677 -1.8762078 0.45406249 96 28443960 37 7 75 1953
-0.5107106 -1.8575813 0.44395494 59 28443960 23 8 83 1977
-0.42368004 -1.8016038 0.40711728 61 28443960 22 9 43 1895
-0.35465166 -1.8023977 0.38563472 80 28443960 28 10 56 1877
-0.27359173 -1.7218102 0.34900084 69 28443960 22 11 29 1778
-0.50140375 -1.8248514 0.36309883 67 28443960 25 12 111 1927
-0.43429607 -1.8435692 0.34389678 65 28443960 24 13 47 1925
-0.34721789 -1.7628314 0.30853602 74 28443960 25 14 114 1823
-0.27009746 -1.6971438 0.27898303 63 28443960 19 15 53 1741
-0.50698245 -1.8450289 0.29484484 71 28443960 26 16 43 1936
-0.42661703 -1.8091327 0.26818156 55 28443960 19 17 102 1878
-0.34838054 -1.7637008 0.24204692 62 28443960 20 18 80 1814
-0.26410747 -1.6529996 0.20930456 65 28443960 19 19 65 1687
-0.48926634 -1.7804343 0.21576303 52 28443960 18 20 90 1859
-0.42019042 -1.7806276 0.19597293 49 28443960 17 21 76 1840
-0.32189327 -1.6255774 0.16157895 58 28443960 16 22 84 1665
-0.27581021 -1.7202705 0.15362135 44 28443960 13 23 147 1749
-0.48423034 -1.7607851 0.14622326 50 28443960 17 24 61 1832
-0.40114397 -1.6979263 0.12300895 63 28443960 19 25 81 1749
-0.3440153 -1.7369766 0.10789835 66 28443960 21 26 112 1774
-0.27087283 -1.6830851 0.08776059 56 28443960 16 27 95 1707
-0.47291499 -1.7163585 0.077387959 84 28443960 27 28 41 1782
-0.3988207 -1.6854631 0.058697339 196 28443960 59 29 23 1733
-0.34287056 -1.7226758 0.043325871 46 28443960 14 30 34 1757
-0.26783791 -1.6603481 0.025128176 65 28443960 18 31 84 1682
-0.45271704 -1.642718 0.011896068 185 28443960 54 32 80 1704
-0.38421485 -1.6210853 -0.0042161876 244 28443960 68 33 53 1666
-0.32011425 -1.6073161 -0.019566003 213 28443960 57 34 86 1639
-0.27495277 -1.6974806 -0.036891337 60 28443960 18 35 72 1720
-0.45359698 -1.6427761 -0.050610691 230 28443960 67 36 99 1705
-0.37863737 -1.5923502 -0.064021915 225 28443960 60 37 51 1638
-0.3202354 -1.6044159 -0.079644717 236 28443960 63 38 123 1638
-0.25616768 -1.5816816 -0.093201272 190 28443960 49 39 68 1605
-0.43651104 -1.5760708 -0.10853729 278 28443960 75 40 30 1639
-0.37671599 -1.5810816 -0.12315148 251 28443960 67 41 75 1630
-0.3093532 -1.5476432 -0.1347495 251 28443960 63 42 158 1584
-0.24321158 -1.4965545 -0.14388269 269 28443960 62 43 84 1523
-0.42082021 -1.5173579 -0.16255569 271 28443960 68 44 90 1583
-0.36359501 -1.5233003 -0.1764404 249 28443960 62 45 34 1576
-0.30821311 -1.53775 -0.1916503 262 28443960 65 46 138 1580
-0.24320315 -1.4941967 -0.1998948 235 28443960 55 47 150 1527
-0.41941983 -1.5074037 -0.21959312 283 28443960 71 48 47 1580
-0.35928619 -1.5023452 -0.23176803 243 28443960 59 49 20 1562
-0.29788119 -1.4821736 -0.24163868 234 28443960 55 50 82 1531
-0.24227084 -1.4858518 -0.25549674 237 28443960 55 51 88 1527
-0.60440665 -2.1647871 -0.4005976 410 28443960 214 52 91 2283
-0.35850069 -1.4957136 -0.28903827 275 28443960 67 53 54 1565
-0.29755348 -1.4781389 -0.29822242 253 28443960 60 54 141 1537
-0.23157196 -1.4203913 -0.29960456 278 28443960 60 55 78 1470
-0.59827965 -2.1382306 -0.48168015 408 28443960 210 56 156 2272
-0.34331033 -1.4290359 -0.33323237 255 28443960 58 57 28 1507
-0.2796661 -1.3879035 -0.33546373 311 28443960 66 58 109 1455
-0.23364019 -1.4322903 -0.35914096 181 28443960 41 59 86 1495
-0.5912658 -2.1036801 -0.56077743 435 28443960 221 60 44 2256
-0.50077367 -2.0768182 -0.56971389 386 28443960 188 61 52 2211
-0.28846714 -1.4301625 -0.40449706 230 28443960 53 62 86 1514
-0.21739598 -1.3362303 -0.3905237 232 28443960 46 63 76 1409
-0.58584869 -2.0752871 0.67308724 347 28541390 177 0 74 2259
-0.50518769 -2.0910299 0.64567459 118 28541390 60 1 89 2246
-0.39555812 -1.9564182 0.57796711 67 28541390 29 2 39 2078
-0.29283425 -1.7936791 0.50767374 114 28541390 40 3 50 1887
-0.65111685 -2.3109634 0.64858717 137 28541390 85 4 79 2487
-0.46842614 -1.9351702 0.51666516 59 28541390 25 5 25 2057
-0.37646437 -1.8583074 0.47231832 64 28541390 24 6 100 1954
-0.31173775 -1.8973871 0.45964238 91 28541390 36 7 59 1977
-0.52843696 -1.8769245 0.4493444 72 28541390 29 8 84 2001
-0.44023228 -1.821754 0.41227338 80 28541390 29 9 28 1919
-0.36102825 -1.7771697 0.38070384 55 28541390 19 10 45 1853
-0.29182255 -1.7665359 0.3584227 67 28541390 22 11 37 1826
-0.51259136 -1.8217405 0.36309883 57 28541390 21 12 128 1927
-0.44282207 -1.8293941 0.34175301 56 28541390 21 13 58 1913
-0.36038461 -1.7722573 0.31056696 71 28541390 24 14 114 1835
-0.28630611 -1.7305127 0.2847518 70 28541390 22 15 60 1777
-0.4990184 -1.7733836 0.28387955 80 28541390 28 16 24 1864
-0.44889709 -1.852653 0.27503607 65 28541390 24 17 88 1926
-0.3449389 -1.6916126 0.23243977 63 28541390 19 18 57 1742
-0.28594971 -1.7218264 0.21823753 49 28541390 15 19 96 1759
-0.51632524 -1.834765 0.22272688 65 28541390 24 20 70 1919
-0.42267355 -1.7432287 0.1921387 59 28541390 19 21 98 1804
-0.33903697 -1.658676 0.16507256 62 28541390 18 22 87 1701
-0.28832513 -1.7303368 0.15467535 78 28541390 24 23 120 1761
-0.48529762 -1.7232392 0.14334987 45 28541390 15 24 67 1796
-0.4200258 -1.7303303 0.12554087 57 28541390 18 25 111 1785
-0.3402721 -1.6644226 0.10351916 59 28541390 17 26 114 1702
-0.26735759 -1.5986514 0.083441965 45 28541390 12 27 98 1623
-0.48018199 -1.7018863 0.076866828 74 28541390 23 28 58 1770
-0.39782238 -1.6363696 0.057071563 138 28541390 39 29 33 1685
-0.35826203 -1.7440416 0.043917686 59 28541390 19 30 42 1781
-0.26810309 -1.5995055 0.02423181 67 28541390 18 31 76 1622
-0.48886061 -1.7322984 0.012566269 55 28541390 18 32 70 1800
-0.39415443 -1.6186973 -0.0042161876 223 28541390 62 33 66 1666
-0.32513875 -1.5818149 -0.019279499 227 28541390 59 34 87 1615
-0.267445 -1.5892835 -0.034574907 73 28541390 19 35 82 1612
-0.47672179 -1.6861311 -0.052035511 240 28541390 74 36 92 1753
-0.39124614 -1.6016454 -0.064490944 245 28541390 67 37 29 1650
-0.3228195 -1.5672027 -0.077894285 200 28541390 51 38 95 1602
-0.25592887 -1.5210117 -0.089717112 230 28541390 55 39 76 1545
-0.45270678 -1.5964016 -0.11012662 288 28541390 80 40 63 1663
-0.38356549 -1.5671177 -0.12224484 249 28541390 65 41 64 1618
-0.31401259 -1.522296 -0.13270785 249 28541390 60 42 149 1560
-0.25437832 -1.5068136 -0.14501637 263 28541390 62 43 79 1535
-0.43664375 -1.5377126 -0.16502023 261 28541390 68 44 67 1607
-0.37577453 -1.5326221 -0.17778386 278 28541390 70 45 34 1588
-0.32005525 -1.5474945 -0.19310589 250 28541390 63 46 141 1592
-0.25831652 -1.5278671 -0.20460744 238 28541390 58 47 117 1563
-0.43191686 -1.5162308 -0.22126092 269 28541390 68 48 45 1592
-0.37699056 -1.5346861 -0.23710968 228 28541390 58 49 56 1598
-0.31178212 -1.5035235 -0.24542663 260 28541390 63 50 92 1555
-0.24743228 -1.4610077 -0.25148106 252 28541390 57 51 90 1503
-0.61443156 -2.1496789 -0.39849198 264 28541390 136 52 116 2271
-0.37049067 -1.5049374 -0.29125452 260 28541390 65 53 61 1577
-0.30901143 -1.4878112 -0.30055076 249 28541390 60 54 120 1549
-0.23635998 -1.3957773 -0.29471308 247 28541390 52 55 86 1446
-0.62107581 -2.1683409 -0.48931244 433 28541390 231 56 133 2308
-0.40814218 -1.6541463 -0.38630188 228 28541390 69 57 43 1747
-0.30481386 -1.4661871 -0.35483071 209 28541390 50 58 85 1539
-0.24047828 -1.4193447 -0.35625818 296 28541390 65 59 97 1483
-0.61058992 -2.1223531 -0.5667432 443 28541390 230 60 39 2280
-0.51908135 -2.096216 -0.57589805 404 28541390 202 61 38 2235
-0.28310159 -1.3604381 -0.38526073 221 28541390 46 62 95 1442
-0.23327598 -1.3803458 -0.40382755 125 28541390 27 63 74 1457
-0.6112901 -2.1156726 0.68738925 331 28638820 176 0 80 2307
-0.54568487 -2.1994433 0.68017191 179 28638820 100 1 84 2366
-0.41696921 -1.999089 0.59131765 74 28638820 33 2 56 2126
-0.31156325 -1.8374281 0.52058756 58 28638820 22 3 46 1935
-0.66207433 -2.2957935 0.64545768 102 28638820 63 4 99 2475
-0.48309317 -1.9435318 0.51967919 73 28638820 31 5 40 2069
-0.39738742 -1.9015542 0.48392081 72 28638820 29 6 103 2002
-0.33122531 -1.9414583 0.47080213 81 28638820 33 7 61 2025
-0.55613381 -1.929828 0.46281797 48 28638820 20 8 102 2061
-0.46269301 -1.8645177 0.42258561 68 28638820 26 9 39 1967
-0.40082902 -1.9128535 0.41028902 67 28638820 27 10 44 1997
-0.30464527 -1.7763093 0.36077815 85 28638820 29 11 42 1838
-0.53354454 -1.8525351 0.36988223 73 28638820 28 12 95 1963
-0.44264618 -1.7808094 0.33317792 63 28638820 22 13 50 1865
-0.35911319 -1.7121377 0.30041218 69 28638820 22 14 77 1775
-0.29290879 -1.7053756 0.28090596 75 28638820 23 15 59 1753
-0.52630305 -1.8272718 0.2930173 61 28638820 22 16 42 1924
-0.43444753 -1.746133 0.25961345 58 28638820 19 17 90 1818
-0.35775954 -1.7011024 0.23404096 60 28638820 19 18 73 1754
-0.30864605 -1.7904447 0.22717051 66 28638820 22 19 78 1831
-0.50448006 -1.7513896 0.21297748 51 28638820 17 20 93 1835
-0.42471382 -1.7058675 0.18830444 51 28638820 16 21 83 1768
-0.36152577 -1.7149971 0.17089522 61 28638820 19 22 92 1761
-0.2928257 -1.6931987 0.15151332 61 28638820 18 23 141 1725
-0.50580144 -1.7547103 0.14622326 55 28638820 19 24 78 1832
-0.45669022 -1.8322549 0.13313663 58 28638820 21 25 87 1893
-0.36036265 -1.7091841 0.10643863 43 28638820 13 26 113 1750
-0.28535873 -1.6442114 0.085909754 61 28638820 17 27 75 1671
-0.48396313 -1.6758718 0.075824559 62 28638820 19 28 51 1746
-0.4136647 -1.6571699 0.057884451 53 28638820 15 29 25 1709
-0.34409702 -1.624451 0.040958606 65 28638820 18 30 39 1661
-0.28819278 -1.6569362 0.025128176 74 28638820 21 31 66 1682
-0.51280004 -1.7753799 0.012901369 56 28638820 19 32 93 1848
-0.40407914 -1.6162484 -0.0042161876 233 28638820 65 33 46 1666
-0.33732644 -1.5915285 -0.019422751 224 28638820 59 34 83 1627
-0.27925506 -1.599431 -0.034832288 59 28638820 16 35 68 1624
-0.48039046 -1.6601301 -0.051323101 267 28638820 80 36 128 1729
-0.40398312 -1.6108451 -0.064959966 255 28638820 70 37 42 1662
-0.33989996 -1.6003653 -0.079644717 239 28638820 64 38 104 1638
-0.26937732 -1.5430152 -0.091110781 215 28638820 53 39 63 1569
-0.4624936 -1.5935938 -0.11012662 297 28638820 82 40 55 1663
-0.3931739 -1.5647347 -0.12224484 219 28638820 57 41 75 1618
-0.3233473 -1.5203406 -0.13270785 277 28638820 67 42 150 1560
-0.26774088 -1.5287588 -0.14728372 246 28638820 60 43 60 1559
-0.4593946 -1.5808539 -0.16994926 294 28638820 81 44 64 1655
-0.39390332 -1.5649792 -0.18181422 261 28638820 69 45 59 1624
-0.31712446 -1.4872539 -0.18582802 268 28638820 63 46 116 1532
-0.26768646 -1.5262532 -0.20460744 228 28638820 56 47 158 1563
-0.48112077 -1.6504562 -0.24127446 238 28638820 72 48 65 1736
-0.3864001 -1.532344 -0.23710968 224 28638820 57 49 49 1598
-0.31852451 -1.4899944 -0.24353266 250 28638820 60 50 89 1543
-0.25639218 -1.459462 -0.25148106 246 28638820 56 51 89 1503
-0.64087534 -2.1912234 -0.40691453 408 28638820 220 52 101 2319
-0.38260725 -1.51407 -0.2934708 264 28638820 67 53 62 1589
-0.31320554 -1.4628651 -0.29589409 282 28638820 66 54 138 1525
-0.27134275 -1.5447233 -0.32650784 133 28638820 34 55 56 1602
-0.63107049 -2.1532354 -0.48676834 435 28638820 229 56 128 2296
-0.53321052 -2.105402 -0.49244088 355 28638820 176 57 66 2227
-0.29912359 -1.3957846 -0.33823046 342 28638820 74 58 101 1467
-0.23910113 -1.3604786 -0.34184453 301 28638820 61 59 103 1423
-0.62031877 -2.1074164 -0.56376028 493 28638820 253 60 44 2268
-0.53193372 -2.0929916 -0.57589805 400 28638820 200 61 55 2235
-0.30842105 -1.4378215 -0.4077031 102 28638820 24 62 71 1526
-0.24771425 -1.4129585 -0.41380545 206 28638820 46 63 92 1493
-0.62750715 -2.1228669 0.6909647 321 28736860 173 0 73 2319
-0.54782599 -2.1515014 0.66637295 176 28736860 95 1 89 2318
-0.41711384 -1.9401476 0.57462943 65 28736860 28 2 51 2066
-0.33083987 -1.8810132 0.53350133 30 28736860 12 3 39 1983
-0.69909662 -2.3694663 0.66736406 137 28736860 90 4 84 2559
-0.49213839 -1.9292762 0.51666516 67 28736860 28 5 35 2057
-0.40659583 -1.887697 0.48102018 79 28736860 31 6 94 1990
-0.32483128 -1.8359553 0.44569269 97 28736860 36 7 72 1917
-0.55142993 -1.8702985 0.4493444 59 28736860 24 8 88 2001
-0.49437207 -1.9411443 0.44063196 73 28736860 31 9 52 2051
-0.40760037 -1.8873992 0.40535817 79 28736860 31 10 52 1973
-0.30729836 -1.7280674 0.3513563 83 28736860 27 11 31 1790
-0.54490143 -1.8492266 0.36988223 70 28736860 27 12 115 1963
-0.44480956 -1.7437381 0.32674661 63 28736860 21 13 55 1829
-0.38710338 -1.7908213 0.31462887 58 28736860 20 14 91 1859
-0.29713726 -1.6685618 0.27513722 76 28736860 22 15 57 1717
-0.53750509 -1.8240081 0.2930173 61 28736860 22 16 48 1924
-0.45984498 -1.8009735 0.26818156 74 28736860 26 17 70 1878
-0.37826648 -1.7453666 0.24044572 67 28736860 22 18 83 1802
-0.30077332 -1.683023 0.21377105 59 28736860 18 19 93 1723
-0.5253247 -1.7825595 0.21715578 56 28736860 20 20 76 1871
-0.44698748 -1.7494709 0.19341677 55 28736860 18 21 71 1816
-0.39232367 -1.8061161 0.18021148 59 28736860 21 22 64 1857
-0.30531877 -1.7031362 0.15256734 60 28736860 18 23 117 1737
-0.52332568 -1.77452 0.14813884 50 28736860 17 24 78 1856
-0.45309293 -1.7714335 0.12891676 43 28736860 15 25 82 1833
-0.36067152 -1.6601217 0.10351916 68 28736860 20 26 136 1702
-0.3039287 -1.6896088 0.088377535 64 28736860 19 27 93 1719
-0.50103062 -1.6958656 0.076866828 67 28736860 21 28 53 1770
-0.44465676 -1.7359267 0.060729563 53 28736860 17 29 30 1793
-0.3566159 -1.6340295 0.041254513 179 28736860 50 30 42 1673
-0.29622558 -1.6433284 0.024948904 77 28736860 22 31 85 1670
-0.49647957 -1.6801378 0.012231168 43 28736860 13 32 74 1752
-0.42889819 -1.6718563 -0.0043680309 208 28736860 62 33 51 1726
-0.3522054 -1.6128745 -0.019709256 238 28736860 65 34 84 1651
-0.28906372 -1.5976875 -0.034832288 92 28736860 24 35 60 1624
-0.50078207 -1.6916554 -0.052391715 233 28736860 73 36 117 1765
-0.41385949 -1.608336 -0.064959966 246 28736860 68 37 26 1662
-0.34971321 -1.5982496 -0.079644717 252 28736860 68 38 130 1638
-0.28097263 -1.5531217 -0.091807611 206 28736860 52 39 64 1581
-0.47226301 -1.590726 -0.11012662 288 28736860 80 40 70 1663
-0.40276754 -1.5622927 -0.12224484 252 28736860 66 41 78 1618
-0.34034684 -1.5533662 -0.13577034 269 28736860 68 42 165 1596
-0.27071705 -1.4918242 -0.14388269 261 28736860 61 43 68 1523
-0.46568468 -1.5665637 -0.16871701 288 28736860 78 44 45 1643
-0.39753538 -1.5394411 -0.17912731 265 28736860 68 45 51 1600
-0.33391041 -1.5201823 -0.19019474 274 28736860 67 46 114 1568
-0.27279225 -1.5011719 -0.20146568 216 28736860 51 47 115 1539
-0.66102171 -2.2168763 -0.32466426 407 28736860 222 48 96 2336
-0.39282295 -1.5184554 -0.23532914 240 28736860 60 49 31 1586
-0.3251127 -1.4764395 -0.24163868 258 28736860 61 50 94 1531
-0.26534244 -1.4578613 -0.25148106 258 28736860 58 51 108 1503
-0.65430838 -2.1872499 -0.40691453 431 28736860 232 52 96 2319
-0.38301164 -1.4774452 -0.28682202 263 28736860 63 53 52 1553
-0.32471076 -1.4724115 -0.29822242 263 28736860 62 54 114 1537
-0.26609147 -1.4621214 -0.30938759 292 28736860 67 55 106 1518
-0.64427066 -2.1493227 -0.48676834 332 28736860 175 56 119 2296
-0.5520044 -2.1247447 -0.49774787 401 28736860 203 57 80 2251
-0.32026646 -1.4509341 -0.35206401 296 28736860 69 58 101 1527
-0.25996441 -1.427747 -0.35914096 124 28736860 28 59 74 1495
-0.64328939 -2.1369605 -0.5727089 488 28736860 259 60 53 2304
-0.54769099 -2.100908 -0.5789901 402 28736860 203 61 67 2247
-0.34467882 -1.5601085 -0.44296971 202 28736860 56 62 97 1658
-0.24401544 -1.3433466 -0.3938497 312 28736860 63 63 117 1421
-0.64714998 -2.1409066 0.69811577 324 28833620 178 0 80 2343
-0.56972998 -2.1814609 0.67672217 205 28833620 114 1 105 2354
-0.42901051 -1.9375517 0.57462943 62 28833620 26 2 48 2066
-0.33201602 -1.8220961 0.51735914 56 28833620 21 3 42 1923
-0.76381844 -2.5314953 0.71430647 428 28833620 321 4 82 2739
-0.50690693 -1.9374571 0.51967919 72 28833620 31 5 34 2069
-0.40808433 -1.8396953 0.46941769 59 28833620 22 6 114 1942
-0.35081735 -1.9142876 0.46522227 100 28833620 40 7 77 2001
-0.56627113 -1.8780752 0.45203909 58 28833620 24 8 112 2013
-0.50627339 -1.9380744 0.44063196 63 28833620 26 9 55 2051
-0.41917357 -1.8848628 0.40535817 69 28833620 27 10 56 1973
-0.32428926 -1.7608651 0.3584227 85 28833620 28 11 41 1826
-0.54603684 -1.8119967 0.36309883 64 28833620 24 12 109 1927
-0.47343168 -1.8095108 0.33960924 57 28833620 21 13 61 1901
-0.40065405 -1.7999567 0.31665984 68 28833620 24 14 95 1871
-0.31596249 -1.7133012 0.28282887 78 28833620 24 15 67 1765
