# .PCD v0.7 - Point Cloud Data file format
VERSION 0.7
FIELDS x y z intensity t reflectivity ring noise range
SIZE 4 4 4 4 4 2 1 2 4
TYPE F F F F U U U U U
COUNT 1 1 1 1 1 1 1 1 1
WIDTH 771
HEIGHT 1
VIEWPOINT 0 0 0 1 0 0 0
POINTS 771
DATA ascii
-1.8697705 -1.8770907 0.53037137 55 38393900 40 11 17 2702
-2.6146111 -2.1004691 0.64347827 123 38393900 144 12 76 3415
-2.0746353 -1.796151 0.49824834 471 38393900 366 13 53 2789
-1.9887624 -1.8544171 0.46695054 150 38393900 114 14 57 2759
-1.8234607 -1.8297052 0.4193559 172 38393900 118 15 32 2617
-2.6752002 -2.1490672 0.52877134 394 38393900 475 16 38 3472
-2.4473476 -2.1178617 0.46696153 189 38393900 203 17 66 3270
-2.0378227 -1.8981031 0.37494591 98 38393900 77 18 49 2810
-1.8467984 -1.8508602 0.32692209 170 38393900 118 19 32 2635
-2.6381872 -2.1192577 0.39543012 99 38393900 114 20 52 3407
-2.4574547 -2.1259332 0.34806499 230 38393900 245 21 42 3268
-2.2973166 -2.1377842 0.30598104 370 38393900 368 22 47 3153
-2.1267273 -2.1290996 0.26534596 388 38393900 354 23 88 3021
-2.6364136 -2.1170003 0.27073652 266 38393900 306 24 36 3392
-2.4606688 -2.1275878 0.22934946 384 38393900 408 25 48 3261
-2.3135123 -2.1527047 0.19256267 371 38393900 372 26 94 3166
-2.1207099 -2.1205573 0.15439078 386 38393900 348 27 56 3003
-2.6511862 -2.1267321 0.14774065 287 38393900 332 28 36 3402
-2.4903057 -2.1516941 0.11153511 364 38393900 394 29 27 3293
-2.2978868 -2.1341279 0.077355295 356 38393900 350 30 29 3137
-2.1403275 -2.1386051 0.045206819 417 38393900 381 31 48 3026
-2.6958592 -2.1623361 0.024127236 180 38393900 214 32 56 3456
-2.4690518 -2.1317501 -0.0082552247 394 38393900 419 33 57 3262
-2.3177345 -2.152034 -0.037759162 343 38393900 344 34 66 3163
-2.1343775 -2.1299071 -0.064688534 421 38393900 382 35 51 3016
-2.696573 -2.160744 -0.10261653 440 38393900 526 36 85 3457
-2.4657068 -2.1257093 -0.12734029 393 38393900 417 37 36 3258
-2.3065393 -2.1398406 -0.15316291 397 38393900 394 38 117 3150
-2.1262825 -2.1219032 -0.1747306 398 38393900 360 39 45 3009
-2.6982081 -2.1585765 -0.22932559 448 38393900 538 40 63 3463
-2.4463913 -2.1071227 -0.2446408 404 38393900 424 41 70 3238
-2.2795768 -2.1136427 -0.2654157 421 38393900 410 42 98 3120
-2.105984 -2.0993736 -0.28219146 430 38393900 383 43 48 2987
-2.7030308 -2.1608877 -0.35725287 469 38393900 568 44 75 3479
-2.4794946 -2.1339021 -0.36855444 420 38393900 455 45 38 3292
-2.2866437 -2.1179698 -0.38087466 397 38393900 392 46 62 3140
-2.125844 -2.1181359 -0.39625511 433 38393900 397 47 91 3027
-2.6905024 -2.1471801 -0.48310485 455 38393900 549 48 57 3476
-2.4849839 -2.1367395 -0.4917281 409 38393900 449 49 51 3314
-2.2838559 -2.1131668 -0.49732432 434 38393900 431 50 19 3151
-2.1398053 -2.1308563 -0.51249939 454 38393900 426 51 44 3063
-2.6820068 -2.1364951 -0.61116141 422 38393900 511 52 57 3483
-2.4728825 -2.1241579 -0.61261338 412 38393900 454 53 61 3317
-2.3084445 -2.134572 -0.62186265 388 38393900 399 54 71 3205
-2.1352136 -2.1263578 -0.62733525 447 38393900 423 55 37 3078
-2.7101789 -2.1564639 -0.7513532 421 38393900 529 56 80 3544
-2.4831107 -2.1306853 -0.74186766 368 38393900 414 57 50 3355
-2.3087511 -2.1340334 -0.744937 437 38393900 456 58 46 3231
-2.0767245 -2.0677505 -0.72524846 105 38393900 95 59 45 3019
-2.7129524 -2.1534946 -0.88889194 434 38393900 555 60 39 3576
-1.9306508 -1.6538292 -0.67793632 62 38393900 43 61 26 2631
-1.8359771 -1.6963837 -0.69304186 79 38393900 53 62 25 2594
-1.7184892 -1.7124972 -0.69983846 89 38393900 57 63 20 2525
-2.7321959 -2.1636779 1.087845 92 38492760 123 0 92 3651
-2.5075617 -2.1460822 0.99064761 424 38492760 504 1 67 3446
-1.9578841 -1.8073399 0.77154994 35 38492760 27 2 29 2774
-1.8368721 -1.8284518 0.72397995 398 38492760 288 3 29 2691
-1.1915154 -0.94456553 0.41074577 352 38492760 87 4 1 1575
-1.1777958 -1.0071197 0.40212974 415 38492760 106 5 1 1601
-1.1711651 -1.0802802 0.39690208 296 38492760 80 6 34 1642
-1.1571345 -1.1495005 0.38989392 153 38492760 43 7 30 1677
-2.5539248 -2.0254047 0.75115293 344 38492760 385 8 61 3345
-2.3322222 -1.9958074 0.67523462 172 38492760 170 9 60 3143
-2.0418749 -1.8813772 0.58286929 387 38492760 311 10 32 2837
-1.8311232 -1.8158705 0.51623857 298 38492760 206 11 21 2630
-2.6643806 -2.1136839 0.65252274 175 38492760 210 12 69 3463
-2.3458519 -2.0059114 0.56041771 146 38492760 144 13 63 3137
-2.0088027 -1.8501918 0.4689815 234 38492760 179 14 38 2771
-1.8346533 -1.8184822 0.4193559 189 38492760 129 15 43 2617
-2.7162108 -2.1547241 0.53425401 324 38492760 399 16 27 3508
-2.4332106 -2.0796552 0.46182066 261 38492760 273 17 46 3234
-2.2682312 -2.0868692 0.4149757 208 38492760 201 18 51 3110
-1.8581203 -1.8394936 0.32692209 211 38492760 146 19 49 2635
-2.7351809 -2.1696949 0.40796506 252 38492760 311 20 50 3515
-2.4250958 -2.0720603 0.34167457 328 38492760 338 21 71 3208
-2.3279767 -2.1398127 0.30831012 374 38492760 378 22 59 3177
-2.1652496 -2.1412256 0.26850799 378 38492760 354 23 71 3057
-2.6024902 -2.0636237 0.26594755 177 38492760 196 24 42 3332
-2.4372661 -2.0813551 0.22597356 345 38492760 356 25 44 3213
-2.3354962 -2.146574 0.19329254 376 38492760 380 26 72 3178
-2.15926 -2.1327696 0.15624161 410 38492760 379 27 69 3039
-2.6453907 -2.0955365 0.14669839 315 38492760 359 28 43 3378
-2.5217071 -2.1519437 0.11234799 340 38492760 374 29 25 3317
-2.3639786 -2.1686459 0.079130739 338 38492760 348 30 44 3209
-2.1790283 -2.150718 0.045744635 442 38492760 414 31 49 3062
-2.6056046 -2.0637982 0.023205711 349 38492760 385 32 51 3324
-2.5186093 -2.1477053 -0.0083766989 403 38492760 441 33 28 3310
-2.3485818 -2.1539929 -0.038045667 350 38492760 356 34 72 3187
-2.1644943 -2.1336153 -0.065203294 440 38492760 406 35 48 3040
-2.7379992 -2.166486 -0.10368513 321 38492760 392 36 86 3493
-2.4969628 -2.1260872 -0.12827834 400 38492760 431 37 41 3282
-2.3196256 -2.1256478 -0.15316291 407 38492760 404 38 127 3150
-2.173388 -2.142457 -0.17751794 424 38492760 396 39 30 3057
-2.7207978 -2.1494024 -0.23012026 456 38492760 551 40 65 3475
-2.5139585 -2.1385915 -0.25008062 405 38492760 444 41 60 3310
-2.3277721 -2.1319175 -0.269499 439 38492760 441 42 98 3168
-2.1528745 -2.1199398 -0.28672618 427 38492760 393 43 34 3035
-2.7443461 -2.16645 -0.36094964 457 38492760 565 44 70 3515
-2.5107131 -2.134094 -0.37124136 397 38492760 436 45 45 3316
-2.3523259 -2.1521416 -0.38960809 424 38492760 438 46 78 3212
-2.181195 -2.1467776 -0.40410954 443 38492760 422 47 78 3087
-2.7129602 -2.1379867 -0.48477265 453 38492760 551 48 47 3488
-2.5161386 -2.1368153 -0.49528918 385 38492760 429 49 34 3338
-2.3230195 -2.1230955 -0.50300622 436 38492760 442 50 44 3187
-2.1444054 -2.1093898 -0.51049155 453 38492760 421 51 38 3051
-2.7322068 -2.1492145 -0.61958396 451 38492760 563 52 63 3531
-2.5128491 -2.1318333 -0.61926222 406 38492760 457 53 60 3353
-2.3388824 -2.1362453 -0.62651932 445 38492760 464 54 51 3229
-2.1649709 -2.129694 -0.63222682 445 38492760 428 55 41 3102
-2.7325809 -2.1470394 -0.75389731 432 38492760 547 56 83 3556
-2.5139937 -2.1305418 -0.74717462 402 38492760 458 57 49 3379
-2.3390484 -2.1355731 -0.7504704 440 38492760 466 58 41 3255
-2.0561533 -2.0222964 -0.71371758 70 38492760 61 59 46 2971
-2.7352626 -2.1439781 -0.89187473 422 38492760 543 60 26 3588
-1.9584659 -1.6569299 -0.68412048 66 38492760 46 61 26 2655
-1.8207273 -1.6617005 -0.6834237 72 38492760 47 62 35 2558
-1.6796633 -1.6533905 -0.67988265 62 38492760 37 63 31 2453
-1.1933669 -0.93319291 0.47285947 222 38590190 56 0 28 1587
-2.5294604 -2.1380754 0.99409735 348 38590190 417 1 66 3458
-1.9859716 -1.810825 0.77822518 40 38590190 31 2 21 2798
-1.8810209 -1.8495593 0.73689371 306 38590190 229 3 43 2739
-1.2428998 -0.97294104 0.42639324 333 38590190 89 4 1 1635
-1.2017014 -1.0148627 0.40815794 344 38590190 91 5 1 1625
-1.1605568 -1.0573893 0.39110082 335 38590190 88 6 47 1618
-1.164166 -1.1423788 0.38989392 263 38590190 74 7 45 1677
-2.5755107 -2.0169055 0.7538476 122 38590190 137 8 55 3357
-2.4786899 -2.094938 0.71390539 182 38590190 201 9 30 3323
-1.9838969 -1.8055753 0.56314582 429 38590190 322 10 30 2741
-1.9262871 -1.8869401 0.53979325 183 38590190 138 11 24 2750
-2.6030807 -2.0391555 0.63443375 334 38590190 379 12 64 3367
-2.4573417 -2.075278 0.58399922 431 38590190 460 13 38 3269
-1.9763763 -1.7980369 0.45882675 318 38590190 234 14 66 2711
-1.8965585 -1.8569109 0.43089339 179 38590190 129 15 28 2689
-2.7293808 -2.1380174 0.53425401 108 38590190 133 16 23 3508
-2.4731526 -2.0876696 0.46696153 329 38590190 351 17 48 3270
-2.3426023 -2.128901 0.42618406 449 38590190 458 18 40 3194
-1.9289651 -1.8863336 0.33734387 149 38590190 110 19 47 2719
-2.7765913 -2.1749208 0.41214335 288 38590190 363 20 49 3551
-2.4742393 -2.0879214 0.34678689 288 38590190 305 21 56 3256
-2.4029603 -2.1816864 0.31646186 242 38590190 257 22 38 3261
-2.1783471 -2.1278996 0.26850799 417 38590190 390 23 80 3057
-2.7846296 -2.1803548 0.28318784 241 38590190 303 24 37 3548
-2.4957428 -2.1049488 0.23019344 286 38590190 306 25 54 3273
-2.3486235 -2.1322033 0.19329254 387 38590190 391 26 75 3178
-2.1723058 -2.1194804 0.15624161 393 38590190 362 27 49 3039
-2.6959708 -2.1088107 0.14878291 446 38590190 523 28 42 3426
-2.5165229 -2.1209722 0.11153511 277 38590190 300 29 30 3293
-2.3861303 -2.1621554 0.079426654 345 38590190 358 30 23 3221
-2.1750014 -2.1205549 0.045386091 421 38590190 388 31 53 3038
-2.646575 -2.0699496 0.023457035 308 38590190 348 32 62 3360
-2.53174 -2.132211 -0.0083766989 362 38590190 396 33 41 3310
-2.3795397 -2.155654 -0.038332175 356 38590190 368 34 60 3211
-2.1861405 -2.1286635 -0.065460674 411 38590190 382 35 44 3052
-2.7890477 -2.1791849 -0.10510995 257 38590190 323 36 81 3541
-2.5650244 -2.1570308 -0.13109249 437 38590190 491 37 41 3354
-2.3681695 -2.1435483 -0.15549684 406 38590190 415 38 118 3198
-2.1779101 -2.1207232 -0.1768211 436 38590190 404 39 45 3045
-2.7528167 -2.1473966 -0.23170958 435 38590190 533 40 61 3499
-2.5270333 -2.1231258 -0.25008062 407 38590190 446 41 64 3310
-2.3496761 -2.1256154 -0.27051982 443 38590190 448 42 122 3180
-2.1829689 -2.1233494 -0.28899354 438 38590190 410 43 31 3059
-2.7670019 -2.1569088 -0.3621819 453 38590190 564 44 81 3527
-2.5511594 -2.1416492 -0.37527174 400 38590190 449 45 38 3352
-2.3654869 -2.1376674 -0.38960809 432 38590190 446 46 79 3212
-2.1857963 -2.1250606 -0.40253863 433 38590190 410 47 77 3075
-2.7729204 -2.1577902 -0.49311164 456 38590190 573 48 56 3548
-2.5292025 -2.1213362 -0.49528918 383 38590190 426 49 51 3338
-2.3711858 -2.140563 -0.51058209 452 38590190 473 50 30 3235
-2.1827629 -2.1209261 -0.51651502 451 38590190 429 51 44 3087
-2.7640028 -2.1469033 -0.62379521 433 38590190 548 52 74 3555
-2.5710816 -2.1542461 -0.6303435 376 38590190 439 53 58 3413
-2.3781679 -2.1455104 -0.63350439 415 38590190 442 54 47 3265
-2.1948485 -2.1327438 -0.63711828 438 38590190 428 55 37 3126
-2.7827656 -2.1589866 -0.76407367 398 38590190 517 56 89 3604
-2.5718906 -2.152633 -0.76044196 416 38590190 491 57 50 3439
-2.3607793 -2.1290009 -0.75323713 416 38590190 443 58 50 3267
-2.1186523 -2.0583444 -0.73101401 76 38590190 70 59 34 3043
-2.7851338 -2.1556113 -0.90380621 439 38590190 580 60 32 3636
-1.9152101 -1.6002748 -0.66556805 58 38590190 39 61 21 2583
-1.779355 -1.6040409 -0.66418737 73 38590190 45 62 41 2486
-1.7063094 -1.6591288 -0.68653464 81 38590190 50 63 21 2477
-1.1900035 -0.91885215 0.46928394 266 38688230 66 0 1 1575
-2.5690012 -2.1446114 1.0044466 272 38688230 333 1 71 3494
-1.9713506 -1.7754637 0.76821226 217 38688230 165 2 28 2762
-1.8342999 -1.7816154 0.71429461 555 38688230 391 3 41 2655
-1.2396804 -0.9582116 0.42326373 243 38688230 64 4 1 1623
-1.2346656 -1.0297894 0.41720021 253 38688230 70 5 1 1661
-1.1843337 -1.0658269 0.39690208 293 38688230 79 6 57 1642
-1.154393 -1.1189679 0.38431406 317 38688230 87 7 42 1653
-2.7450969 -2.1226661 0.79965782 234 38688230 297 8 72 3561
-2.500495 -2.0871999 0.71648347 205 38688230 228 9 53 3335
-1.9949384 -1.7933682 0.56314582 419 38688230 315 10 38 2741
-1.8701808 -1.8096274 0.52094948 167 38688230 117 11 23 2654
-2.6155436 -2.0231447 0.63443375 268 38688230 304 12 76 3367
-2.5334988 -2.1130986 0.59900564 193 38688230 217 13 32 3353
-2.04895 -1.8412113 0.47304341 412 38688230 322 14 66 2795
-1.916431 -1.8534737 0.43281633 164 38688230 119 15 57 2701
-2.7424481 -2.1212299 0.53425401 242 38688230 298 16 22 3508
-2.5680194 -2.1409035 0.48238412 145 38688230 165 17 46 3378
-2.3290703 -2.0906544 0.42138049 437 38688230 436 18 65 3158
-1.9233748 -1.8579167 0.3343662 104 38688230 75 19 36 2695
-2.7993121 -2.1651351 0.41353613 136 38688230 172 20 52 3563
-2.5145016 -2.0956171 0.35062116 140 38688230 151 21 46 3292
-2.4074101 -2.158927 0.31529731 487 38688230 514 22 45 3249
-2.2085667 -2.131094 0.27061597 400 38688230 380 23 87 3081
-2.7884927 -2.1559112 0.28223005 259 38688230 323 24 49 3536
-2.481019 -2.066612 0.22766152 358 38688230 375 25 46 3237
-2.3794973 -2.1337454 0.19475228 361 38688230 370 26 96 3202
-2.2025278 -2.1227443 0.15747552 395 38688230 370 27 49 3063
-2.7183475 -2.0995572 0.14930403 370 38688230 437 28 40 3438
-2.6308842 -2.1898899 0.11600599 144 38688230 169 29 27 3425
-2.3814745 -2.1314726 0.078834839 343 38688230 350 30 27 3197
-2.231184 -2.1487858 0.046282455 416 38688230 399 31 41 3098
-2.7257068 -2.1050134 0.024043461 281 38688230 333 32 54 3444
-2.5816784 -2.1473308 -0.0084981741 424 38688230 478 33 37 3358
-2.3837798 -2.1330113 -0.038188923 361 38688230 369 34 56 3199
-2.2078075 -2.1235263 -0.065718062 425 38688230 399 35 48 3064
-2.8118634 -2.1693575 -0.10546616 386 38688230 488 36 88 3553
-2.5874357 -2.1489127 -0.13156152 394 38688230 446 37 39 3366
-2.3991482 -2.1449542 -0.15666379 398 38688230 413 38 114 3222
-2.2081497 -2.1239295 -0.17821477 416 38688230 392 39 43 3069
-2.7849131 -2.1450784 -0.23329891 440 38688230 547 40 74 3523
-2.5860555 -2.1457841 -0.25461379 405 38688230 460 41 69 3370
-2.3894217 -2.1350579 -0.27358231 420 38688230 434 42 94 3216
-2.1959562 -2.109915 -0.28899354 441 38688230 412 43 41 3059
-2.8085616 -2.161732 -0.3658787 467 38688230 593 44 84 3563
-2.5917921 -2.148788 -0.37930208 407 38688230 467 45 52 3388
-2.3963313 -2.1389766 -0.39251924 426 38688230 447 46 81 3236
-2.2159557 -2.1280897 -0.40568042 407 38688230 391 47 85 3099
-2.8049545 -2.155216 -0.49644724 439 38688230 561 48 59 3572
-2.5878665 -2.1436286 -0.50419194 382 38688230 441 49 47 3398
-2.3842754 -2.1259735 -0.51058209 462 38688230 483 50 36 3235
-2.1957357 -2.1074932 -0.51651502 432 38688230 411 51 37 3087
-2.7958724 -2.1442826 -0.62800652 406 38688230 521 52 60 3579
-2.5933378 -2.1459484 -0.63255978 427 38688230 501 53 62 3425
-2.4000766 -2.1387098 -0.63583273 410 38688230 441 54 63 3277
-2.2333205 -2.1436422 -0.64445555 465 38688230 465 55 33 3162
-2.8238893 -2.1632662 -0.77170593 433 38688230 574 56 85 3640
-2.5940709 -2.1442678 -0.7630955 381 38688230 453 57 40 3451
-2.3999557 -2.1377754 -0.76153731 414 38688230 451 58 39 3303
-2.1816692 -2.0936995 -0.74831039 100 38688230 97 59 43 3115
-2.8444848 -2.17377 -0.91872048 434 38688230 592 60 40 3696
-1.9875945 -1.6401514 -0.68721253 50 38688230 35 61 21 2667
-1.8323455 -1.6315422 -0.68021762 76 38688230 49 62 42 2546
-1.7414039 -1.6725883 -0.69651246 69 38688230 43 63 34 2513
-1.2047287 -0.91847819 0.47285947 247 38784770 62 0 1 1587
-2.5909801 -2.1361191 1.0078963 129 38784770 158 1 51 3506
-1.9649835 -1.7480122 0.76153702 281 38784770 210 2 25 2738
-1.8785565 -1.8023326 0.72720838 199 38784770 145 3 30 2703
-1.2915822 -0.98572892 0.4389112 180 38784770 51 4 19 1683
-1.2140648 -1.0000396 0.40815794 205 38784770 54 5 1 1625
-1.21696 -1.0817478 0.40560395 242 38784770 68 6 37 1678
-1.152807 -1.103792 0.38152409 310 38784770 83 7 30 1641
-2.8045411 -2.1412635 0.81313145 177 38784770 231 8 53 3621
-2.5494273 -2.1016371 0.72679561 219 38784770 250 9 44 3383
-1.9883412 -1.7654988 0.55821496 482 38784770 356 10 33 2717
-1.9067674 -1.8225087 0.52801591 310 38784770 224 11 27 2690
-2.7402987 -2.092896 0.66156721 36 38784770 45 12 70 3511
-2.5190768 -2.0749934 0.59257436 434 38784770 477 13 32 3317
-2.0602088 -1.8286046 0.47304341 309 38784770 241 14 57 2795
-1.9020735 -1.8171331 0.42704758 112 38784770 79 15 36 2665
-2.7082841 -2.0683701 0.52511626 430 38784770 511 16 24 3448
-2.5077543 -2.064712 0.46867514 404 38784770 435 17 39 3282
-2.3685508 -2.0999935 0.42618406 358 38784770 365 18 50 3194
-1.9864273 -1.8954003 0.34329918 90 38784770 69 19 43 2767
-2.7272918 -2.0828114 0.40100121 284 38784770 340 20 63 3455
-2.582588 -2.1256444 0.35828966 168 38784770 190 21 43 3364
-2.4027309 -2.1282766 0.31296825 351 38784770 365 22 49 3225
-2.2475595 -2.1422443 0.27377799 401 38784770 390 23 93 3117
-2.725605 -2.0806947 0.27456766 298 38784770 352 24 41 3440
-2.5676074 -2.1121869 0.2344133 284 38784770 315 25 46 3333
-2.4194441 -2.14293 0.19694187 378 38784770 397 26 74 3238
-2.2328706 -2.1257164 0.15870939 421 38784770 402 27 59 3087
-2.8074422 -2.1409976 0.15347308 343 38784770 428 28 40 3534
-2.5979486 -2.1356263 0.11397377 260 38784770 294 29 22 3365
-2.4484348 -2.1644931 0.080610283 336 38784770 359 30 27 3269
-2.2443266 -2.1350551 0.046282455 410 38784770 393 31 46 3098
-2.7767398 -2.1173537 0.024378562 300 38784770 366 32 68 3492
-2.6318963 -2.161917 -0.0086196484 289 38784770 336 33 61 3406
-2.4327865 -2.1501298 -0.038761936 372 38784770 392 34 52 3247
-2.2381909 -2.1264663 -0.066232823 417 38784770 397 35 44 3088
-2.8442044 -2.1666002 -0.10617856 360 38784770 461 36 88 3577
-2.5913012 -2.1253915 -0.13109249 377 38784770 424 37 44 3354
-2.4302328 -2.1460602 -0.15783073 414 38784770 436 38 118 3246
-2.2385099 -2.1268437 -0.17960843 421 38784770 402 39 47 3093
-2.8266144 -2.1496947 -0.23568289 460 38784770 583 40 61 3559
-2.6269388 -2.1526284 -0.2573337 396 38784770 460 41 71 3406
-2.4204063 -2.1361802 -0.27562401 411 38784770 432 42 73 3240
-2.2435212 -2.1292965 -0.29352823 456 38784770 440 43 47 3107
-2.8312764 -2.1516807 -0.36711097 440 38784770 563 44 78 3575
-2.6233809 -2.147953 -0.381989 399 38784770 464 45 39 3412
-2.4272804 -2.1399872 -0.39543039 402 38784770 427 46 55 3260
-2.2376027 -2.1226404 -0.40725127 421 38784770 408 47 64 3111
-2.8559954 -2.1666942 -0.5031184 466 38784770 611 48 66 3620
-2.6285267 -2.1502514 -0.50953358 382 38784770 450 49 53 3434
-2.4239528 -2.134799 -0.51626396 424 38784770 453 50 22 3271
-2.2601388 -2.1428199 -0.52856201 436 38784770 435 51 49 3159
-2.8278131 -2.1413507 -0.63221782 441 38784770 573 52 66 3603
-2.6338525 -2.1523838 -0.63920861 388 38784770 465 53 65 3461
-2.4219911 -2.1317205 -0.63816106 408 38784770 441 54 53 3289
-2.2634821 -2.1460648 -0.64934707 444 38784770 450 55 42 3186
-2.865169 -2.1671216 -0.77933818 424 38784770 573 56 95 3676
-2.6253107 -2.1431117 -0.7684024 378 38784770 456 57 31 3475
-2.4305611 -2.1384354 -0.76707071 421 38784770 466 58 29 3327
-2.1437519 -2.0321901 -0.73101401 97 38784770 89 59 43 3043
-2.8577693 -2.1562757 -0.91872048 458 38784770 625 60 48 3696
-1.9347037 -1.5766517 -0.66556805 59 38784770 39 61 19 2583
-1.8596888 -1.6355422 -0.68662977 74 38784770 49 62 37 2570
-1.7599983 -1.6698076 -0.69983846 84 38784770 53 63 27 2525
-1.2377974 -0.93173569 0.48358592 217 38882410 57 0 1 1623
-2.5862124 -2.1056674 1.0009968 186 38882410 225 1 53 3482
-2.2960513 -2.0174232 0.88502949 226 38882410 229 2 79 3182
-1.9483018 -1.8464231 0.74980754 125 38882410 97 3 28 2787
-1.26985 -0.9568702 0.42952272 143 38882410 39 4 20 1647
-1.2201781 -0.99257135 0.40815794 173 38882410 46 5 1 1625
-1.2410749 -1.0896251 0.41140518 178 38882410 51 6 53 1702
-1.1680374 -1.1047174 0.38431406 257 38882410 70 7 30 1653
-2.9016652 -2.1873658 0.83738387 339 38882410 472 8 61 3729
-2.5804522 -2.1007528 0.73195171 321 38882410 373 9 60 3407
-2.0432839 -1.7919829 0.57054216 367 38882410 283 10 31 2777
-1.892247 -1.7865412 0.52094948 376 38882410 265 11 34 2654
-2.866004 -2.1611893 0.68870074 326 38882410 436 12 78 3655
-2.595876 -2.1116526 0.60758078 210 38882410 243 13 35 3401
-2.0891769 -1.831522 0.47710535 262 38882410 208 14 57 2819
-1.99072 -1.8785936 0.44435382 155 38882410 119 15 37 2773
-2.7398636 -2.0659945 0.52877134 307 38882410 370 16 34 3472
-2.5756676 -2.0942428 0.47895685 284 38882410 319 17 50 3354
-2.3813915 -2.0854206 0.42618406 366 38882410 373 18 57 3194
-2.2666368 -2.1363535 0.3894529 348 38882410 343 19 58 3139
-2.7209871 -2.0516863 0.39821568 346 38882410 407 20 49 3431
-2.5955822 -2.1097579 0.35828966 369 38882410 417 21 43 3364
-2.4157445 -2.1134937 0.31296825 341 38882410 354 22 43 3225
-2.2519588 -2.1202192 0.272724 407 38882410 393 23 91 3105
-2.814739 -2.1215298 0.28223005 171 38882410 213 24 49 3536
-2.5898099 -2.1039405 0.23525727 296 38882410 331 25 56 3345
-2.4686074 -2.1595902 0.19986133 122 38882410 132 26 79 3286
-2.2720628 -2.136605 0.16056024 406 38882410 395 27 57 3123
-2.8109488 -2.1165199 0.15295196 348 38882410 431 28 34 3522
-2.5644476 -2.0818508 0.11194155 339 38882410 370 29 22 3305
-2.4616699 -2.1494288 0.080610283 328 38882410 350 30 21 3269
-2.2661288 -2.1294606 0.046461731 407 38882410 393 31 49 3110
-2.8376122 -2.1363633 0.024797438 247 38882410 312 32 65 3552
-2.6357927 -2.1381674 -0.0085892798 289 38882410 333 33 43 3394
-2.4640124 -2.150944 -0.039048441 335 38882410 358 34 50 3271
-2.2949376 -2.1537428 -0.067519732 413 38882410 409 35 55 3148
-2.838273 -2.1346884 -0.10546616 307 38882410 388 36 90 3553
-2.6601996 -2.1547351 -0.13390665 362 38882410 424 37 49 3426
-2.4614205 -2.1468651 -0.1589977 412 38882410 441 38 108 3270
-2.2515178 -2.1130683 -0.17960843 413 38882410 395 39 42 3093
-2.8301766 -2.1251209 -0.23488823 333 38882410 419 40 73 3547
-2.6400976 -2.1364691 -0.2573337 388 38882410 451 41 67 3406
-2.4334681 -2.1212888 -0.27562401 446 38882410 468 42 78 3240
-2.2652595 -2.123661 -0.29466194 455 38882410 442 43 33 3119
-2.8826165 -2.1629236 -0.37203997 456 38882410 599 44 63 3623
-2.6457837 -2.1393137 -0.38333246 377 38882410 441 45 54 3424
-2.4403656 -2.1250536 -0.39543039 432 38882410 460 46 71 3260
-2.2679472 -2.12514 -0.41039306 412 38882410 405 47 102 3135
-2.8787475 -2.1562536 -0.50478619 436 38882410 574 48 56 3632
-2.6693647 -2.156455 -0.51487523 378 38882410 455 49 35 3470
-2.4638274 -2.1432166 -0.52194589 404 38882410 441 50 42 3307
-2.2905149 -2.1450856 -0.53257769 449 38882410 454 51 56 3183
-2.8787463 -2.1522553 -0.64064038 438 38882410 584 52 67 3651
-2.6561873 -2.1435888 -0.64142483 401 38882410 483 53 56 3473
-2.461678 -2.1399889 -0.64514607 425 38882410 470 54 65 3325
-2.2680328 -2.1241052 -0.64690131 453 38882410 456 55 48 3174
-2.9159977 -2.177568 -0.78951454 428 38882410 594 56 95 3724
-2.6748555 -2.1563425 -0.77901632 397 38882410 492 57 49 3523
-2.4788918 -2.1541178 -0.77813756 400 38882410 455 58 49 3375
-2.2242036 -2.0826931 -0.75407588 86 38882410 84 59 53 3139
-2.8989098 -2.1595316 -0.92766905 446 38882410 621 60 33 3732
-2.0166049 -1.6229066 -0.69030464 61 38882410 44 61 20 2679
-1.8609592 -1.6165171 -0.6834237 74 38882410 48 62 33 2558
-1.761798 -1.6510928 -0.69651246 79 38882410 50 63 20 2513
-1.2434911 -0.92412317 0.48358592 203 38979220 53 0 1 1623
-2.5722122 -2.0681534 0.99064761 238 38979220 283 1 58 3446
-2.4912004 -2.1619489 0.95511985 333 38979220 392 2 39 3434
-1.9764694 -1.8502309 0.75626439 20 38979220 16 3 28 2811
-1.2942867 -0.96289021 0.43578172 123 38979220 34 4 24 1671
-1.2624668 -1.0141631 0.4202143 135 38979220 38 5 6 1673
-1.2653319 -1.0972468 0.41720644 141 38979220 42 6 43 1726
-1.2174361 -1.1373674 0.39826372 213 38979220 62 7 28 1713
-2.9244127 -2.1765018 0.84007859 350 38979220 491 8 58 3741
-2.6115618 -2.0995667 0.73710787 152 38979220 179 9 37 3431
-2.0631175 -1.7871009 0.57300752 286 38979220 222 10 47 2789
-1.9289888 -1.7989725 0.52801591 426 38979220 308 11 24 2690
-2.7657754 -2.0591106 0.66156721 301 38979220 371 12 120 3511
-2.6548078 -2.1326566 0.6182996 314 38979220 376 13 39 3461
-2.1271982 -1.8418938 0.48319817 319 38979220 260 14 72 2855
-1.9848803 -1.8501903 0.44050798 186 38979220 140 15 28 2749
-2.7144361 -2.0208151 0.52146113 105 38979220 123 16 22 3424
-2.6810799 -2.1527607 0.49609306 328 38979220 396 17 63 3474
-2.4121323 -2.0863295 0.42938644 345 38979220 357 18 48 3218
-2.2797027 -2.1224053 0.3894529 426 38979220 419 19 53 3139
-2.8291304 -2.1061246 0.41214335 171 38979220 216 20 66 3551
-2.6177835 -2.1012609 0.35956776 210 38979220 239 21 46 3376
-2.5280731 -2.1845286 0.32577813 131 38979220 147 22 32 3357
-2.2911856 -2.1307831 0.275886 395 38979220 390 23 92 3141
-2.8181071 -2.0970778 0.28127223 343 38979220 426 24 40 3524
-2.6306813 -2.1104817 0.23778917 100 38979220 114 25 52 3381
-2.490875 -2.1522336 0.20059119 199 38979220 217 26 76 3298
-2.3026907 -2.138936 0.16179413 410 38979220 406 27 78 3147
-2.9104755 -2.163604 0.15764213 267 38979220 351 28 43 3630
-2.6613896 -2.1335912 0.11559955 138 38979220 160 29 28 3413
-2.5202355 -2.1734571 0.082089826 369 38979220 409 30 14 3329
-2.2879465 -2.1236787 0.046641007 432 38979220 421 31 48 3122
-2.8410366 -2.1117532 0.024713663 299 38979220 375 32 62 3540
-2.6956902 -2.1594667 -0.0087411236 238 38979220 283 33 48 3454
-2.5226026 -2.1749611 -0.03976471 353 38979220 391 34 52 3331
-2.2993109 -2.1314647 -0.067262344 415 38979220 408 35 50 3136
-2.8127971 -2.0886295 -0.10404134 250 38979220 307 36 91 3505
-2.7014623 -2.1608417 -0.13531372 394 38979220 472 37 33 3462
-2.5017898 -2.1551902 -0.16074814 408 38979220 446 38 104 3306
-2.2907972 -2.1236467 -0.18169893 439 38979220 430 39 41 3129
-2.9297321 -2.1718915 -0.24204017 406 38979220 543 40 58 3655
-2.6998949 -2.1575797 -0.2618669 409 38979220 492 41 59 3466
-2.4464383 -2.1063173 -0.27562401 421 38979220 442 42 122 3240
-2.2870126 -2.1178386 -0.29579559 440 38979220 431 43 31 3131
-2.9246082 -2.1665113 -0.37573677 446 38979220 598 44 66 3659
-2.714771 -2.1676824 -0.39139315 392 38979220 479 45 44 3496
-2.4985125 -2.1488748 -0.40270823 396 38979220 437 46 75 3320
-2.3158677 -2.1435082 -0.41667658 417 38979220 423 47 97 3183
-2.9301429 -2.1668119 -0.51145738 441 38979220 598 48 60 3680
-2.6918228 -2.1474361 -0.51665574 372 38979220 451 49 29 3482
-2.4859195 -2.1357806 -0.52383989 416 38979220 458 50 30 3319
-2.2949491 -2.122957 -0.53056985 441 38979220 443 51 50 3171
-2.9299181 -2.1626141 -0.64906287 431 38979220 590 52 60 3699
-2.6785131 -2.1346004 -0.64364111 421 38979220 511 53 56 3485
-2.5015569 -2.14785 -0.65213114 411 38979220 464 54 48 3361
-2.2982712 -2.1261046 -0.65179282 450 38979220 461 55 58 3198
-2.9387431 -2.1665938 -0.79205859 437 38979220 610 56 66 3736
-2.7063479 -2.1544669 -0.78432328 394 38979220 495 57 55 3547
-2.5009232 -2.146472 -0.78090423 395 38979220 453 58 49 3387
-2.1941831 -2.0294588 -0.73966217 50 38979220 47 59 37 3079
-2.9589245 -2.1761363 -0.94258338 441 38979220 634 60 26 3792
-2.3533106 -1.8702025 -0.80161911 44 38979220 42 61 37 3111
-1.8357372 -1.5749496 -0.67059952 82 38979220 51 62 35 2510
-1.7718958 -1.6402514 -0.69651246 103 38979220 65 63 29 2513
-1.2306665 -0.90292358 0.47643495 207 39076130 53 0 1 1599
-2.6298602 -2.0880659 1.0078963 115 39076130 142 1 74 3506
-2.4781642 -2.1241188 0.94510692 290 39076130 334 2 37 3398
-1.9962708 -1.8459153 0.75949287 32 39076130 25 3 24 2823
-1.3001705 -0.95493048 0.43578172 136 39076130 38 4 16 1671
-1.2959653 -1.0280536 0.42925656 74 39076130 22 5 3 1709
-1.2631967 -1.0818877 0.41430584 136 39076130 40 6 52 1714
-1.2415463 -1.1457061 0.40384361 187 39076130 56 7 23 1737
-2.9754057 -2.1862125 0.8508575 346 39076130 497 8 59 3789
-2.5326064 -2.0106318 0.71132731 404 39076130 443 9 59 3311
-2.1275871 -1.8202158 0.58780015 179 39076130 147 10 63 2861
-1.9919162 -1.8349358 0.54214865 442 39076130 337 11 21 2762
-2.7973497 -2.0560606 0.66608948 331 39076130 414 12 93 3535
-2.6770933 -2.1236644 0.62044334 95 39076130 114 13 41 3473
-2.4530494 -2.0978432 0.55428165 219 39076130 235 14 69 3275
-2.0223372 -1.862046 0.44627672 192 39076130 149 15 47 2785
-2.7172277 -1.9970977 0.51963359 337 39076130 392 16 25 3412
-2.7314646 -2.165786 0.50294751 297 39076130 368 17 39 3522
-2.4520159 -2.0946634 0.43419001 223 39076130 236 18 51 3254
-2.3102119 -2.1244974 0.39243054 402 39076130 403 19 64 3163
-2.9572487 -2.1734278 0.42885658 126 39076130 171 20 55 3695
-2.658679 -2.1073942 0.36340201 269 39076130 313 21 57 3412
-2.4869215 -2.1224558 0.31879091 242 39076130 261 22 40 3285
-2.3218231 -2.132858 0.27799404 411 39076130 412 23 92 3165
-2.8694813 -2.1080749 0.28510344 80 39076130 102 24 30 3572
-2.6248162 -2.0794342 0.23610124 205 39076130 230 25 57 3357
-2.4949231 -2.1291342 0.19986133 256 39076130 277 26 63 3286
-2.3157718 -2.1247666 0.16179413 393 39076130 390 27 58 3147
-2.9623568 -2.174078 0.15972666 272 39076130 369 28 61 3678
-2.6650279 -2.109777 0.11519311 263 39076130 304 29 40 3401
-2.5426567 -2.165731 0.082385726 447 39076130 499 30 27 3341
-2.3186221 -2.1258173 0.046999551 417 39076130 413 31 58 3146
-2.9313354 -2.1510754 0.025383864 258 39076130 342 32 67 3636
-2.7277122 -2.1577754 -0.0088018607 232 39076130 280 33 39 3478
-2.5084937 -2.1361036 -0.039334949 346 39076130 376 34 62 3295
-2.3300426 -2.1335201 -0.067777112 409 39076130 409 35 65 3160
-2.8449075 -2.0855145 -0.10475375 159 39076130 198 36 87 3529
-2.7146702 -2.1442251 -0.13531372 355 39076130 425 37 49 3462
-2.5149667 -2.1397991 -0.16074814 419 39076130 458 38 107 3306
-2.3479607 -2.1500022 -0.18518309 410 39076130 417 39 42 3189
-2.9623282 -2.1680171 -0.24362949 447 39076130 605 40 78 3679
-2.7318695 -2.1557977 -0.26368016 405 39076130 494 41 70 3490
-2.4957507 -2.1222482 -0.27970731 434 39076130 469 42 95 3288
-2.3352242 -2.1360178 -0.30033031 446 39076130 450 43 54 3179
-2.9571164 -2.1626179 -0.37820128 449 39076130 610 44 86 3683
-2.7373846 -2.1583672 -0.39273664 396 39076130 487 45 47 3508
-2.5298071 -2.1489267 -0.40561938 409 39076130 458 46 66 3344
-2.3377566 -2.1372855 -0.41824746 409 39076130 418 47 99 3195
-2.9625793 -2.162806 -0.51479298 449 39076130 615 48 54 3704
-2.7422369 -2.1602535 -0.52377796 408 39076130 508 49 31 3530
-2.526083 -2.1434872 -0.52952176 438 39076130 493 50 39 3355
-2.3253999 -2.1247964 -0.53458554 440 39076130 449 51 48 3195
-2.971776 -2.1654677 -0.65537983 436 39076130 609 52 70 3735
-2.7379 -2.1545923 -0.65472245 394 39076130 496 53 59 3545
-2.5326457 -2.1476877 -0.65678787 413 39076130 474 54 59 3385
-2.3459642 -2.1436617 -0.66157579 441 39076130 464 55 33 3246
-2.980427 -2.1692243 -0.79969084 399 39076130 568 56 71 3772
-2.7287171 -2.1450531 -0.78697675 415 39076130 526 57 63 3559
-2.5318611 -2.1461868 -0.78643769 409 39076130 475 58 29 3411
-2.258194 -2.0630987 -0.7569586 65 39076130 64 59 48 3151
-2.9910328 -2.1715975 -0.94854909 471 39076130 686 60 25 3816
-2.6657503 -2.0919437 -0.90365744 315 39076130 388 61 64 3507
-1.8541888 -1.5711316 -0.67380553 61 39076130 39 62 36 2522
-1.8159629 -1.6604701 -0.70981634 75 39076130 49 63 27 2561
-1.2454607 -0.90207469 0.48001042 162 39173820 42 0 26 1611
-2.5612185 -2.0080669 0.97684872 169 39173820 196 1 77 3398
-2.5439358 -2.1535578 0.96513277 243 39173820 292 2 38 3470
-1.9563571 -1.7868654 0.7401222 50 39173820 38 3 28 2751
-1.3060055 -0.94693482 0.43578172 181 39173820 50 4 17 1671
-1.2839609 -1.005757 0.42322835 72 39173820 20 5 9 1685
-1.2787014 -1.0816365 0.41720644 82 39173820 24 6 55 1726
-1.2744296 -1.1616534 0.41221344 122 39173820 38 7 24 1773
-3.0076952 -2.1816463 0.85624695 361 39173820 524 8 34 3813
-2.63713 -2.0673606 0.73710787 164 39173820 193 9 51 3431
-2.4616537 -2.0799963 0.67655575 143 39173820 155 10 50 3293
-1.9770286 -1.7989222 0.53508228 443 39173820 329 11 28 2726
-3.0006847 -2.1772809 0.71131194 392 39173820 559 12 79 3775
-2.6993685 -2.1144791 0.62258714 99 39173820 120 13 38 3485
-2.4568403 -2.0751207 0.55225068 397 39173820 422 14 57 3263
-2.05125 -1.8655412 0.45012254 208 39173820 164 15 48 2809
-2.7678282 -2.0082476 0.5269438 209 39173820 250 16 35 3460
-2.7353506 -2.1416636 0.50123394 237 39173820 292 17 43 3510
-2.52845 -2.1332617 0.44539833 98 39173820 109 18 34 3338
-2.3760874 -2.158319 0.40136352 220 39173820 230 19 55 3235
-2.9512346 -2.1412427 0.42607105 218 39173820 294 20 60 3671
-2.7843101 -2.1792915 0.37873903 65 39173820 82 21 57 3556
-2.4451056 -2.0609722 0.3118037 336 39173820 346 22 56 3213
-2.3702767 -2.1507013 0.28221005 194 39173820 201 23 84 3213
-3.0179267 -2.1887465 0.29851255 307 39173820 429 24 36 3740
-2.6846666 -2.1001668 0.24032108 231 39173820 269 25 53 3417
-2.5079403 -2.1137855 0.19986133 297 39173820 321 26 85 3286
-2.3642852 -2.1427083 0.16426192 380 39173820 388 27 76 3195
-2.9076817 -2.1066236 0.15607874 290 39173820 374 28 52 3594
-2.7157178 -2.12293 0.11681888 258 39173820 307 29 33 3449
-2.5558975 -2.1500888 0.082385726 261 39173820 291 30 27 3341
-2.3583033 -2.1357131 0.047537372 428 39173820 433 31 55 3182
-2.9541969 -2.1400883 0.02546764 260 39173820 347 32 63 3648
-2.6936166 -2.1040628 -0.0086500179 238 39173820 278 33 37 3418
-2.5766525 -2.167011 -0.040194467 330 39173820 374 34 52 3367
-2.3697832 -2.1433258 -0.068549253 376 39173820 384 35 68 3196
-2.8576505 -2.0680192 -0.10475375 397 39173820 495 36 89 3529
-2.7561409 -2.1496511 -0.13672079 315 39173820 385 37 51 3498
-2.5555775 -2.1474597 -0.16249856 390 39173820 435 38 125 3342
-2.3522239 -2.1275189 -0.18448626 403 39173820 407 39 66 3177
-3.0143976 -2.1778483 -0.24680813 476 39173820 662 40 68 3727
-2.7544842 -2.1463494 -0.26458681 399 39173820 489 41 56 3502
-2.5453494 -2.1376524 -0.28379062 443 39173820 493 42 118 3336
-2.3571508 -2.1296577 -0.30146399 427 39173820 434 43 50 3191
-3.0090423 -2.1723809 -0.38313034 466 39173820 649 44 64 3731
-2.7599854 -2.1488562 -0.3940801 402 39173820 498 45 46 3520
-2.5611959 -2.148675 -0.40853053 446 39173820 506 46 71 3368
-2.377315 -2.146821 -0.42296013 424 39173820 443 47 81 3231
-3.0047166 -2.165431 -0.51979637 455 39173820 637 48 62 3740
-2.774174 -2.1579595 -0.52733904 361 39173820 455 49 42 3554
-2.5664339 -2.1507807 -0.5352037 419 39173820 481 50 35 3391
-2.3647418 -2.1342683 -0.540609 453 39173820 473 51 35 3231
-3.0041878 -2.1609898 -0.65959108 470 39173820 665 52 59 3759
-2.7790062 -2.1594615 -0.66137129 403 39173820 516 53 56 3581
-2.5728507 -2.1547825 -0.66377288 394 39173820 462 54 62 3421
-2.3677945 -2.1370983 -0.66402155 454 39173820 482 55 34 3258
-3.0317767 -2.1782668 -0.8098672 439 39173820 641 56 88 3820
-2.7788062 -2.1569734 -0.79759061 425 39173820 554 57 60 3607
-2.5807953 -2.1605935 -0.79750448 388 39173820 464 58 46 3459
-2.2016265 -1.9867717 -0.73389667 62 39173820 58 59 44 3055
-3.0515385 -2.1870594 -0.96346337 432 39173820 649 60 41 3876
-2.7335274 -2.1181595 -0.92220986 397 39173820 509 61 72 3579
-1.9081349 -1.5968318 -0.68983579 68 39173820 45 62 30 2582
-1.7918907 -1.618384 -0.69651246 57 39173820 36 63 21 2513
-1.3161999 -0.9410519 0.50503892 66 39271750 19 0 24 1695
-1.3284003 -1.0284044 0.50423563 58 39271750 18 1 69 1754
-2.5747879 -2.1526945 0.97180802 134 39271750 163 2 34 3494
-1.9844471 -1.7903115 0.74657905 114 39271750 88 3 29 2775
-1.2741095 -0.91193312 0.42326373 248 39271750 65 4 1 1623
-1.2992957 -1.0049663 0.42624244 69 39271750 20 5 6 1697
-1.2942502 -1.0812355 0.42010707 51 39271750 15 6 44 1738
-1.2728597 -1.1460025 0.40942347 101 39271750 31 7 30 1761
-3.0305326 -2.1699584 0.85894167 354 39271750 519 8 66 3825
-2.7331741 -2.1157057 0.76031035 224 39271750 280 9 51 3539
-2.4833865 -2.072377 0.67902112 83 39271750 90 10 48 3305
-1.9705267 -1.7710267 0.53037137 480 39271750 350 11 54 2702
-3.0235689 -2.1656904 0.7135731 396 39271750 569 12 67 3787
-2.6469166 -2.0473106 0.60758078 336 39271750 388 13 26 3401
-2.5149362 -2.0978861 0.56240547 203 39271750 224 14 50 3323
-2.0538466 -1.8450043 0.44819966 202 39271750 158 15 39 2797
-3.0404315 -2.1776884 0.57628763 391 39271750 560 16 33 3784
-2.7672329 -2.1393683 0.50466114 213 39271750 267 17 58 3534
-2.5506284 -2.1253204 0.44699955 163 39271750 183 18 33 3350
-2.3626974 -2.1198432 0.39689702 430 39271750 440 19 53 3199
-2.9546275 -2.116154 0.42467827 79 39271750 105 20 46 3659
-2.7881887 -2.1548698 0.37746093 176 39271750 221 21 47 3544
-2.5036011 -2.0841365 0.31762639 300 39271750 321 22 51 3273
-2.3923302 -2.1440952 0.28326404 462 39271750 481 23 113 3225
-3.0410256 -2.1771505 0.29947034 397 39271750 558 24 38 3752
-2.7353954 -2.1129243 0.24369699 313 39271750 375 25 56 3465
-2.4840395 -2.0677056 0.19694187 389 39271750 408 26 75 3238
-2.3863175 -2.1361542 0.16487886 390 39271750 401 27 50 3207
-2.8912985 -2.0678205 0.15451534 381 39271750 482 28 21 3558
-2.7476804 -2.1208827 0.11763176 274 39271750 330 29 26 3473
-2.6151788 -2.1726961 0.083865277 246 39271750 284 30 23 3401
-2.3892491 -2.1372015 0.04789592 414 39271750 426 31 60 3206
-2.947751 -2.1079612 0.025300087 253 39271750 333 32 58 3624
-2.6684682 -2.0581801 -0.0085285427 382 39271750 433 33 51 3370
-2.5899005 -2.15116 -0.040194467 328 39271750 372 34 66 3367
-2.3828897 -2.1287446 -0.068549253 395 39271750 403 35 50 3196
-2.9190862 -2.0853076 -0.10653477 260 39271750 335 36 92 3589
-2.8357797 -2.1839135 -0.14000398 257 39271750 330 37 26 3582
-2.5871527 -2.147047 -0.16366552 404 39271750 458 38 113 3366
-2.3831017 -2.1290085 -0.18587993 429 39271750 439 39 53 3201
-3.027704 -2.1593113 -0.24680813 452 39271750 628 40 62 3727
-2.7960525 -2.1512978 -0.26730672 364 39271750 456 41 62 3538
-2.5860267 -2.1448934 -0.2868531 432 39271750 491 42 111 3372
-2.3701737 -2.1151545 -0.30146399 441 39271750 449 43 39 3191
-3.0806389 -2.195442 -0.39052391 474 39271750 686 44 90 3803
-2.8014801 -2.1536839 -0.39811045 394 39271750 498 45 43 3556
-2.5926762 -2.1481183 -0.41144168 421 39271750 485 46 84 3392
-2.3815646 -2.1242745 -0.42138922 414 39271750 429 47 72 3219
-3.0469966 -2.1676197 -0.52479976 465 39271750 662 48 48 3776
-2.8250089 -2.1698115 -0.53446126 382 39271750 495 49 35 3602
-2.6069679 -2.1576583 -0.54088557 371 39271750 435 50 43 3427
-2.3866241 -2.1275909 -0.5426169 444 39271750 467 51 44 3243
-3.0559211 -2.1698742 -0.66801363 444 39271750 643 52 55 3807
-2.8015609 -2.1495483 -0.66358757 411 39271750 531 53 59 3593
-2.6041658 -2.1539609 -0.66842955 394 39271750 467 54 53 3445
-2.3984015 -2.1381652 -0.66891307 439 39271750 472 55 40 3282
-3.0642166 -2.1731913 -0.81495535 424 39271750 626 56 112 3844
-2.8012776 -2.1470015 -0.80024415 413 39271750 540 57 39 3619
-2.603003 -2.1521578 -0.80027121 414 39271750 498 58 36 3471
-2.178993 -1.9422222 -0.7223658 42 39271750 38 59 47 3007
-3.0838783 -2.1817203 -0.96942908 401 39271750 610 60 33 3900
-2.8293505 -2.1647573 -0.95003849 439 39271750 596 61 30 3687
-1.9446377 -1.6071941 -0.69945395 69 39271750 47 62 38 2618
-1.7931836 -1.5996834 -0.69318652 71 39271750 44 63 33 2501
-1.2657957 -0.89332807 0.48358592 90 39370310 24 0 90 1623
-1.3255541 -1.0132542 0.50078589 98 39370310 30 1 22 1742
-2.6412773 -2.1808891 0.99183381 20 39370310 25 2 35 3566
-1.96088 -1.7473451 0.73366529 297 39370310 221 3 28 2727
-1.2607578 -0.89072895 0.41700476 303 39370310 77 4 1 1599
-1.3146688 -1.004025 0.42925656 112 39370310 33 5 5 1709
-1.3008603 -1.0732739 0.42010707 60 39370310 18 6 50 1738
-1.2798674 -1.1381708 0.40942347 81 39370310 25 7 36 1761
-3.0915358 -2.1850686 0.87241524 380 39370310 574 8 67 3885
-2.8485303 -2.1771815 0.78866887 174 39370310 234 9 44 3671
-2.5594957 -2.1093836 0.69627917 154 39370310 177 10 27 3389
-1.9989554 -1.7745255 0.53508228 385 39370310 286 11 29 2726
-3.0656688 -2.1675081 0.72035646 353 39370310 516 12 75 3823
-2.7063463 -2.0668621 0.6182996 222 39370310 266 13 35 3461
-2.4912481 -2.0523353 0.55428165 414 39370310 444 14 62 3275
-2.0828488 -1.8480902 0.45204547 189 39370310 150 15 45 2821
-3.0634205 -2.1658385 0.57811522 412 39370310 593 16 28 3796
-2.7236631 -2.0791087 0.49437943 434 39370310 520 17 44 3462
-2.5819874 -2.1247437 0.45020193 327 39370310 372 18 39 3374
-2.3667483 -2.0974088 0.39540818 382 39370310 388 19 57 3187
-2.9967535 -2.1186264 0.42885658 178 39370310 243 20 44 3695
-2.7065043 -2.0653379 0.36468011 322 39370310 378 21 66 3424
-2.5255678 -2.0763202 0.31879091 202 39370310 218 22 47 3285
-2.405441 -2.1293757 0.28326404 385 39370310 401 23 85 3225
-3.064096 -2.1653535 0.30042812 376 39370310 532 24 46 3764
-2.7483087 -2.0961006 0.24369699 350 39370310 420 25 55 3465
-2.5707014 -2.1132751 0.20278078 89 39370310 99 26 80 3334
-2.4263139 -2.1452863 0.1667297 387 39370310 406 27 57 3243
-2.9529026 -2.0846117 0.157121 322 39370310 421 28 37 3618
-2.8369515 -2.1621416 0.12088333 196 39370310 249 29 31 3569
-2.6470094 -2.1718276 0.084457092 129 39370310 151 30 26 3425
-2.4203017 -2.1383903 0.048254468 390 39370310 407 31 64 3230
-2.9998434 -2.1175146 0.025635188 284 39370310 382 32 44 3672
-2.8051546 -2.1362832 -0.0089233359 253 39370310 314 33 38 3526
-2.6308827 -2.1580582 -0.040624227 370 39370310 428 34 56 3403
-2.4318902 -2.1458344 -0.069578782 375 39370310 395 35 58 3244
-3.0396564 -2.1433926 -0.11045302 154 39370310 214 36 87 3721
-2.8395817 -2.1592143 -0.13953495 372 39370310 474 37 44 3570
-2.6280885 -2.1539252 -0.16541596 371 39370310 429 38 116 3402
-2.4320505 -2.1460514 -0.18866724 392 39370310 414 39 64 3249
-3.1094325 -2.1889405 -0.25237074 464 39370310 674 40 68 3811
-2.8377843 -2.1558161 -0.27002662 376 39370310 481 41 63 3574
-2.6268876 -2.1517148 -0.28991562 400 39370310 465 42 110 3408
-2.4189548 -2.1321688 -0.30599871 433 39370310 454 43 41 3239
-3.0647631 -2.155895 -0.38682711 452 39370310 642 44 72 3767
-2.8336387 -2.1508732 -0.40079737 389 39370310 498 45 47 3580
-2.6242452 -2.1472554 -0.4143528 422 39370310 492 46 55 3416
-2.4302604 -2.1410792 -0.42767277 435 39370310 465 47 71 3267
-3.0894156 -2.1693699 -0.52980316 457 39370310 663 48 56 3812
-2.8666363 -2.1739492 -0.53980291 378 39370310 500 49 36 3638
-2.6385078 -2.15662 -0.5446735 377 39370310 449 50 34 3451
-2.4351509 -2.1441801 -0.55064815 438 39370310 474 51 51 3291
-3.0788519 -2.1578631 -0.67011929 464 39370310 677 52 60 3819
-2.8428996 -2.1536825 -0.67023635 387 39370310 510 53 74 3629
-2.6355672 -2.1528358 -0.67308629 408 39370310 490 54 53 3469
-2.4291101 -2.1389363 -0.67380458 439 39370310 479 55 44 3306
-3.1063149 -2.1745248 -0.82258761 407 39370310 613 56 77 3880
-2.8330626 -2.1438968 -0.80555105 408 39370310 541 57 55 3643
-2.6523378 -2.1656859 -0.81133807 405 39370310 501 58 40 3519
-2.1384108 -1.8826318 -0.70506936 51 39370310 44 59 49 2935
-3.1067369 -2.1694114 -0.97241193 430 39370310 658 60 38 3912
-2.8795865 -2.1753118 -0.96240675 473 39370310 659 61 33 3735
-1.9275868 -1.5732958 -0.68983579 73 39370310 48 62 31 2582
-1.8548698 -1.6343855 -0.71314234 77 39370310 51 63 25 2573
-3.113513 -2.1688473 1.1843833 418 39469120 661 0 58 3975
-1.258355 -0.94971138 0.47318804 145 39469120 39 1 30 1646
-1.3146495 -1.0720013 0.49118859 21 39469120 6 2 23 1766
-1.9715647 -1.7352805 0.73366529 128 39469120 95 3 50 2727
-1.2661995 -0.88297629 0.41700476 256 39469120 65 4 8 1599
-1.3208047 -0.99593937 0.42925656 79 39469120 23 5 13 1709
-1.2803401 -1.0432062 0.41140518 43 39469120 12 6 40 1702
-1.3043648 -1.1457007 0.41500336 67 39469120 21 7 40 1785
-3.133656 -2.1861298 0.88049942 170 39469120 262 8 62 3921
-2.9086103 -2.1949606 0.80155915 342 39469120 476 9 46 3731
-2.5997159 -2.1158791 0.70367551 84 39469120 98 10 37 3425
-2.080584 -1.8242861 0.55392593 413 39469120 329 11 23 2822
-2.9629381 -2.067724 0.69322294 87 39469120 118 12 89 3679
-2.8792405 -2.1710622 0.65474373 301 39469120 404 13 39 3665
-2.6414075 -2.1489685 0.584746 199 39469120 237 14 52 3455
-2.1565061 -1.8899237 0.4655059 190 39469120 160 15 39 2905
-3.115556 -2.1741493 0.58542538 409 39469120 604 16 28 3844
-2.7363689 -2.0623577 0.49437943 228 39469120 273 17 51 3462
-2.5857468 -2.1013606 0.44860074 267 39469120 301 18 48 3362
-2.3616538 -2.0671623 0.39243054 342 39469120 343 19 59 3163
-2.999922 -2.0933781 0.4274638 292 39469120 395 20 55 3683
-2.8048928 -2.113312 0.37618285 121 39469120 150 21 53 3532
-2.6309822 -2.1360643 0.33043626 279 39469120 323 22 32 3405
-2.4184613 -2.1145761 0.28326404 407 39469120 424 23 79 3225
-3.1558111 -2.2012582 0.30809048 295 39469120 439 24 51 3860
-2.8184922 -2.122402 0.24876082 271 39469120 339 25 42 3537
-2.6208165 -2.1276591 0.20570025 249 39469120 285 26 78 3382
-2.4755375 -2.1618898 0.16919748 453 39469120 491 27 58 3291
-3.0935094 -2.1555545 0.16389571 405 39469120 576 28 54 3774
-2.8501649 -2.1446936 0.12088333 272 39469120 346 29 23 3569
-2.613682 -2.1177835 0.082977548 354 39469120 401 30 27 3365
-2.4604983 -2.147167 0.048792288 414 39469120 441 31 46 3266
-2.973397 -2.071629 0.025300087 259 39469120 340 32 55 3624
-2.8182099 -2.1190307 -0.0089233359 258 39469120 320 33 36 3526
-2.6720464 -2.1645334 -0.041053988 276 39469120 326 34 55 3439
-2.4631 -2.146637 -0.070093542 409 39469120 437 35 60 3268
-3.0822856 -2.1452575 -0.11152163 247 39469120 349 36 76 3757
-2.9007227 -2.1777461 -0.14188007 364 39469120 479 37 51 3630
-2.6878383 -2.1754618 -0.16833334 386 39469120 463 38 109 3462
-2.4451728 -2.131088 -0.18866724 409 39469120 431 39 39 3249
-3.1424713 -2.1834848 -0.25396007 459 39469120 676 40 63 3835
-2.9083927 -2.1814415 -0.27546644 455 39469120 605 41 62 3646
-2.6586325 -2.1505949 -0.29195726 416 39469120 490 42 80 3432
-2.4500124 -2.1329749 -0.30826607 434 39469120 462 43 32 3263
-3.1367633 -2.1778955 -0.39422068 260 39469120 384 44 73 3839
-2.8944941 -2.1692019 -0.40751463 383 39469120 507 45 40 3640
-2.6559005 -2.1460855 -0.41726395 404 39469120 479 46 83 3440
-2.4613016 -2.141746 -0.43081453 416 39469120 451 47 93 3291
-3.1319695 -2.1706808 -0.53480655 474 39469120 701 48 55 3848
-2.8894207 -2.1634314 -0.54158342 385 39469120 512 49 34 3650
-2.6516907 -2.1403899 -0.5446735 397 39469120 472 50 45 3451
-2.4571886 -2.1369617 -0.55265605 421 39469120 459 51 43 3303
-3.1308973 -2.1658146 -0.67854184 435 39469120 651 52 62 3867
-2.9032812 -2.1715169 -0.68131769 409 39469120 556 53 57 3689
-2.6762147 -2.1587968 -0.68007129 405 39469120 497 54 51 3505
-2.4687824 -2.1471202 -0.68114185 427 39469120 477 55 21 3342
-3.1388958 -2.1687565 -0.82767582 402 39469120 613 56 74 3904
-2.9024155 -2.1685004 -0.82147193 415 39469120 572 57 44 3715
-2.6564867 -2.1420414 -0.8085714 392 39469120 482 58 26 3507
-2.1499221 -1.8694754 -0.70506936 31 39469120 26 59 44 2935
-3.1678421 -2.1832881 -0.9873262 399 39469120 629 60 29 3972
-2.9021742 -2.1645341 -0.96549886 454 39469120 637 61 28 3747
-1.9462074 -1.5686957 -0.69304186 77 39469120 52 62 39 2594
-1.7952844 -1.5624194 -0.68653464 64 39469120 39 63 27 2477
-3.1173232 -2.1432128 1.1808078 508 39566390 797 0 44 3963
-1.2641587 -0.94197243 0.47318804 148 39566390 40 1 26 1646
-1.2583592 -1.0133094 0.46782514 32 39566390 9 2 16 1682
-1.3367143 -1.1620365 0.49475998 31 39566390 10 3 20 1839
-1.3002223 -0.89489454 0.42639324 202 39566390 54 4 6 1635
-1.3641586 -1.0155607 0.44131291 95 39566390 29 5 5 1757
-1.295789 -1.0426303 0.41430584 28 39566390 8 6 47 1714
-1.2849222 -1.114731 0.40663356 63 39566390 19 7 45 1749
-3.0892234 -2.1270714 0.86433113 11 39566390 16 8 46 3849
-2.8938293 -2.1560659 0.79382497 383 39566390 524 9 69 3695
-2.6675725 -2.1440313 0.71846807 35 39566390 42 10 42 3497
-2.0472651 -1.7729707 0.54214865 461 39566390 351 11 23 2762
-2.8396914 -1.955915 0.66156721 148 39566390 183 12 61 3511
-2.9209199 -2.1745062 0.66117507 349 39566390 478 13 35 3701
