# .PCD v0.7 - Point Cloud Data file format
VERSION 0.7
FIELDS x y z intensity t reflectivity ring noise range
SIZE 4 4 4 4 4 2 1 2 4
TYPE F F F F U U U U U
COUNT 1 1 1 1 1 1 1 1 1
WIDTH 784
HEIGHT 1
VIEWPOINT 0 0 0 1 0 0 0
POINTS 784
DATA ascii
13.7647 2.4997947 2.2711239 151 98060390 3026 15 43 14173
15.881876 1.102561 2.4531825 16 98060390 410 16 24 16108
16.670504 1.7719259 2.4187751 294 98060390 8448 17 64 16938
15.906234 2.2814267 2.1634779 192 98060390 5037 18 47 16214
13.785964 2.4949584 1.7517315 47 98060390 932 19 28 14119
17.370733 1.2056167 2.0347183 280 98060390 8618 20 70 17531
17.493122 1.8565841 1.8843225 176 98060390 5496 21 46 17692
15.177998 2.1696768 1.4949692 93 98060390 2197 22 50 15405
13.784109 2.4869213 1.2350312 46 98060390 917 23 70 14061
18.552097 1.2840306 1.4890507 227 98060390 7888 24 41 18656
17.400324 1.8421286 1.2336764 130 98060390 4007 25 89 17541
15.163521 2.1670673 0.93337548 52 98060390 1235 26 64 15346
13.909229 2.5009737 0.72753376 441 98060390 8836 27 82 14151
19.549389 1.3434561 0.85178864 134 98060390 5141 28 44 19614
16.845762 1.7774725 0.57406878 92 98060390 2636 29 26 16949
15.231627 2.1621537 0.37947741 165 98060390 3901 30 31 15389
13.973267 2.5072014 0.2121105 359 98060390 7228 31 53 14198
18.747395 1.287356 0.13119185 134 98060390 4740 32 88 18792
16.777462 1.7640485 -0.042693328 11 98060390 302 33 46 16870
15.320579 2.1728714 -0.18473697 242 98060390 5806 34 65 15475
14.034245 2.5087891 -0.30585492 264 98060390 5359 35 50 14260
18.824982 1.2834411 -0.56033903 114 98060390 4077 36 69 18877
16.857416 1.7599622 -0.66296685 117 98060390 3354 37 49 16962
15.339071 2.1689398 -0.75414509 438 98060390 10536 38 119 15510
14.101207 2.5210133 -0.83323681 122 98060390 2503 39 50 14349
18.798916 1.2668314 -1.2504636 13 98060390 480 40 63 18883
16.969669 1.7638978 -1.2927128 347 98060390 10166 41 87 17110
15.402802 2.1735644 -1.3280993 377 98060390 9193 42 92 15612
14.206317 2.5318735 -1.3693891 69 98060390 1443 43 39 14495
18.888 1.2662117 -1.9542624 83 98060390 3021 44 69 19031
17.024708 1.762711 -1.9283055 424 98060390 12567 45 47 17224
15.518826 2.1816502 -1.9150475 250 98060390 6242 46 70 15788
14.116723 2.5123472 -1.8933061 123 98060390 2579 47 82 14463
19.074903 1.2626903 -2.6829276 205 98060390 7622 48 53 19304
17.130438 1.7661039 -2.5838726 383 98060390 11601 49 50 17414
15.602757 2.1851189 -2.5181878 155 98060390 3942 50 16 15955
14.213945 2.5255551 -2.4500582 185 98060390 3959 51 40 14643
19.194965 1.2534784 -3.4285052 314 98060390 12000 52 78 19539
17.274382 1.7721082 -3.2632697 348 98060390 10877 53 68 17669
15.740204 2.1993263 -3.1434622 71 98060390 1854 54 41 16201
14.279356 2.5374343 -3.0192804 218 98060390 4776 55 44 14814
19.348494 1.2526522 -4.2062211 300 98060390 11820 56 82 19840
17.34244 1.7699143 -3.9525733 256 98060390 8167 57 45 17875
15.649885 2.1836431 -3.7440519 13 98060390 334 58 37 16239
14.320134 2.5433915 -3.5993369 308 98060390 6923 59 69 14983
19.429916 1.2351093 -4.9962883 347 98060390 14008 60 33 20100
17.445097 1.7656255 -4.675983 117 98060390 3847 61 22 18147
15.910329 2.2168691 -4.4537425 34 98060390 936 62 35 16670
14.352854 2.5554049 -4.2054052 256 98060390 5884 63 48 15173
12.521663 0.78158444 3.9160628 24 98158780 408 0 46 13143
12.95838 1.3056827 3.9091196 35 98158780 639 1 53 13598
13.256983 1.8408996 3.8755503 22 98158780 422 2 31 13934
13.669906 2.4260435 3.8781757 376 98158780 7805 3 45 14415
13.56497 0.85359901 3.6716759 425 98158780 8414 4 57 14079
13.873568 1.391782 3.6181631 314 98158780 6511 5 24 14405
14.185024 1.9642185 3.5672843 380 98158780 8286 6 64 14758
14.5481 2.5667117 3.5313649 301 98158780 6934 7 52 15189
14.374892 0.90733546 3.3192201 359 98158780 7850 8 81 14781
14.341832 1.4443203 3.1707883 18 98158780 385 9 35 14759
15.047451 2.0753429 3.1888313 327 98158780 7869 10 40 15521
14.674076 2.5757353 2.9824066 206 98158780 4752 11 20 15194
15.226273 0.96347547 2.9272137 335 98158780 8096 12 61 15535
15.641471 1.5691363 2.854254 303 98158780 7722 13 57 15977
16.050343 2.2105217 2.7822402 245 98158780 6629 14 81 16439
13.97812 2.4500537 2.3038135 218 98158780 4501 15 29 14377
15.912013 1.0065883 2.4568372 16 98158780 412 16 20 16132
16.610155 1.6625071 2.4084933 285 98158780 8094 17 54 16866
16.132015 2.2128768 2.1922991 183 98158780 4928 18 50 16430
13.988689 2.4430995 1.7755529 45 98158780 913 19 50 14311
17.306435 1.0944957 2.0263619 276 98158780 8400 20 49 17459
17.789127 1.777688 1.9149966 248 98158780 8002 21 56 17980
15.427691 2.1088562 1.5182599 174 98158780 4250 22 44 15645
13.869767 2.4145977 1.2413553 82 98158780 1646 23 71 14133
18.464125 1.1641514 1.4813884 238 98158780 8183 24 51 18560
17.828196 1.7768781 1.2632154 77 98158780 2500 25 58 17961
15.390146 2.1031768 0.94651306 32 98158780 782 26 83 15562
14.125045 2.4504039 0.73802185 353 98158780 7282 27 71 14355
19.844431 1.2414428 0.86429578 204 98158780 8067 28 38 19902
17.106972 1.6989657 0.58260411 169 98158780 4993 29 29 17201
15.482354 2.1009154 0.38539556 83 98158780 2021 30 30 15629
14.177552 2.4541607 0.21497887 445 98158780 9206 31 51 14390
20.108267 1.256891 0.14065844 133 98158780 5380 32 53 20148
17.098454 1.6917912 -0.043482915 41 98158780 1204 33 25 17182
15.52387 2.1046174 -0.18702903 238 98158780 5854 34 61 15667
14.262185 2.4593256 -0.31048781 295 98158780 6173 35 47 14476
19.131796 1.1864698 -0.56924415 157 98158780 5783 36 85 19177
17.142366 1.683448 -0.67375445 94 98158780 2781 37 48 17238
15.62528 2.111701 -0.76756507 466 98158780 11611 38 121 15786
14.328909 2.4710886 -0.84577978 184 98158780 3896 39 40 14565
19.22463 1.1770706 -1.2782767 36 98158780 1323 40 57 19303
17.25408 1.6865139 -1.3135655 245 98158780 7416 41 74 17386
15.664683 2.112572 -1.3495367 394 98158780 9917 42 105 15864
14.421737 2.479063 -1.3886616 127 98158780 2737 43 36 14699
19.25285 1.1720529 -1.9912302 60 98158780 2264 44 92 19391
17.320047 1.685943 -1.9605485 366 98158780 11210 45 54 17512
15.779833 2.1196892 -1.9456146 300 98158780 7727 46 80 16040
14.448456 2.4800215 -1.93572 56 98158780 1230 47 85 14787
19.426296 1.1662778 -2.7312937 165 98158780 6391 48 58 19652
17.424437 1.6884298 -2.6266055 369 98158780 11547 49 57 17702
15.874259 2.1239123 -2.5598547 185 98158780 4861 50 23 16219
14.450731 2.476258 -2.4882069 113 98158780 2490 51 48 14871
19.556091 1.1566011 -3.4916739 278 98158780 11024 52 68 19899
17.601887 1.6966325 -3.3231089 293 98158780 9502 53 58 17993
15.916762 2.1245093 -3.1760592 94 98158780 2511 54 35 16369
14.526242 2.4894586 -3.0681953 139 98158780 3140 55 51 15054
19.671909 1.1524259 -4.2749119 388 98158780 15788 56 79 20164
17.655861 1.6925049 -4.021564 225 98158780 7429 57 47 18187
15.790307 2.1045451 -3.7744858 45 98158780 1201 58 23 16371
14.519174 2.4869428 -3.6454608 254 98158780 5839 59 48 15175
19.251461 1.1052073 -4.9485626 139 98158780 5493 60 48 19908
17.628744 1.6750023 -4.7223639 33 98158780 1102 61 23 18327
16.072647 2.1390352 -4.4954209 36 98158780 1010 62 36 16826
14.572807 2.5024135 -4.2652731 216 98158780 5107 63 38 15389
12.560534 0.70666862 3.9267893 25 98257440 429 0 37 13179
12.88605 1.2185726 3.8849716 62 98257440 1124 1 53 13514
13.062351 1.7322462 3.8154728 16 98257440 297 2 26 13718
13.66175 2.3382213 3.8717186 367 98257440 7596 3 30 14391
13.535254 0.76838005 3.6622875 414 98257440 8173 4 65 14043
13.824025 1.3011868 3.6030924 418 98257440 8595 5 35 14345
14.150635 1.8710387 3.5556819 366 98257440 7928 6 71 14710
14.483033 2.463697 3.5118351 373 98257440 8500 7 51 15105
14.356839 0.81778568 3.3138306 352 98257440 7655 8 56 14757
14.303753 1.3518823 3.160476 21 98257440 450 9 22 14711
15.036614 1.9799082 3.1839004 338 98257440 8109 10 43 15497
14.828823 2.5092058 3.0106721 215 98257440 5052 11 27 15338
15.208366 0.86868656 2.9226913 367 98257440 8836 12 84 15511
15.627295 1.4709196 2.8499663 317 98257440 8056 13 54 15953
16.004974 2.1042886 2.7720854 269 98257440 7225 14 75 16379
14.098004 2.3819997 2.3211198 237 98257440 4964 15 47 14485
16.071819 0.91772467 2.4805954 15 98257440 394 16 17 16288
16.620043 1.5605578 2.4084933 302 98257440 8602 17 72 16866
16.428299 2.1509047 2.2307279 197 98257440 5494 18 47 16718
14.261742 2.4007051 1.8083071 52 98257440 1114 19 62 14575
17.170029 0.98013347 2.0096486 41 98257440 1214 20 57 17315
17.775942 1.6662754 1.9124404 243 98257440 7821 21 48 17956
15.570614 2.0311477 1.5310698 241 98257440 5990 22 44 15777
14.237988 2.3887856 1.2729756 74 98257440 1559 23 88 14493
18.482861 1.0515151 1.4823462 213 98257440 7336 24 37 18572
18.22015 1.7031026 1.2902226 41 98257440 1394 25 65 18345
15.687815 2.0458794 0.96402979 64 98257440 1618 26 67 15850
14.305296 2.391351 0.7466591 271 98257440 5721 27 84 14523
19.827736 1.1183062 0.86325353 192 98257440 7568 28 54 19878
17.30814 1.6117595 0.58910728 203 98257440 6137 29 17 17393
15.816175 2.047461 0.39338508 79 98257440 2004 30 29 15953
14.393542 2.4006801 0.21802653 390 98257440 8297 31 54 14594
20.451059 1.1523881 0.14300415 133 98257440 5599 32 65 20484
17.478922 1.6212013 -0.044424344 70 98257440 2147 33 38 17554
15.750691 2.0370274 -0.18960758 208 98257440 5260 34 60 15883
14.466367 2.4032257 -0.31460589 349 98257440 7499 35 51 14668
19.486021 1.0884569 -0.57957411 209 98257440 7975 36 93 19525
17.450882 1.6056993 -0.68548006 45 98257440 1374 37 39 17538
15.863804 2.0449004 -0.77865106 418 98257440 10719 38 116 16014
14.521068 2.4125733 -0.85623229 226 98257440 4905 39 47 14745
19.566246 1.0775235 -1.3005272 101 98257440 3877 40 55 19639
17.538168 1.6057049 -1.3344181 133 98257440 4158 41 80 17662
15.867093 2.0408201 -1.36587 479 98257440 12351 42 101 16056
14.554534 2.410042 -1.3999983 151 98257440 3308 43 41 14819
19.748346 1.0806377 -2.0417531 43 98257440 1682 44 53 19883
17.662575 1.6099458 -1.9981652 347 98257440 11039 45 54 17848
16.017025 2.0515797 -1.9732705 340 98257440 9007 46 79 16268
14.651199 2.4223707 -1.9608542 72 98257440 1622 47 83 14979
19.741611 1.0636816 -2.7746563 104 98257440 4164 48 60 19964
17.718117 1.6072134 -2.6693387 397 98257440 12838 49 37 17990
16.133835 2.0579557 -2.5996282 206 98257440 5583 50 25 16471
14.629074 2.4145157 -2.5163167 49 98257440 1100 51 44 15039
19.928537 1.0559639 -3.5569491 256 98257440 10533 52 77 20271
17.846886 1.6097871 -3.3674345 388 98257440 12912 53 70 18233
16.186409 2.0594943 -3.227283 138 98257440 3806 54 50 16633
14.680339 2.4232402 -3.0975444 37 98257440 845 55 46 15198
19.702032 1.0329276 -4.2799997 276 98257440 11258 56 89 20188
17.934008 1.6081792 -4.0825939 301 98257440 10246 57 50 18463
16.301018 2.0708966 -3.8934546 87 98257440 2474 58 29 16887
14.752531 2.4338343 -3.7002327 169 98257440 4001 59 41 15403
18.874811 0.96742761 -4.8501282 87 98257440 3308 60 14 19512
17.973619 1.5965539 -4.8120337 106 98257440 3691 61 20 18675
16.291965 2.0665681 -4.5531301 55 98257440 1591 62 27 17042
14.815393 2.4505806 -4.3317924 168 98257440 4097 63 32 15629
12.530312 0.62786549 3.9160628 27 98355830 459 0 51 13143
13.053569 1.1536479 3.9332681 142 98355830 2667 1 61 13682
13.08417 1.6535096 3.8188105 9 98355830 166 2 23 13730
13.641629 2.2487111 3.8620334 371 98355830 7639 3 38 14355
13.493435 0.68297237 3.6497698 412 98355830 8078 4 63 13995
13.808608 1.2143048 3.5970645 419 98355830 8587 5 34 14321
14.161849 1.7841767 3.5556819 246 98355830 5330 6 79 14710
14.48636 2.3728976 3.5090451 390 98355830 8875 7 44 15093
14.326551 0.7278983 3.3057463 360 98355830 7808 8 79 14721
14.510242 1.2816201 3.204303 13 98355830 285 9 21 14915
15.036827 1.8861463 3.1814349 304 98355830 7281 10 43 15485
15.064596 2.4541171 3.0554259 242 98355830 5857 11 30 15566
15.20164 0.77475357 2.9204302 329 98355830 7914 12 65 15499
15.306702 1.3460444 2.7899406 20 98355830 480 13 39 15617
15.958907 1.9986956 2.7619302 280 98355830 7468 14 63 16319
15.129496 2.4608946 2.4884133 178 98355830 4281 15 55 15529
16.171906 0.82392031 2.4952159 281 98355830 7540 16 13 16384
16.581978 1.4543988 2.4016387 290 98355830 8215 17 65 16818
16.641809 2.0750778 2.2579482 180 98355830 5143 18 43 16922
14.476022 2.3455276 1.8336171 100 98355830 2177 19 38 14779
16.925749 0.86203057 1.9804006 18 98355830 512 20 47 17063
17.619421 1.5426036 1.8945471 15 98355830 490 21 59 17788
16.388739 2.0356793 1.610258 117 98355830 3231 22 76 16593
14.523795 2.3452046 1.2972176 59 98355830 1293 23 83 14769
18.405342 0.93384379 1.4756416 239 98355830 8155 24 47 18488
18.528379 1.6172962 1.3113219 172 98355830 5967 25 41 18645
15.925917 1.9776269 0.97789729 125 98355830 3239 26 80 16078
14.509012 2.3339841 0.75653023 230 98355830 4990 27 61 14715
19.810276 0.99542105 0.86221123 220 98355830 8659 28 40 19854
17.628351 1.5325348 0.59967476 185 98355830 5790 29 32 17705
15.947502 1.9650471 0.39634416 42 98355830 1078 30 31 16073
14.585708 2.3408377 0.22071564 406 98355830 8872 31 60 14774
20.865223 1.0473344 0.14585249 144 98355830 6301 32 73 20892
17.775465 1.5387603 -0.045153193 109 98355830 3457 33 46 17842
16.024899 1.9725963 -0.19275916 130 98355830 3381 34 38 16147
14.646697 2.3409247 -0.31820923 437 98355830 9609 35 47 14836
19.83975 0.98614091 -0.58990401 252 98355830 9957 36 102 19873
17.615717 1.5119224 -0.69157737 27 98355830 833 37 46 17694
16.137779 1.9796295 -0.79148757 348 98355830 9223 38 105 16278
14.7367 2.3555732 -0.86807835 304 98355830 6784 39 53 14949
19.991064 0.97792292 -1.3283402 126 98355830 5089 40 59 20059
17.833826 1.5224903 -1.3561773 118 98355830 3816 41 66 17950
16.152279 1.97683 -1.3893491 486 98355830 12967 42 97 16332
14.828596 2.362035 -1.4249394 174 98355830 3951 43 39 15083
20.124203 0.9773944 -2.079953 29 98355830 1209 44 62 20255
17.969164 1.5267787 -2.0317516 286 98355830 9404 45 54 18148
16.265791 1.9820787 -2.0023818 345 98355830 9415 46 63 16508
14.86552 2.3641925 -1.9875591 76 98355830 1758 47 83 15183
20.281918 0.9680236 -2.8497074 68 98355830 2844 48 40 20504
18.035093 1.5244546 -2.7156329 350 98355830 11708 49 52 18302
16.346136 1.9831837 -2.6318257 302 98355830 8387 50 42 16675
14.947412 2.3729367 -2.5685203 70 98355830 1642 51 37 15351
20.07625 0.94029725 -3.5822165 249 98355830 10357 52 56 20415
18.161982 1.5259222 -3.4250572 410 98355830 14114 53 71 18545
16.455849 1.9912491 -3.2785065 205 98355830 5841 54 47 16897
14.915384 2.3681192 -3.1440136 65 98355830 1540 55 32 15426
19.180838 0.88762361 -4.1655159 107 98355830 4146 56 68 19648
18.328396 1.5302398 -4.1701589 302 98355830 10755 57 70 18859
16.533674 1.9974457 -3.946022 111 98355830 3245 58 24 17115
14.99728 2.3797801 -3.7578874 137 98355830 3342 59 48 15643
18.833946 0.84950078 -4.8381968 95 98355830 3591 60 24 19464
18.399071 1.5206202 -4.9233479 123 98355830 4483 61 24 19107
16.660236 2.0094905 -4.6525178 64 98355830 1931 62 36 17414
15.012338 2.3886166 -4.3850079 121 98355830 3024 63 20 15821
12.51104 0.54996306 3.9089117 28 98453500 476 0 37 13119
13.094766 1.0763556 3.9436169 205 98453500 3849 1 57 13718
13.277177 1.5951951 3.8722126 16 98453500 305 2 30 13922
13.632339 2.1613457 3.8555763 348 98453500 7141 3 36 14331
13.520518 0.60119462 3.6560287 435 98453500 8558 4 62 14019
13.827376 1.1305004 3.6000786 417 98453500 8560 5 32 14333
13.837245 1.6570952 3.4715636 19 98453500 401 6 62 14362
14.454532 2.2767029 3.4978857 409 98453500 9249 7 46 15045
14.307384 0.63893515 3.3003569 356 98453500 7698 8 73 14697
14.622957 1.2011982 3.2275054 273 98453500 6156 9 28 15023
14.989811 1.786896 3.1691079 316 98453500 7511 10 39 15425
15.300243 2.3962276 3.1001797 256 98453500 6378 11 35 15794
15.170788 0.67988062 2.9136467 344 98453500 8229 12 97 15463
15.232299 1.2453643 2.7749343 13 98453500 306 13 36 15533
15.970871 1.900736 2.7619302 278 98453500 7391 14 50 16319
15.401772 2.408273 2.5307176 169 98453500 4207 15 35 15793
16.129265 0.72255272 2.4879057 304 98453500 8106 16 32 16336
16.519564 1.3468355 2.3913569 285 98453500 7979 17 56 16746
16.925861 2.005105 2.2947755 204 98453500 6048 18 58 17198
14.643092 2.2804804 1.8529719 173 98453500 3848 19 56 14935
16.60923 0.74376357 1.9427958 14 98453500 379 20 55 16739
17.699909 1.4402701 1.9022156 205 98453500 6530 21 34 17860
17.017698 2.0078528 1.6708138 187 98453500 5529 22 55 17217
14.703282 2.2817068 1.3119737 39 98453500 877 23 79 14937
18.374876 0.81929475 1.4727683 251 98453500 8532 24 49 18452
18.895887 1.5326091 1.3366411 206 98453500 7422 25 57 19005
16.199448 1.9107374 0.9939543 164 98453500 4390 26 72 16342
14.724399 2.2760365 0.76701832 103 98453500 2303 27 59 14919
19.720196 0.86962348 0.85804224 221 98453500 8614 28 40 19758
18.964338 1.5314978 0.64479011 162 98453500 5862 29 27 19037
16.292883 1.9061904 0.40462959 42 98453500 1127 30 18 16409
14.813249 2.2842119 0.22394256 354 98453500 7944 31 56 14990
20.78734 0.91559196 0.14526607 152 98453500 6601 32 62 20808
18.083607 1.4537017 -0.045912407 192 98453500 6305 33 50 18142
16.263142 1.9006968 -0.19548096 88 98453500 2347 34 54 16375
14.838659 2.2783208 -0.32206997 419 98453500 9457 35 66 15016
21.367313 0.93067521 -0.63514197 149 98453500 6813 36 137 21397
18.090828 1.4409361 -0.70986938 24 98453500 780 37 40 18162
16.352013 1.9041406 -0.80140674 302 98453500 8207 38 102 16482
14.91665 2.2905619 -0.87783402 364 98453500 8309 39 51 15117
20.415384 0.87314886 -1.3561532 156 98453500 6560 40 67 20479
18.152969 1.4375962 -1.3797499 89 98453500 2981 41 70 18262
16.449144 1.9107956 -1.413849 413 98453500 11410 42 104 16620
14.984517 2.2926857 -1.4385436 250 98453500 5787 43 45 15227
20.47567 0.86856699 -2.1156886 44 98453500 1850 44 49 20603
18.275387 1.4399089 -2.0653379 216 98453500 7337 45 49 18448
16.537962 1.9123375 -2.0344045 454 98453500 12758 46 56 16772
15.114954 2.3088634 -2.0189767 133 98453500 3171 47 78 15423
20.477448 0.85145694 -2.8763919 79 98453500 3366 48 48 20696
18.387205 1.4406465 -2.7672689 323 98453500 11222 49 40 18650
16.640522 1.9153678 -2.6772809 361 98453500 10375 50 48 16963
15.172212 2.3132741 -2.6046612 85 98453500 2050 51 46 15567
19.467831 0.79211885 -3.4727232 101 98453500 3974 52 63 19791
18.48847 1.4391657 -3.4848967 428 98453500 15250 53 78 18869
16.713354 1.9184312 -3.3274016 242 98453500 7106 54 44 17149
15.208367 2.3190582 -3.2027118 65 98453500 1600 55 25 15714
19.068747 0.76521325 -4.1400752 432 98453500 16487 56 76 19528
18.617476 1.4394009 -4.2338419 323 98453500 11823 57 56 19147
16.766033 1.9212166 -3.9985893 165 98453500 4954 58 33 17343
15.230396 2.3210576 -3.8126593 95 98453500 2382 59 51 15871
19.280157 0.7511161 -4.9515452 92 98453500 3641 60 27 19920
18.766447 1.4351039 -5.0192022 216 98453500 8184 61 35 19479
16.947985 1.9387701 -4.7294631 80 98453500 2500 62 26 17702
15.300253 2.3382616 -4.4648309 77 98453500 1989 63 41 16109
12.479838 0.47188789 3.8981853 35 98551200 592 0 48 13083
13.043822 0.99163115 3.9263685 287 98551200 5363 1 59 13658
13.30962 1.5163072 3.8788881 345 98551200 6705 2 31 13946
13.633919 2.0759187 3.8523479 397 98551200 8133 3 39 14319
13.477647 0.51644856 3.6435106 393 98551200 7679 4 68 13971
13.799305 1.0430096 3.5910363 361 98551200 7371 5 42 14297
13.847152 1.5721602 3.4715636 19 98551200 400 6 72 14362
14.433609 2.1827331 3.4895158 389 98551200 8753 7 52 15009
14.287665 0.55023468 3.2949674 368 98551200 7933 8 62 14673
14.594994 1.1087874 3.2197711 314 98551200 7045 9 43 14987
14.965483 1.690931 3.1617115 325 98551200 7687 10 50 15389
15.326294 2.3040514 3.102535 299 98551200 7467 11 11 15806
15.162898 0.58632624 2.9113858 334 98551200 7978 12 95 15451
15.074826 1.1394188 2.7449214 16 98551200 371 13 31 15365
15.935223 1.7974023 2.7538064 263 98551200 6973 14 67 16271
15.627106 2.3453689 2.56533 224 98551200 5732 15 40 16009
16.097841 0.62219769 2.4824231 291 98551200 7724 16 33 16300
16.57489 1.2490178 2.3982115 300 98551200 8475 17 59 16794
16.973301 1.905192 2.2995791 283 98551200 8393 18 46 17234
14.89234 2.2257912 1.8827486 234 98551200 5379 19 49 15175
17.13752 0.66208279 2.0040774 24 98551200 704 20 45 17267
17.696518 1.3307437 1.9009377 241 98551200 7692 21 60 17848
17.302694 1.9339091 1.697598 183 98551200 5587 22 50 17493
14.941648 2.2248969 1.3319998 47 98551200 1086 23 91 15165
18.295885 0.70331675 1.4660636 28 98551200 932 24 45 18368
18.892998 1.4157426 1.3357971 245 98551200 8821 25 53 18993
16.437038 1.8365744 1.0078218 241 98551200 6627 26 71 16570
15.046304 2.2313547 0.78305894 107 98551200 2493 27 60 15231
19.7012 0.74769694 0.85699999 253 98551200 9838 28 44 19734
19.308256 1.4400824 0.65617055 117 98551200 4385 29 19 19373
16.54274 1.8326007 0.41054773 67 98551200 1855 30 10 16649
15.052506 2.2266364 0.22734874 303 98551200 7007 31 53 15218
20.6127 0.78120917 0.14400944 34 98551200 1426 32 56 20628
18.40333 1.3658071 -0.046701994 236 98551200 8053 33 61 18454
16.572657 1.8338654 -0.1990623 32 98551200 878 34 47 16675
15.113482 2.2256839 -0.32773235 382 98551200 8909 35 46 15280
21.324677 0.79775667 -0.63371712 107 98551200 4871 36 130 21349
18.505922 1.3597815 -0.72581625 74 98551200 2544 37 27 18570
16.613577 1.8313494 -0.81365979 230 98551200 6443 38 104 16734
15.155609 2.2321579 -0.89107382 437 98551200 10281 39 46 15345
20.779327 0.76101273 -1.3799931 201 98551200 8747 40 66 20839
18.507532 1.3514563 -1.4060423 37 98551200 1268 41 46 18610
16.722025 1.8385777 -1.4363072 397 98551200 11320 42 101 16884
15.234697 2.2353854 -1.461217 283 98551200 6763 43 36 15467
20.826548 0.75546265 -2.1514242 98 98551200 4316 44 78 20951
18.557423 1.3476105 -2.0962374 138 98551200 4826 45 41 18724
16.798038 1.838034 -2.0649714 426 98551200 12358 46 71 17024
15.352488 2.2488368 -2.0488236 186 98551200 4564 47 77 15651
0 0 -0 7 98551200 0 48 59 0
18.738953 1.3525736 -2.8189049 282 98551200 10164 49 43 18998
16.899338 1.8401643 -2.7170541 406 98551200 12022 50 38 17215
15.396835 2.2509413 -2.6408024 121 98551200 3005 51 44 15783
19.495939 0.67346728 -3.4769347 131 98551200 5162 52 62 19815
18.838091 1.3501452 -3.5491683 382 98551200 14121 53 71 19217
16.993986 1.8450685 -3.3809538 279 98551200 8460 54 42 17425
15.419928 2.2545919 -3.2442896 59 98551200 1485 55 44 15918
19.28405 0.65536493 -4.1858687 16 98551200 635 56 81 19744
18.952812 1.3483932 -4.3081393 313 98551200 11865 57 47 19483
17.090942 1.8522755 -4.0732908 160 98551200 4983 58 41 17667
15.590137 2.2780895 -3.8991416 55 98551200 1438 59 46 16231
19.191467 0.6297515 -4.9276829 123 98551200 4819 60 43 19824
19.075623 1.3410697 -5.099596 267 98551200 10451 61 20 19791
17.21249 1.8621051 -4.7999964 106 98551200 3414 62 27 17966
15.474024 2.2677429 -4.511394 46 98551200 1212 63 31 16277
12.345109 0.39095321 3.8552794 35 98649020 579 0 48 12939
13.003798 0.90837342 3.9125695 361 98649020 6696 1 60 13610
13.341593 1.4370812 3.8855631 357 98649020 6960 2 40 13970
13.600656 1.9855453 3.8394344 402 98649020 8181 3 36 14271
13.457404 0.43299648 3.6372516 444 98649020 8642 4 80 13947
13.770682 0.95590597 3.5819941 387 98649020 7863 5 38 14261
13.740761 1.4747403 3.4425576 16 98649020 316 6 46 14242
14.43518 2.0924547 3.4867258 374 98649020 8400 7 57 14997
14.279085 0.46217856 3.2922728 362 98649020 7790 8 66 14661
14.601522 1.0192133 3.2197711 332 98649020 7468 9 60 14987
14.963899 1.5978256 3.159246 240 98649020 5668 10 33 15377
15.305203 2.2049341 3.0954688 346 98649020 8600 11 20 15770
15.107316 0.49136189 2.9000802 355 98649020 8416 12 82 15391
15.387777 1.0681583 2.8006597 19 98649020 461 13 28 15677
15.898912 1.6945781 2.745683 255 98649020 6722 14 66 16223
15.817067 2.2747304 2.5941739 198 98649020 5178 15 47 16189
16.065794 0.52225542 2.4769402 337 98649020 8908 16 31 16264
16.286026 1.1267982 2.355371 25 98649020 692 17 65 16494
16.96102 1.7985017 2.2963767 279 98649020 8277 18 62 17210
15.259328 2.1850059 1.9274133 148 98649020 3576 19 93 15535
17.129349 0.55652946 2.0026848 267 98649020 7938 20 47 17255
17.609121 1.2155613 1.8907129 261 98649020 8237 21 70 17752
17.539906 1.8515272 1.7197242 181 98649020 5676 22 31 17721
15.227198 2.171998 1.3562419 94 98649020 2252 23 62 15441
17.881414 0.57752734 1.4325409 16 98649020 504 24 40 17948
18.865503 1.2973272 1.3332652 235 98649020 8428 25 54 18957
16.698141 1.7620807 1.0231489 260 98649020 7365 26 81 16822
15.166497 2.1541576 0.78861141 76 98649020 1778 27 49 15339
19.681452 0.62603623 0.85595769 232 98649020 8998 28 46 19710
19.639788 1.3436847 0.66714454 127 98649020 4915 29 35 19697
16.840023 1.7610064 0.41764954 93 98649020 2663 30 20 16937
15.255966 2.1611612 0.23021713 198 98649020 4711 31 72 15410
20.545143 0.65243214 0.1435068 27 98649020 1124 32 47 20556
18.722643 1.2740427 -0.04749158 246 98649020 8647 33 55 18766
16.53586 1.7271569 -0.19848929 14 98649020 375 34 50 16627
15.364449 2.1664085 -0.33287999 370 98649020 8920 35 76 15520
20.465973 0.63990647 -0.60807037 86 98649020 3617 36 92 20485
18.860865 1.2695594 -0.73941797 125 98649020 4466 37 24 18918
16.898693 1.757899 -0.82707971 161 98649020 4664 38 92 17010
15.429994 2.1759253 -0.9064042 375 98649020 9149 39 59 15609
21.13068 0.64407796 -1.4030383 339 98649020 15235 40 69 21187
18.813953 1.2578257 -1.4287083 33 98649020 1165 41 50 18910
16.994631 1.763082 -1.4587655 340 98649020 10001 42 103 17148
15.46107 2.1717765 -1.4816233 379 98649020 9313 43 39 15683
20.270027 0.6107626 -2.093508 20 98649020 848 44 69 20387
18.946089 1.2590206 -2.1392281 103 98649020 3751 45 30 19108
17.057819 1.7606102 -2.0955384 469 98649020 14008 46 77 17276
15.589846 2.185981 -2.0786703 232 98649020 5858 47 77 15879
0 0 -0 7 98649020 0 48 56 0
19.0903 1.2602376 -2.8705406 205 98649020 7658 49 45 19346
17.157852 1.7618561 -2.7568276 416 98649020 12684 50 31 17467
15.60954 2.184298 -2.6749353 159 98649020 4056 51 34 15987
19.523321 0.55450058 -3.4811459 50 98649020 1982 52 74 19839
19.19907 1.2576585 -3.6156566 347 98649020 13315 53 66 19577
17.262623 1.7671343 -3.4321773 356 98649020 11124 54 56 17689
15.677799 2.1941288 -3.2956502 87 98649020 2268 55 32 16170
19.592499 0.54551417 -4.2520151 157 98649020 6333 56 64 20056
19.346115 1.257118 -4.3957043 330 98649020 13022 57 53 19879
17.369158 1.7746706 -4.1369252 205 98649020 6589 58 39 17943
15.76533 2.2049761 -3.9394996 71 98649020 1897 59 51 16399
18.776676 0.500826 -4.8202996 54 98649020 2025 60 18 19392
19.338053 1.240326 -5.1676216 404 98649020 16239 61 28 20055
17.499691 1.7846128 -4.8769417 165 98649020 5486 62 40 18254
15.81877 2.2192066 -4.6078472 34 98649020 934 63 22 16625
12.438886 0.31753626 3.8838835 32 98746660 539 0 31 13035
12.986187 0.82710534 3.9056699 422 98746660 7796 1 73 13586
13.30429 1.3505354 3.8722126 381 98746660 7381 2 23 13922
13.543903 1.8924595 3.8200634 132 98746660 2655 3 35 14199
13.471389 0.35071674 3.6403811 414 98746660 8075 4 67 13959
13.753104 0.86992615 3.5759656 404 98746660 8181 5 41 14237
14.004423 1.4161743 3.5063713 17 98746660 348 6 51 14506
14.366823 1.992619 3.4671962 367 98746660 8153 7 45 14913
14.223205 0.37302217 3.2787993 368 98746660 7854 8 68 14601
14.584109 0.92811221 3.2146151 329 98746660 7376 9 63 14963
14.587814 1.4671957 3.0778868 17 98746660 375 10 33 14981
15.306788 2.1093752 3.0931132 319 98746660 7913 11 38 15758
15.098266 0.39834508 2.897819 327 98746660 7739 12 93 15379
15.476525 0.97893786 2.815666 316 98746660 7844 13 28 15761
15.873706 1.5934483 2.7395899 293 98746660 7690 14 58 16187
16.041946 2.2066908 2.6287863 234 98746660 6286 15 48 16405
16.056841 0.42335519 2.4751129 360 98746660 9502 16 32 16252
16.008148 1.008918 2.3142443 12 98746660 305 17 45 16206
16.936235 1.6908528 2.2915733 291 98746660 8568 18 57 17174
16.180832 2.2157249 2.0420532 160 98746660 4322 19 51 16459
17.144356 0.45172921 2.0040774 281 98746660 8389 20 74 17267
17.568615 1.1044962 1.8856006 253 98746660 7944 21 63 17704
17.812401 1.7698489 1.7453439 201 98746660 6486 22 56 17985
15.417897 2.1027548 1.372052 173 98746660 4228 23 84 15621
17.94441 0.46936208 1.4373299 11 98746660 343 24 48 18008
18.825321 1.1785544 1.3298893 221 98746660 7886 25 50 18909
17.101971 1.6986574 1.0472344 19 98746660 575 26 70 17218
15.369432 2.0868556 0.7984826 46 98746660 1098 27 54 15531
19.60103 0.50310802 0.85230982 257 98746660 9881 28 54 19626
20.030701 1.2469977 0.68015075 132 98746660 5312 29 32 20081
17.101227 1.6823084 0.42386362 154 98746660 4543 30 30 17189
15.554303 2.1061516 0.23451971 130 98746660 3193 31 50 15698
21.11256 0.54079896 0.14744422 67 98746660 3011 32 58 21120
19.65234 1.2162124 -0.049829971 99 98746660 3840 33 111 19690
17.346239 1.7042713 -0.20808727 17 98746660 502 34 57 17431
15.591469 2.1009319 -0.33751285 260 98746660 6448 35 68 15736
20.457523 0.51401627 -0.60771424 115 98746660 4831 36 84 20473
19.203419 1.1743001 -0.75255066 169 98746660 6283 37 61 19254
17.159668 1.678684 -0.83933282 108 98746660 3224 38 92 17262
15.62114 2.1052074 -0.91685659 463 98746660 11533 39 47 15789
20.631489 0.50217354 -1.3696625 50 98746660 2156 40 68 20683
19.179626 1.1641095 -1.4559073 12 98746660 427 41 57 19270
17.27883 1.68547 -1.4822446 279 98746660 8477 42 90 17424
15.687228 2.1054728 -1.5020295 439 98746660 11088 43 43 15899
20.094397 0.48208222 -2.0750239 30 98746660 1239 44 75 20207
19.370062 1.1678638 -2.186249 60 98746660 2276 45 35 19528
17.376551 1.6858176 -2.1333833 396 98746660 12257 46 92 17588
15.779835 2.1139772 -2.1022334 303 98746660 7818 47 95 16059
0 0 -0 4 98746660 0 48 55 0
19.417513 1.1622218 -2.9186153 134 98746660 5173 49 35 19670
17.486799 1.687272 -2.8079646 433 98746660 13693 50 45 17791
15.868906 2.1213989 -2.7170999 200 98746660 5265 51 39 16239
20.022413 0.44574055 -3.5695827 52 98746660 2133 52 53 20343
19.583157 1.162189 -3.6865768 250 98746660 9975 53 75 19961
17.554371 1.6882257 -3.4880576 370 98746660 11972 54 62 17977
15.947146 2.1321416 -3.3494565 129 98746660 3476 55 35 16434
19.20857 0.41688943 -4.1680603 22 98746660 861 56 83 19660
19.63385 1.1548814 -4.4593878 480 98746660 19507 57 43 20167
17.647057 1.6937203 -4.2005596 233 98746660 7723 58 39 18219
16.032574 2.1421392 -4.0029197 73 98746660 2017 59 42 16663
18.69805 0.38393474 -4.7994194 295 98746660 10990 60 25 19308
18.905437 1.0961432 -5.0501232 67 98746660 2561 61 37 19599
17.775066 1.7025623 -4.9506807 134 98746660 4592 62 31 18530
16.106354 2.1588645 -4.6876702 18 98746660 507 63 32 16913
12.48641 0.24209493 3.8981853 49 98844240 832 0 42 13083
12.956594 0.74542755 3.8953207 429 98844240 7885 1 64 13550
13.289377 1.2666889 3.8655374 393 98844240 7585 2 37 13898
13.326141 1.7787379 3.7554946 20 98844240 385 3 28 13959
13.415376 0.26689908 3.6247339 432 98844240 8352 4 73 13899
13.758183 0.78552228 3.5759656 416 98844240 8424 5 45 14237
14.047626 1.3335193 3.5150731 376 98844240 7943 6 46 14542
14.367209 1.9028959 3.4644063 456 98844240 10136 7 59 14901
14.225225 0.28574321 3.2787993 368 98844240 7855 8 61 14601
14.542727 0.83591813 3.204303 318 98844240 7065 9 50 14915
14.538082 1.3721414 3.0655596 19 98844240 415 10 39 14921
15.284446 2.0108106 3.0860469 328 98844240 8101 11 28 15722
15.123991 0.30617341 2.9023414 378 98844240 8975 12 85 15403
15.458665 0.88261122 2.8113785 343 98844240 8484 13 50 15737
15.847861 1.492692 2.7334971 283 98844240 7393 14 67 16151
16.24309 2.1328917 2.6595528 292 98844240 8034 15 39 16597
16.047279 0.32458445 2.4732854 329 98844240 8671 16 28 16240
15.990322 0.90932626 2.310817 14 98844240 359 17 32 16182
16.863403 1.5791403 2.2803648 270 98844240 7900 18 58 17090
16.465679 2.1518893 2.0762963 178 98844240 4997 19 66 16735
17.075306 0.34507999 1.9957211 274 98844240 8116 20 59 17195
17.586975 0.99735206 1.8868787 247 98844240 7766 21 64 17716
17.953737 1.6727082 1.7581537 114 98844240 3726 22 56 18117
15.632022 2.0343375 1.3899701 211 98844240 5295 23 68 15825
18.222017 0.36475441 1.4593592 91 98844240 3033 24 31 18284
18.784393 1.0603237 1.3265133 256 98844240 9089 25 56 18861
18.292763 1.7036504 1.119491 134 98844240 4553 26 70 18406
15.762262 2.0417757 0.81822485 63 98844240 1585 27 46 15915
19.352034 0.37791333 0.84136599 11 98844240 400 28 41 19374
20.21759 1.1341439 0.68624747 200 98844240 8201 29 26 20261
17.397924 1.6037738 0.43096542 212 98844240 6468 30 27 17477
15.76923 2.0368018 0.23756734 90 98844240 2267 31 42 15902
21.12748 0.41147825 0.14752801 179 98844240 7972 32 55 21132
20.546055 1.1450157 -0.052077256 125 98844240 5275 33 51 20578
17.523649 1.6132044 -0.2100928 67 98844240 2065 34 38 17599
15.842054 2.0358078 -0.34266049 246 98844240 6266 35 54 15976
0 0 -0 8 98844240 0 36 86 0
19.533525 1.0742255 -0.76521432 217 98844240 8301 37 52 19578
17.456104 1.5996126 -0.85333627 77 98844240 2385 38 66 17550
15.907049 2.0444424 -0.93288374 432 98844240 11162 39 60 16065
20.562351 0.37426421 -1.3648945 37 98844240 1590 40 66 20611
19.664326 1.0724686 -1.4921727 41 98844240 1615 41 69 19750
17.562706 1.6044356 -1.5057236 191 98844240 5987 42 101 17700
15.972395 2.0440567 -1.5281041 517 98844240 13519 43 32 16175
10.083796 0.18001844 -1.0411575 45 98844240 466 44 77 10139
19.686445 1.065749 -2.2211785 44 98844240 1717 45 43 19840
17.694994 1.6071788 -2.1712282 350 98844240 11223 46 87 17900
16.052128 2.0502741 -2.1367929 314 98844240 8373 47 84 16323
20.147604 0.34279612 -2.8280258 63 98844240 2598 48 29 20348
19.803482 1.063419 -2.9755929 122 98844240 4892 49 41 20054
17.780062 1.6055193 -2.8534198 390 98844240 12732 50 52 18079
16.116343 2.0539021 -2.7572565 244 98844240 6617 51 38 16479
19.528656 0.31487763 -3.4811459 12 98844240 489 52 67 19839
19.943226 1.0608 -3.7530651 270 98844240 11130 53 53 20321
17.857512 1.6068573 -3.5462663 378 98844240 12640 54 69 18277
16.20466 2.0654449 -3.4008176 155 98844240 4307 55 36 16686
18.987976 0.29555222 -4.1197224 83 98844240 3148 56 74 19432
19.360085 1.0196167 -4.3957043 205 98844240 8111 57 87 19879
17.982754 1.6146466 -4.2780271 276 98844240 9496 58 19 18555
16.207191 2.0643303 -4.0432787 95 98844240 2679 59 50 16831
18.851141 0.27137345 -4.8381968 10 98844240 368 60 32 19464
18.72654 0.97051942 -5.0006504 254 98844240 9561 61 16 19407
18.096153 1.6213264 -5.0372438 169 98844240 5995 62 41 18854
16.359472 2.0906906 -4.7575159 29 98844240 846 63 33 17165
12.33876 0.16350211 3.8517039 40 98941050 662 0 44 12927
12.949446 0.66532367 3.8918712 431 98941050 7907 1 67 13538
13.296899 1.1851231 3.8655374 361 98941050 6965 2 48 13898
13.164827 1.6750549 3.7070677 24 98941050 451 3 26 13779
13.41676 0.18457887 3.6247339 428 98941050 8276 4 65 13899
13.704743 0.6981343 3.5608954 386 98941050 7751 5 39 14177
14.055543 1.2472997 3.5150731 386 98941050 8169 6 81 14542
14.343877 1.8103204 3.4560366 405 98941050 8959 7 63 14865
14.203326 0.19812728 3.2734098 372 98941050 7894 8 55 14577
14.559288 0.74727064 3.206881 319 98941050 7119 9 59 14927
14.440941 1.2736257 3.0433707 12 98941050 258 10 27 14813
15.249795 1.9111365 3.0766251 335 98941050 8224 11 26 15674
15.031314 0.21203876 2.8842523 330 98941050 7741 12 73 15307
15.428415 0.78593999 2.8049471 333 98941050 8198 13 53 15701
15.833158 1.3933496 2.7294352 213 98941050 5548 14 79 16127
16.208858 2.0273058 2.6518614 264 98941050 7220 15 42 16549
16.001534 0.22544578 2.4659753 316 98941050 8275 16 47 16192
16.434486 0.83345181 2.3742208 50 98941050 1369 17 56 16626
16.849079 1.4735664 2.2771623 279 98941050 8114 18 46 17066
16.714895 2.0802283 2.1060729 202 98941050 5832 19 71 16975
17.065184 0.24013367 1.9943281 265 98941050 7838 20 64 17183
17.008852 0.85990137 1.8242525 14 98941050 425 21 58 17128
17.951765 1.5614797 1.7569892 67 98941050 2184 22 43 18105
15.917056 1.9721895 1.4142122 252 98941050 6539 23 90 16101
18.247833 0.25327137 1.4612747 267 98941050 8939 24 36 18308
18.766636 0.94384247 1.3248255 222 98941050 7894 25 62 18837
18.541529 1.6121265 1.1340884 166 98941050 5782 26 78 18646
16.024267 1.9758193 0.83118063 103 98941050 2682 27 43 16167
19.042309 0.25499079 0.82781661 18 98941050 644 28 33 19062
20.176256 1.0076768 0.68462163 168 98941050 6855 29 25 20213
17.69429 1.5216607 0.43806723 260 98941050 8200 30 21 17765
16.043428 1.9722126 0.24151136 60 98941050 1556 31 53 16166
21.045616 0.28071439 0.14694157 195 98941050 8618 32 53 21048
20.900265 1.0361573 -0.052957948 162 98941050 7075 33 51 20926
17.808186 1.5292635 -0.21338761 113 98941050 3624 34 67 17875
16.080509 1.9662304 -0.34755072 189 98941050 4951 35 48 16204
20.954033 0.26925099 -0.62231857 15 98941050 674 36 77 20965
19.923 0.97306836 -0.78022313 232 98941050 9227 37 53 19962
17.82386 1.5230888 -0.87084067 44 98941050 1423 38 72 17910
16.121445 1.9715214 -0.94472992 366 98941050 9677 39 48 16269
10.363446 0.12502547 -0.68784434 24 98941050 262 40 79 10387
20.064945 0.97087449 -1.5220919 139 98941050 5659 41 65 20146
17.834312 1.5189655 -1.5281819 127 98941050 4102 42 103 17964
16.186235 1.9705567 -1.5473766 463 98941050 12410 43 48 16379
20.6001 0.24132951 -2.1267788 199 98941050 8548 44 85 20711
20.038031 0.96150976 -2.260139 27 98941050 1090 45 30 20188
18.001245 1.5236899 -2.2076175 224 98941050 7431 46 79 18200
16.276985 1.9775689 -2.1650689 393 98941050 10757 47 84 16539
10.369754 0.11279287 -1.4554298 42 98941050 466 48 59 10472
20.200809 0.96048617 -3.0343511 91 98941050 3788 49 49 20450
18.084776 1.5212235 -2.9007692 378 98941050 12756 50 43 18379
16.387028 1.9862949 -2.8014288 280 98941050 7863 51 58 16743
0 0 -0 8 98941050 0 52 62 0
19.94936 0.9384107 -3.7530651 186 98941050 7698 53 66 20321
18.183769 1.5237978 -3.6091318 369 98941050 12751 54 54 18601
16.461946 1.9956675 -3.4521785 154 98941050 4410 55 31 16938
0 0 -0 4 98941050 0 56 79 0
19.073717 0.88721192 -4.3293672 240 98941050 9183 57 51 19579
18.341406 1.5334617 -4.3610287 249 98941050 8898 58 35 18915
16.578037 2.0082731 -4.1326432 101 98941050 2982 59 26 17203
19.23601 0.15886766 -4.9366312 216 98941050 8514 60 17 19860
18.836386 0.86035866 -5.0284786 38 98941050 1434 61 39 19515
18.439953 1.5381359 -5.1302199 78 98941050 2863 62 39 19202
16.61235 2.019491 -4.8273611 65 98941050 1965 63 24 17417
12.419713 0.08836028 3.8767323 24 99039140 400 0 45 13011
12.964766 0.5863741 3.8953207 445 99039140 8179 1 66 13550
13.234998 1.0977956 3.8455114 363 99039140 6933 2 34 13826
13.255176 1.6039644 3.7296669 13 99039140 247 3 20 13863
13.406056 0.10216342 3.6216042 438 99039140 8455 4 65 13887
13.697165 0.61351067 3.5578814 412 99039140 8259 5 43 14165
14.028117 1.1581588 3.5063713 392 99039140 8255 6 79 14506
14.366302 1.7236643 3.4588263 182 99039140 4021 7 37 14877
14.180888 0.11079087 3.2680204 378 99039140 8016 8 60 14553
14.505059 0.65527791 3.1939907 315 99039140 6955 9 42 14867
14.717691 1.2070729 3.1000757 23 99039140 519 10 25 15089
15.214498 1.8119636 3.067203 311 99039140 7587 11 30 15626
15.008763 0.11961652 2.87973 374 99039140 8741 12 91 15283
15.421152 0.69072992 2.8028035 332 99039140 8183 13 66 15689
15.440636 1.2633809 2.6603827 12 99039140 306 14 69 15719
16.20923 1.926414 2.6499383 276 99039140 7538 15 41 16537
15.990754 0.12716366 2.4641476 315 99039140 8236 16 49 16180
16.39183 0.73048097 2.3673663 309 99039140 8480 17 54 16578
16.834099 1.368228 2.2739601 291 99039140 8437 18 55 17042
16.963844 2.005589 2.1358495 214 99039140 6330 19 47 17215
17.0425 0.13523 1.9915426 258 99039140 7610 20 64 17159
17.133009 0.76081413 1.8370334 13 99039140 375 21 46 17248
17.937199 1.4493765 1.7546602 266 99039140 8684 22 43 18081
16.795492 1.9764718 1.4911547 139 99039140 4004 23 125 16977
18.153355 0.14055909 1.4536124 246 99039140 8144 24 54 18212
18.736197 0.82709104 1.3222935 223 99039140 7899 25 61 18801
18.956993 1.5311128 1.1589037 169 99039140 6148 26 74 19054
16.238438 1.9011495 0.84166878 136 99039140 3656 27 65 16371
0 0 0 7 99039140 0 28 33 0
20.158096 0.88280928 0.68380874 200 99039140 8143 29 25 20189
18.085958 1.4436059 0.44753623 162 99039140 5349 30 69 18149
16.233995 1.8945979 0.24420047 48 99039140 1273 31 41 16346
21.07094 0.15174848 0.14710912 173 99039140 7702 32 63 21072
20.582537 0.89383906 -0.052137993 67 99039140 2827 33 45 20602
18.104301 1.442844 -0.21682569 130 99039140 4305 34 60 18163
16.294865 1.8910365 -0.35192621 129 99039140 3485 35 61 16408
10.436165 0.070058741 -0.30992743 22 99039140 239 36 126 10441
20.276012 0.865637 -0.79382485 265 99039140 10912 37 55 20310
18.286905 1.4496884 -0.89301276 20 99039140 658 38 56 18366
16.383135 1.9015701 -0.95936334 325 99039140 8883 39 65 16521
20.876707 0.12374968 -1.3855557 205 99039140 8982 40 95 20923
20.429174 0.86288875 -1.5492909 193 99039140 8098 41 47 20506
18.20088 1.4377543 -1.5588068 81 99039140 2725 42 97 18324
16.48284 1.9041051 -1.574585 457 99039140 12708 43 59 16667
20.05212 0.11186208 -2.0700948 36 99039140 1480 44 68 20159
20.567776 0.8604719 -2.3192511 28 99039140 1186 45 41 20716
18.330877 1.4383657 -2.2469177 246 99039140 8448 46 93 18524
16.560638 1.9089919 -2.2011991 329 99039140 9307 47 96 16815
19.710608 0.093443774 -2.7663174 106 99039140 4180 48 55 19904
20.360464 0.84289956 -3.0574982 78 99039140 3302 49 28 20606
18.412741 1.4350895 -2.9519062 356 99039140 12440 50 41 18703
16.622221 1.9113876 -2.8395777 336 99039140 9668 51 38 16971
0 0 -0 8 99039140 0 52 42 0
19.577663 0.80056655 -3.6821444 41 99039140 1647 53 64 19937
18.53314 1.4386158 -3.6766539 378 99039140 13590 54 61 18949
16.707306 1.9214667 -3.5010936 209 99039140 6157 55 38 17178
19.435804 0.06398537 -4.2163973 45 99039140 1791 56 84 19888
19.043722 0.76874506 -4.3214068 155 99039140 5911 57 28 19543
18.629875 1.4425266 -4.4274297 325 99039140 11977 58 24 19203
16.856213 1.9371018 -4.198946 142 99039140 4326 59 45 17479
19.190128 0.040736035 -4.9246998 246 99039140 9647 60 27 19812
19.22364 0.75987738 -5.130517 183 99039140 7247 61 23 19911
18.529749 1.431195 -5.1526623 132 99039140 4895 62 46 19286
16.899323 1.9492284 -4.9071836 76 99039140 2377 63 19 17705
12.328382 0.01206302 3.8481286 44 99135700 728 0 40 12915
12.922181 0.50501746 3.8815219 462 99135700 8426 1 98 13502
13.275963 1.0192134 3.8555245 380 99135700 7296 2 34 13862
13.436999 1.5423717 3.7780936 20 99135700 391 3 21 14043
13.40643 0.019903479 3.6216042 435 99135700 8380 4 50 13887
13.677459 0.52855784 3.5518532 392 99135700 7833 5 28 14141
13.988519 1.0685146 3.4947689 352 99135700 7366 6 71 14458
13.970736 1.5893097 3.3611786 16 99135700 327 7 42 14457
14.134527 0.023698069 3.2572415 354 99135700 7456 8 70 14505
14.520517 0.56672126 3.1965687 290 99135700 6430 9 63 14879
14.841925 1.1256254 3.1247299 312 99135700 7210 10 36 15209
15.190253 1.7146157 3.0601368 313 99135700 7601 11 31 15590
14.997429 0.027500615 2.8774688 370 99135700 8637 12 75 15271
15.366109 0.59381479 2.7920845 353 99135700 8613 13 49 15629
15.636788 1.1828892 2.692878 13 99135700 341 14 60 15911
16.185434 1.8229427 2.6441696 311 99135700 8460 15 32 16501
15.955654 0.028979221 2.4586649 341 99135700 8879 16 39 16144
16.360399 0.62852103 2.3622255 324 99135700 8878 17 67 16542
16.818459 1.2631288 2.2707579 281 99135700 8126 18 45 17018
17.176996 1.9239957 2.1611595 313 99135700 9510 19 68 17419
16.971495 0.030528016 1.9831859 307 99135700 8950 20 54 17087
0 0 0 5 99135700 0 21 69 0
17.945753 1.3392886 1.7546602 261 99135700 8519 22 51 18081
17.353786 1.9342915 1.539639 151 99135700 4645 23 96 17529
18.141912 0.029150335 1.4526546 247 99135700 8166 24 56 18200
18.645227 0.70847625 1.3155419 207 99135700 7258 25 64 18705
19.228811 1.4343681 1.1749607 217 99135700 8106 26 90 19318
16.535666 1.8331683 0.85647547 192 99135700 5341 27 62 16659
19.475597 0.021775706 0.84657735 253 99135700 9602 28 39 19494
20.10321 0.75684893 0.68177658 183 99135700 7403 29 33 20129
19.386585 1.4277654 0.47949433 149 99135700 5625 30 26 19445
16.603098 1.834484 0.24957868 42 99135700 1160 31 49 16706
10.751733 0.011458574 0.075062513 13 99135700 154 32 78 10752
20.503693 0.76440078 -0.051925413 94 99135700 3944 33 36 20518
18.459854 1.3572469 -0.22098005 190 99135700 6495 34 54 18511
16.6043 1.823764 -0.35836074 63 99135700 1747 35 46 16708
10.412409 0.0060084756 -0.30921501 106 99135700 1149 36 123 10417
21.395344 0.7819376 -0.83744419 296 99135700 13567 37 56 21426
18.474766 1.3505629 -0.90176493 62 99135700 2118 38 49 18546
16.704105 1.8350214 -0.97748095 219 99135700 6194 39 49 16833
20.410101 -0.0042524179 -1.3545641 70 99135700 2908 40 56 20455
20.876528 0.75349039 -1.5828365 215 99135700 9457 41 62 20950
18.555182 1.3512323 -1.5884109 51 99135700 1790 42 77 18672
16.791101 1.8353845 -1.6029269 348 99135700 10006 43 49 16967
20.028555 -0.011164209 -2.0676303 227 99135700 9222 44 63 20135
20.620337 0.73595554 -2.3246248 55 99135700 2360 45 31 20764
18.648249 1.3481941 -2.2847626 150 99135700 5335 46 75 18836
16.808571 1.8331379 -2.2326167 444 99135700 12922 47 87 17055
10.168338 -0.014186595 -1.4270773 9 99135700 99 48 70 10268
0 0 -0 6 99135700 0 49 36 0
18.763956 1.3466835 -3.0068312 262 99135700 9492 50 54 19051
16.927673 1.8413439 -2.8897734 371 99135700 11055 51 46 17271
19.885557 -0.045444354 -3.5443151 111 99135700 4548 52 60 20199
19.47613 0.67673934 -3.6621978 51 99135700 1989 53 48 19829
18.870394 1.3483639 -3.7418475 384 99135700 14295 54 74 19285
17.010759 1.8506823 -3.5622373 267 99135700 8148 55 30 17478
19.459286 -0.055338383 -4.2214856 80 99135700 3153 56 55 19912
19.328787 0.6614871 -4.3850904 93 99135700 3676 57 60 19831
18.999437 1.3539183 -4.5131979 308 99135700 11785 58 50 19575
17.087811 1.8575561 -4.2537179 171 99135700 5349 59 46 17707
19.224888 -0.077153087 -4.9336486 177 99135700 6964 60 25 19848
18.880291 0.63030303 -5.037755 91 99135700 3470 61 26 19551
19.114918 1.3584591 -5.3129649 250 99135700 9875 62 33 19886
17.186049 1.8755195 -4.9870071 109 99135700 3520 63 31 17993
12.328224 -0.063582741 3.8481286 33 99232310 545 0 37 12915
12.936524 0.42609727 3.8849716 458 99232310 8372 1 69 13514
13.21298 0.93286389 3.8354988 365 99232310 6935 2 35 13790
13.503661 1.4661324 3.7942359 404 99232310 8035 3 2 14103
13.348377 -0.062087785 3.6059568 412 99232310 7867 4 57 13827
13.668835 0.44424725 3.5488389 422 99232310 8420 5 25 14129
13.971581 0.98103136 3.4889677 352 99232310 7342 6 71 14434
14.154288 1.5222774 3.4030278 19 99232310 399 7 41 14637
14.122713 -0.062978067 3.2545469 367 99232310 7718 8 62 14493
14.500295 0.47684398 3.1914127 340 99232310 7494 9 48 14855
14.813405 1.0320871 3.1173337 366 99232310 8419 10 38 15173
15.165387 1.6176337 3.0530705 332 99232310 8023 11 44 15554
14.961961 -0.064370289 2.8706856 363 99232310 8431 12 88 15235
15.381265 0.49990249 2.7942283 331 99232310 8108 13 68 15641
15.41958 1.0713462 2.6542897 12 99232310 284 14 50 15683
16.125645 1.7160758 2.632632 278 99232310 7491 15 51 16429
15.96739 -0.068974607 2.4604924 322 99232310 8396 16 41 16156
16.340206 0.52735746 2.3587983 300 99232310 8174 17 49 16518
16.778433 1.1566372 2.264353 198 99232310 5689 18 53 16970
17.235844 1.8235748 2.167115 299 99232310 9108 19 55 17467
16.971361 -0.073607691 1.9831859 265 99232310 7751 20 60 17087
17.367643 0.55778557 1.861317 35 99232310 1056 21 48 17476
17.894054 1.2250714 1.7488374 267 99232310 8658 22 46 18021
17.626863 1.855302 1.5628271 166 99232310 5261 23 96 17793
18.129789 -0.082112722 1.4516969 252 99232310 8322 24 51 18188
18.242439 0.58110011 1.2868466 12 99232310 386 25 54 18297
19.249203 1.3171731 1.1756907 224 99232310 8383 26 74 19330
16.808821 1.7591151 0.87004828 275 99232310 7887 27 67 16923
19.283546 -0.09676221 0.83823919 53 99232310 1958 28 53 19302
20.023563 0.63084006 0.67893142 215 99232310 8629 29 29 20045
19.730114 1.3313997 0.48777974 147 99232310 5742 30 29 19781
