# .PCD v0.7 - Point Cloud Data file format
VERSION 0.7
FIELDS x y z intensity t reflectivity ring noise range
SIZE 4 4 4 4 4 2 1 2 4
TYPE F F F F U U U U U
COUNT 1 1 1 1 1 1 1 1 1
WIDTH 757
HEIGHT 1
VIEWPOINT 0 0 0 1 0 0 0
POINTS 757
DATA ascii
-0.047856621 -1.6572028 0.30102134 116 25137410 33 13 13 1685
0.012779185 -1.5955929 0.27400976 327 25137410 86 14 50 1619
0.073551185 -1.6457899 0.26744553 352 25137410 98 15 27 1669
-0.099893823 -1.5187542 0.23453568 304 25137410 72 16 1 1540
-0.045092274 -1.5492946 0.22362745 270 25137410 66 17 12 1566
0.012093202 -1.6193435 0.21802904 292 25137410 78 18 42 1634
0.075287253 -1.7080289 0.21377105 117 25137410 35 19 51 1723
-0.10635009 -1.6164826 0.18930042 124 25137410 33 20 1 1631
-0.047231369 -1.6140717 0.17296742 132 25137410 35 21 26 1624
0.011343556 -1.6212716 0.15808536 58 25137410 15 22 44 1629
0.070579767 -1.6211685 0.14308128 251 25137410 67 23 70 1629
-0.080856957 -1.2254049 0.098333545 161 25137410 24 24 21 1232
-0.037357248 -1.2653062 0.089250065 168 25137410 27 25 25 1269
0.008824897 -1.2676182 0.077244036 128 25137410 21 26 76 1270
0.067481749 -1.5714689 0.080974184 306 25137410 76 27 71 1575
-0.079121299 -1.1902467 0.051852535 194 25137410 28 28 26 1194
-0.036319166 -1.2157594 0.041220229 177 25137410 26 29 1 1217
0.0076119327 -1.2645925 0.03119364 235 25137410 38 30 12 1265
0.055716086 -1.3086684 0.019570697 228 25137410 39 31 34 1310
-0.079654738 -1.1973242 0.0083775129 161 25137410 23 32 44 1200
-0.035848729 -1.1854544 -0.0030014399 188 25137410 26 33 22 1186
0.0074002044 -1.2548889 -0.014981901 211 25137410 33 34 48 1255
0.054445662 -1.2985601 -0.027882989 222 25137410 37 35 53 1300
-0.076262966 -1.1379446 -0.033869091 195 25137410 25 36 77 1141
-0.036566019 -1.1805307 -0.046198964 183 25137410 26 37 31 1182
0.0069271033 -1.2644836 -0.061556906 202 25137410 32 38 74 1266
0.094260186 -2.2472222 -0.1308302 320 25137410 163 39 61 2253
-0.079046354 -1.1657526 -0.077545561 204 25137410 28 40 42 1171
-0.038652774 -1.2298658 -0.093232475 199 25137410 30 41 33 1234
0.0078322068 -1.5064988 -0.12862453 347 25137410 79 42 118 1512
0.091878712 -2.2191205 -0.21076973 333 25137410 166 43 46 2231
-0.083536111 -1.2256278 -0.12682015 185 25137410 28 44 50 1235
-0.045271479 -1.4222772 -0.16031894 298 25137410 61 45 19 1432
0.0071096481 -1.5206715 -0.18582802 256 25137410 60 46 103 1532
0.09063115 -2.2020061 -0.29100597 277 25137410 137 47 89 2223
-0.093798868 -1.3594135 -0.19124059 314 25137410 59 48 16 1376
-0.045224674 -1.4015743 -0.21040146 278 25137410 56 49 1 1418
0.0087363617 -2.1042724 -0.33633706 298 25137410 135 50 36 2131
0.088551126 -2.1661911 -0.36793539 312 25137410 151 51 55 2199
-0.092460848 -1.3228738 -0.23635787 300 25137410 54 52 26 1347
-0.043814197 -1.336869 -0.25136173 309 25137410 57 53 27 1361
0.0079997834 -2.0846007 -0.4123114 342 25137410 155 54 58 2125
0.088569634 -2.1657176 -0.45124114 370 25137410 181 55 39 2214
-0.090936758 -1.2907037 -0.28069744 310 25137410 54 56 39 1324
-0.064878874 -1.9484369 -0.44202486 308 25137410 123 57 46 1999
0.0075451736 -2.0696814 -0.49039957 320 25137410 145 58 39 2127
0.08577165 -2.1017933 -0.52057415 367 25137410 172 59 42 2167
-0.090520032 -1.2637087 -0.3251316 303 25137410 52 60 1 1308
-0.068138048 -1.9960396 -0.53260905 365 25137410 156 61 27 2067
0.0071951868 -2.0833972 -0.57762396 375 25137410 175 62 33 2162
0.086639613 -2.1014557 -0.60671145 330 25137410 158 63 33 2189
-0.16151884 -2.2192538 0.69454026 170 25234440 92 0 50 2331
-0.077926002 -2.2532845 0.67672217 424 25234440 235 1 73 2354
0.0068295775 -2.2841578 0.66140795 360 25234440 203 2 36 2378
0.09171547 -2.2547486 0.63035488 404 25234440 222 3 38 2343
-0.16638836 -2.3022554 0.62355119 310 25234440 177 4 67 2391
-0.083099574 -2.3729069 0.61613005 437 25234440 263 5 41 2453
0.0061245472 -2.3501711 0.58544266 387 25234440 227 6 64 2422
0.089155756 -2.2478511 0.53776067 373 25234440 200 7 64 2313
-0.110759 -1.5366353 0.35502923 364 25234440 91 8 1 1581
-0.053516001 -1.5451102 0.34008795 374 25234440 94 9 1 1583
0.0033809489 -1.6373066 0.34372237 335 25234440 94 10 21 1673
0.090833113 -2.3417444 0.46912938 388 25234440 221 11 49 2390
-0.10870549 -1.5114566 0.29074287 355 25234440 85 12 7 1543
-0.057197671 -1.6332786 0.2967338 197 25234440 54 13 1 1661
0.0030107212 -1.6074681 0.2760407 309 25234440 82 14 51 1631
0.062082797 -1.6107018 0.26167682 344 25234440 92 15 19 1633
-0.11006183 -1.5299422 0.23636322 301 25234440 73 16 1 1552
-0.057526331 -1.6320763 0.23562278 111 25234440 30 17 31 1650
0.0021410303 -1.6074946 0.21642785 285 25234440 75 18 52 1622
0.062097501 -1.6370664 0.20483807 257 25234440 70 19 46 1651
-0.10685696 -1.4850299 0.17397998 264 25234440 59 20 27 1499
-0.055445541 -1.5660545 0.16785508 180 25234440 45 21 18 1576
0.0014365234 -1.6690841 0.16274349 118 25234440 33 22 34 1677
0.060631134 -1.6215711 0.14308128 187 25234440 50 23 68 1629
-0.085792005 -1.1890935 0.095460162 175 25234440 25 24 19 1196
-0.045120317 -1.2650533 0.089250065 189 25234440 30 25 25 1269
0.0010863353 -1.3155595 0.080163494 189 25234440 33 26 73 1318
0.057838131 -1.5718534 0.080974184 321 25234440 79 27 53 1575
-0.084685884 -1.1658245 0.050810274 209 25234440 29 28 29 1170
-0.042914908 -1.191543 0.040407345 186 25234440 26 29 9 1193
-0.00014760451 -1.2646154 0.03119364 223 25234440 36 30 13 1265
0.046374764 -1.2730135 0.019032877 219 25234440 36 31 36 1274
-0.08177989 -1.1250041 0.0078748614 169 25234440 21 32 39 1128
-0.043121867 -1.1852121 -0.0030014399 178 25234440 25 33 31 1186
-0.00028832201 -1.2069139 -0.014408886 199 25234440 29 34 50 1207
0.046476822 -1.2988697 -0.027882989 207 25234440 35 35 40 1300
-0.082368344 -1.1254926 -0.033512887 235 25234440 30 36 70 1129
-0.042919412 -1.156319 -0.045260917 213 25234440 29 37 28 1158
-0.00081598526 -1.2405308 -0.060389955 189 25234440 29 38 67 1242
0.072754912 -2.0322609 -0.11828723 270 25234440 112 39 63 2037
-0.082664497 -1.1174816 -0.07436692 223 25234440 28 40 44 1123
-0.044401344 -1.1817764 -0.089605927 213 25234440 30 41 37 1186
-0.0013668298 -1.4586926 -0.12454122 356 25234440 76 42 111 1464
0.076997884 -2.1838257 -0.20736869 333 25234440 160 43 55 2195
-0.0857464 -1.1536698 -0.11942659 187 25234440 25 44 63 1163
-0.053092569 -1.3981408 -0.15763204 306 25234440 61 45 10 1408
-0.0020993641 -1.4373068 -0.17563902 323 25234440 68 46 110 1448
0.076285608 -2.1787419 -0.28786421 306 25234440 148 47 86 2199
-0.10035683 -1.3351122 -0.187905 309 25234440 56 48 32 1352
-0.052457251 -1.365695 -0.20505981 281 25234440 54 49 17 1382
-0.0039402535 -1.9857907 -0.31739742 314 25234440 127 50 54 2011
0.076079331 -2.190341 -0.37195104 325 25234440 160 51 53 2223
-0.10057611 -1.3222816 -0.23635787 340 25234440 62 52 24 1347
-0.052016243 -1.336575 -0.25136173 320 25234440 59 53 33 1361
-0.0048182933 -2.0963826 -0.41463977 329 25234440 150 54 56 2137
0.073647305 -2.1192563 -0.44145817 341 25234440 160 55 33 2166
-0.10064658 -1.3135071 -0.28578559 307 25234440 56 56 40 1348
-0.067608461 -1.7141249 -0.38895535 265 25234440 82 57 38 1759
-0.0051542944 -2.0696886 -0.49039957 330 25234440 149 58 39 2127
0.072066583 -2.0789969 -0.51480871 354 25234440 162 59 47 2143
-0.099173881 -1.2747178 -0.32811445 306 25234440 53 60 1 1320
-0.080384232 -1.995584 -0.53260905 361 25234440 154 61 33 2067
-0.0054643601 -2.037147 -0.56479973 347 25234440 155 62 34 2114
0.072935171 -2.0789022 -0.60005951 345 25234440 162 63 32 2165
-0.18234557 -2.309576 0.72314417 238 25331550 140 0 46 2427
-0.096427605 -2.3676033 0.71121949 333 25331550 204 1 68 2474
-0.0072221421 -2.2956831 0.66474557 353 25331550 201 2 39 2390
0.076682262 -2.2206168 0.62066954 428 25331550 228 3 39 2307
-0.12706025 -1.6197846 0.4389112 293 25331550 83 4 37 1683
-0.095746942 -2.3259306 0.60407376 455 25331550 263 5 49 2405
-0.0083370488 -2.3618083 0.58834326 391 25331550 232 6 85 2434
0.077707402 -2.3183436 0.55450034 440 25331550 251 7 66 2385
-0.11836107 -1.5126109 0.34963977 358 25331550 87 8 1 1557
-0.063950695 -1.5681729 0.34524405 350 25331550 90 9 1 1607
-0.0066176294 -1.6255527 0.34125695 365 25331550 101 10 16 1661
0.074543163 -2.2834563 0.45735207 388 25331550 210 11 45 2330
-0.11706004 -1.4990118 0.28848174 328 25331550 77 12 8 1531
-0.065761335 -1.5975059 0.29030249 282 25331550 75 13 1 1625
-0.0067013218 -1.5719759 0.26994786 328 25331550 83 14 52 1595
0.052198548 -1.6110524 0.26167682 337 25331550 90 15 22 1633
-0.122218 -1.56471 0.24184588 260 25331550 66 16 1 1588
-0.065574698 -1.5842252 0.2287683 74 25331550 19 17 43 1602
-0.0076652789 -1.5955849 0.21482666 294 25331550 76 18 52 1610
0.05242981 -1.649318 0.2063269 199 25331550 55 19 34 1663
-0.11225351 -1.4368155 0.1684089 276 25331550 58 20 1 1451
-0.065053627 -1.5656848 0.16785508 264 25331550 66 21 2 1576
-0.0082377754 -1.5615728 0.1522627 221 25331550 54 22 55 1569
0.050306883 -1.6099648 0.14202727 174 25331550 46 23 63 1617
-0.096822448 -1.2362455 0.09929134 172 25331550 27 24 22 1244
-0.051381499 -1.228873 0.086718149 194 25331550 29 25 36 1233
-0.0069858069 -1.3155414 0.080163494 201 25331550 35 26 80 1318
0.048559513 -1.5841572 0.081591129 270 25331550 68 27 54 1587
-0.093721502 -1.1891861 0.051852535 193 25331550 28 28 17 1194
-0.051740874 -1.2272047 0.041626677 200 25331550 30 29 1 1229
-0.0079071363 -1.2645907 0.03119364 214 25331550 34 30 22 1265
0.0381996 -1.2612809 0.018853603 224 25331550 36 31 39 1262
-0.091511495 -1.1603688 0.0081261871 162 25331550 22 32 44 1164
-0.05039338 -1.1849252 -0.0030014399 201 25331550 28 33 33 1186
-0.0077702939 -1.2188885 -0.014552141 191 25331550 28 34 48 1219
0.036018137 -1.2151867 -0.026081318 242 25331550 36 35 29 1216
-0.089272693 -1.124966 -0.033512887 233 25331550 30 36 76 1129
-0.051568467 -1.1919726 -0.046667989 216 25331550 31 37 28 1194
-0.0084277233 -1.2405025 -0.060389955 220 25331550 34 38 69 1242
0.044657972 -1.5057917 -0.087626614 215 25331550 49 39 60 1509
-0.092389405 -1.1527596 -0.076750904 232 25331550 31 40 54 1159
-0.051129136 -1.1695274 -0.088699281 235 25331550 32 41 51 1174
-0.010232606 -1.4467005 -0.12352037 305 25331550 64 42 102 1452
0.063596725 -2.1842573 -0.20736869 296 25331550 142 43 51 2195
-0.09378133 -1.16502 -0.12065884 195 25331550 27 44 61 1175
-0.062196001 -1.4097016 -0.1589755 315 25331550 64 45 1 1420
-0.010556535 -1.3896227 -0.16981673 285 25331550 56 46 96 1400
0.062228996 -2.1553855 -0.28472248 298 25331550 141 47 77 2175
-0.10662016 -1.3107824 -0.1845694 287 25331550 51 48 32 1328
-0.061364252 -1.3772029 -0.20684037 269 25331550 52 49 1 1394
-0.013141962 -1.6184038 -0.2586844 225 25331550 61 50 80 1639
0.062300093 -2.1789408 -0.36994323 335 25331550 164 51 39 2211
-0.10675105 -1.2980914 -0.23214659 339 25331550 59 52 31 1323
-0.059154473 -1.3126674 -0.24692917 312 25331550 56 53 43 1337
-0.017482791 -2.0727706 -0.4099831 300 25331550 134 54 61 2113
0.060978379 -2.1314118 -0.44390392 363 25331550 172 55 47 2178
-0.10483344 -1.266116 -0.27560925 286 25331550 48 56 47 1300
-0.060536772 -1.3278811 -0.30139065 305 25331550 57 57 24 1363
-0.017551392 -2.0345893 -0.48209944 339 25331550 148 58 33 2091
0.059972953 -2.1026876 -0.52057415 379 25331550 178 59 50 2167
-0.10602087 -1.2625028 -0.3251316 292 25331550 50 60 1 1308
-0.092089638 -1.9834708 -0.52951694 340 25331550 143 61 34 2055
-0.017861985 -2.0255117 -0.56159365 343 25331550 151 62 34 2102
0.060511444 -2.0908356 -0.60338545 337 25331550 160 63 30 2177
-0.18971199 -2.2285182 0.69811577 120 25429640 66 0 49 2343
-0.11256765 -2.4014096 0.7215687 359 25429640 226 1 57 2510
-0.021201067 -2.2840695 0.66140795 337 25429640 190 2 37 2378
0.063383356 -2.2325983 0.62389797 405 25429640 218 3 30 2319
-0.12918223 -1.5266266 0.41387528 390 25429640 98 4 1 1587
-0.11221254 -2.3717086 0.61613005 468 25429640 281 5 46 2453
-0.022828676 -2.3617127 0.58834326 394 25429640 234 6 81 2434
0.06475845 -2.3654437 0.56566006 477 25429640 283 7 82 2433
-0.12764005 -1.5118562 0.34963977 334 25429640 81 8 2 1557
-0.072472848 -1.5443372 0.34008795 380 25429640 95 9 1 1583
-0.016711576 -1.6372248 0.34372237 360 25429640 101 10 24 1673
0.049931362 -1.8839483 0.37726638 261 25429640 96 11 38 1922
-0.1262556 -1.4982653 0.28848174 270 25429640 63 12 14 1531
-0.07388822 -1.561691 0.28387114 265 25429640 67 13 1 1589
-0.016715612 -1.607384 0.2760407 327 25429640 87 14 71 1631
0.042312331 -1.6113424 0.26167682 335 25429640 89 15 24 1633
-0.12683611 -1.5048401 0.23270813 327 25429640 76 16 1 1528
-0.075294085 -1.583793 0.2287683 105 25429640 27 17 33 1602
-0.017585563 -1.6073998 0.21642785 241 25429640 63 18 46 1622
0.042614095 -1.6615119 0.20781574 81 25429640 23 19 40 1675
-0.11806379 -1.4004694 0.1642306 170 25429640 34 20 28 1415
-0.073522322 -1.5414197 0.16529892 224 25429640 54 21 21 1552
-0.018228104 -1.5973206 0.15575629 292 25429640 75 22 66 1605
0.039827343 -1.5863434 0.13991927 275 25429640 70 23 87 1593
-0.10339895 -1.2237089 0.098333545 182 25429640 28 24 26 1232
-0.056627005 -1.1807085 0.083342262 185 25429640 26 25 28 1185
-0.014783493 -1.2915198 0.078703761 185 25429640 31 26 74 1294
0.036195323 -1.4766006 0.076038614 271 25429640 59 27 82 1479
-0.10203169 -1.2005343 0.05237367 229 25429640 33 28 13 1206
-0.057533745 -1.1909267 0.040407345 181 25429640 26 29 11 1193
-0.015220528 -1.2285321 0.030305916 219 25429640 33 30 21 1229
0.030459808 -1.2614915 0.018853603 231 25429640 37 31 36 1262
-0.099646464 -1.171742 0.0082099624 175 25429640 24 32 34 1176
-0.056496121 -1.1606221 -0.0029407023 207 25429640 28 33 33 1162
-0.014798764 -1.1828232 -0.014122381 191 25429640 27 34 40 1183
0.029688628 -1.2633605 -0.027110845 237 25429640 38 35 35 1264
-0.097195886 -1.136348 -0.033869091 241 25429640 31 36 80 1141
-0.056514218 -1.143729 -0.044791888 226 25429640 30 37 21 1146
-0.015109339 -1.1685185 -0.056889087 241 25429640 33 38 65 1170
0.035417769 -1.5060374 -0.087626614 272 25429640 62 39 37 1509
-0.09946087 -1.152171 -0.076750904 255 25429640 34 40 31 1159
-0.058304258 -1.1691916 -0.088699281 238 25429640 33 41 35 1174
-0.018793346 -1.4226996 -0.12147872 288 25429640 59 42 89 1428
0.047723539 -2.0771177 -0.19716558 322 25429640 140 43 60 2087
-0.097835734 -1.1287467 -0.11696206 188 25429640 24 44 56 1139
-0.067851156 -1.3497458 -0.15225822 325 25429640 60 45 8 1360
-0.019573603 -1.4252626 -0.17418344 300 25429640 62 46 87 1436
0.04873227 -2.1438329 -0.28315157 304 25429640 142 47 81 2163
-0.11673316 -1.3337802 -0.187905 305 25429640 56 48 21 1352
-0.069813453 -1.3768004 -0.20684037 307 25429640 60 49 1 1394
-0.019862518 -1.3931732 -0.222699 292 25429640 58 50 69 1411
0.048663631 -2.167454 -0.36793539 331 25429640 160 51 53 2199
-0.11471398 -1.297412 -0.23214659 317 25429640 55 52 31 1323
-0.069017366 -1.3476142 -0.25357798 332 25429640 63 53 23 1373
-0.030200742 -2.0726242 -0.4099831 321 25429640 144 54 66 2113
0.047899134 -2.1317458 -0.44390392 336 25429640 159 55 38 2178
-0.11260021 -1.2654489 -0.27560925 286 25429640 48 56 48 1300
-0.06747397 -1.3041101 -0.29608369 329 25429640 59 57 18 1339
-0.030724538 -2.081145 -0.4931663 326 25429640 149 58 52 2139
0.046809323 -2.0913703 -0.51769149 385 25429640 179 59 57 2155
-0.111678 -1.2386756 -0.31916589 258 25429640 43 60 1 1284
-0.10121422 -1.9249746 -0.51405662 339 25429640 135 61 16 1995
-0.030289954 -2.0253639 -0.56159365 358 25429640 158 62 30 2102
0.047418352 -2.0796409 -0.60005951 336 25429640 157 63 37 2165
-0.20546563 -2.2501271 0.70526671 82 25526760 46 0 45 2367
-0.12608308 -2.3777189 0.71466917 342 25526760 211 1 54 2486
-0.035393164 -2.2954218 0.66474557 344 25526760 196 2 24 2390
0.049426105 -2.2213905 0.62066954 414 25526760 220 3 43 2307
-0.13749939 -1.5142678 0.41074577 400 25526760 99 4 1 1575
-0.12304223 -2.301383 0.59804553 396 25526760 224 5 46 2381
-0.037319444 -2.3615282 0.58834326 386 25526760 229 6 69 2434
0.049747527 -2.3424597 0.56008017 463 25526760 268 7 56 2409
-0.14007987 -1.545982 0.35772392 219 25526760 56 8 1 1593
-0.082568564 -1.5555667 0.34266597 342 25526760 87 9 1 1595
-0.026373239 -1.6136065 0.33879149 338 25526760 92 10 15 1649
0.032860678 -1.6136445 0.32309076 365 25526760 99 11 9 1646
-0.14287783 -1.5796224 0.30430964 171 25526760 45 12 27 1615
-0.087251298 -1.6319491 0.2967338 145 25526760 40 13 1 1661
-0.026382474 -1.595426 0.27400976 250 25526760 65 14 45 1619
0.031947985 -1.5878866 0.25783098 291 25526760 75 15 24 1609
-0.13393006 -1.48041 0.22905302 327 25526760 74 16 1 1504
-0.082463495 -1.5358614 0.22191381 121 25526760 29 17 26 1554
-0.027041914 -1.5834796 0.21322545 300 25526760 76 18 46 1598
0.032186195 -1.6498371 0.2063269 52 25526760 14 19 55 1663
-0.11161724 -1.2335329 0.14473185 196 25526760 30 20 26 1247
-0.082978912 -1.5409396 0.16529892 97 25526760 23 21 27 1552
-0.027819175 -1.5852371 0.15459175 253 25526760 64 22 41 1593
0.030999728 -1.6343639 0.14413528 234 25526760 63 23 88 1641
-0.10982528 -1.2111385 0.097375743 166 25526760 25 24 30 1220
-0.065811008 -1.2161973 0.085874178 195 25526760 29 25 37 1221
-0.021654919 -1.2315251 0.075054437 207 25526760 32 26 77 1234
0.024272347 -1.3210275 0.068018317 187 25526760 33 27 69 1323
-0.10721907 -1.1760074 0.051331405 212 25526760 30 28 11 1182
-0.066796668 -1.2264774 0.041626677 209 25526760 32 29 7 1229
-0.022536159 -1.2164212 0.030010005 213 25526760 32 30 19 1217
0.023366949 -1.2976449 0.019391423 223 25526760 38 31 35 1298
-0.112285 -1.2308589 0.0086288378 185 25526760 28 32 32 1236
-0.066244371 -1.2081815 -0.003062177 225 25526760 33 33 23 1210
-0.022727346 -1.2187014 -0.014552141 204 25526760 30 34 46 1219
0.021727981 -1.2515235 -0.026853463 218 25526760 34 35 40 1252
-0.10526208 -1.1476748 -0.034225293 232 25526760 31 36 68 1153
-0.064861439 -1.1673055 -0.045729939 229 25526760 31 37 24 1170
-0.023192957 -1.2163383 -0.059222996 206 25526760 31 38 66 1218
0.027008872 -1.5541381 -0.090413943 282 25526760 68 39 30 1557
-0.10983749 -1.1873072 -0.079134881 249 25526760 35 40 44 1195
-0.064807914 -1.156865 -0.08779265 244 25526760 33 41 48 1162
-0.027059948 -1.3986489 -0.11943706 289 25526760 57 42 98 1404
0.027134102 -1.6115305 -0.15295212 263 25526760 69 43 58 1619
-0.10475975 -1.1281252 -0.11696206 189 25526760 24 44 46 1139
-0.078818776 -1.3969266 -0.15763204 304 25526760 60 45 12 1408
-0.028318482 -1.4251156 -0.17418344 268 25526760 55 46 89 1436
0.034984909 -2.1084063 -0.27843893 298 25526760 135 47 89 2127
-0.12491488 -1.3330387 -0.187905 370 25526760 68 48 13 1352
-0.077586345 -1.3644981 -0.20505981 283 25526760 54 49 1 1382
-0.028893735 -1.4167194 -0.22648695 300 25526760 62 50 63 1435
0.034591548 -2.1203947 -0.35990405 341 25526760 158 51 44 2151
-0.12155992 -1.2849225 -0.23004095 331 25526760 57 52 15 1311
-0.07660941 -1.3353912 -0.25136173 291 25526760 54 53 24 1361
-0.04145515 -2.0017834 -0.39601299 316 25526760 132 54 86 2041
0.034434412 -2.1085062 -0.43901241 353 25526760 164 55 39 2154
-0.12147377 -1.2764086 -0.27815333 322 25526760 55 56 50 1312
-0.074798167 -1.291988 -0.29343021 333 25526760 59 57 5 1327
-0.042761616 -2.0458949 -0.48486617 331 25526760 146 58 45 2103
0.033976037 -2.0916183 -0.51769149 391 25526760 181 59 33 2155
-0.12484993 -1.2958161 -0.33408019 254 25526760 46 60 1 1344
-0.098747052 -1.6812456 -0.44912314 271 25526760 82 61 28 1743
-0.042472921 -2.0135789 -0.55838764 361 25526760 158 62 37 2090
0.034464929 -2.0683644 -0.59673357 341 25526760 158 63 28 2153
-0.21259853 -2.1804187 0.68381375 92 25623270 48 0 46 2295
-0.1399911 -2.3654273 0.71121949 356 25623270 218 1 60 2474
-0.049725361 -2.3066852 0.66808325 357 25623270 206 2 51 2402
0.036539733 -2.2678761 0.63358331 410 25623270 227 3 44 2355
-0.14902495 -1.5364569 0.41700476 410 25623270 105 4 1 1599
-0.12679179 -2.1266642 0.55283421 280 25623270 135 5 51 2201
-0.052319661 -2.3845377 0.59414452 397 25623270 240 6 74 2458
0.03572594 -2.3660605 0.56566006 425 25623270 252 7 74 2433
-0.15406981 -1.5916499 0.3685028 128 25623270 34 8 20 1641
-0.091418788 -1.5433315 0.34008795 347 25623270 87 9 1 1583
-0.036273647 -1.6134143 0.33879149 368 25623270 100 10 24 1649
0.022791544 -1.6020504 0.32073531 335 25623270 89 11 5 1634
-0.15030026 -1.5552552 0.29978737 248 25623270 63 12 13 1591
-0.097263105 -1.6313829 0.2967338 191 25623270 53 13 1 1661
-0.036707532 -1.6188817 0.27807167 129 25623270 35 14 57 1643
0.023694701 -1.6946467 0.27513722 143 25623270 42 15 28 1717
-0.14072907 -1.4559503 0.22539791 301 25623270 66 16 1 1480
-0.094723992 -1.5827497 0.2287683 134 25623270 34 17 37 1602
-0.036481429 -1.5713944 0.21162426 300 25623270 75 18 45 1586
0.022380777 -1.673816 0.20930456 69 25623270 20 19 38 1687
-0.11918395 -1.2328248 0.14473185 192 25623270 30 20 24 1247
-0.083141491 -1.3855673 0.14868382 115 25623270 22 21 48 1396
-0.037828311 -1.5969765 0.15575629 144 25623270 37 22 40 1605
0.020357469 -1.5867127 0.13991927 106 25623270 27 23 69 1593
-0.1207146 -1.2461598 0.10024913 174 25623270 27 24 21 1256
-0.075432576 -1.2516164 0.088406093 218 25623270 34 25 16 1257
-0.030631315 -1.291241 0.078703761 196 25623270 33 26 71 1294
0.016166218 -1.3211515 0.068018317 194 25623270 34 27 57 1323
-0.11675642 -1.1991919 0.05237367 238 25623270 35 28 28 1206
-0.072869584 -1.2021021 0.040813789 210 25623270 30 29 15 1205
-0.029112142 -1.180282 0.029122286 209 25623270 29 30 24 1181
0.014977071 -1.2617704 0.018853603 260 25623270 41 31 17 1262
-0.11634494 -1.1943173 0.0083775129 200 25623270 29 32 43 1200
-0.071464956 -1.1718191 -0.0029710708 213 25623270 29 33 41 1174
-0.031096747 -1.2545253 -0.014981901 188 25623270 30 34 48 1255
0.014183016 -1.2636297 -0.027110845 231 25623270 37 35 40 1264
-0.1123021 -1.1470073 -0.034225293 237 25623270 32 36 77 1153
-0.072022669 -1.1668855 -0.045729939 257 25623270 35 37 20 1170
-0.030655833 -1.2161731 -0.059222996 211 25623270 31 38 69 1218
0.016933706 -1.5063585 -0.087626614 287 25623270 65 39 49 1509
-0.11359229 -1.1508636 -0.076750904 212 25623270 28 40 54 1159
-0.070419952 -1.1325603 -0.085979372 251 25623270 32 41 42 1138
-0.034422878 -1.350646 -0.11535374 291 25623270 53 42 110 1356
0.015967198 -1.4922103 -0.14161533 329 25623270 74 43 38 1499
-0.11756287 -1.1868533 -0.12312336 178 25623270 26 44 42 1199
-0.084409505 -1.3488115 -0.15225822 288 25623270 53 45 1 1360
-0.036752578 -1.4130076 -0.17272787 300 25623270 61 46 97 1424
0.021798544 -2.0847893 -0.27529716 309 25623270 137 47 92 2103
-0.12954803 -1.2967732 -0.18290162 388 25623270 67 48 26 1316
-0.085957289 -1.3639964 -0.20505981 324 25623270 62 49 1 1382
-0.036328785 -1.3691338 -0.21891108 320 25623270 62 50 68 1387
0.0215804 -2.1205671 -0.35990405 305 25623270 141 51 48 2151
-0.12944177 -1.2841524 -0.23004095 324 25623270 56 52 23 1311
-0.082558669 -1.2995864 -0.24471292 330 25623270 58 53 25 1325
-0.04741817 -1.7661371 -0.34944606 245 25623270 80 54 86 1801
0.021615971 -2.1204255 -0.44145817 338 25623270 158 55 50 2166
-0.12930338 -1.2756392 -0.27815333 308 25623270 53 56 46 1312
-0.084220394 -1.3148628 -0.29873717 317 25623270 58 57 13 1351
-0.055314187 -2.045594 -0.48486617 344 25623270 152 58 45 2103
0.020906016 -2.0684912 -0.511926 364 25623270 165 59 55 2131
-0.13161285 -1.2834628 -0.3310973 211 25623270 37 60 9 1332
-0.083532184 -1.2872126 -0.34399277 423 25623270 75 61 1 1335
-0.054512411 -2.0017209 -0.55518156 325 25623270 140 62 41 2078
0.02165168 -2.0570076 -0.59340757 331 25623270 152 63 38 2141
-0.22597332 -2.1790733 0.68381375 62 25721570 32 0 43 2295
-0.1477578 -2.2613029 0.68017191 291 25721570 163 1 64 2366
-0.063877977 -2.3063369 0.66808325 352 25721570 203 2 33 2402
0.022508342 -2.2565007 0.63035488 428 25721570 235 3 24 2343
-0.15726055 -1.52399 0.41387528 383 25721570 96 4 1 1587
-0.10400517 -1.5811039 0.411172 368 25721570 99 5 1 1637
-0.066949926 -2.3841717 0.59414452 428 25721570 258 6 49 2458
0.021207396 -2.366235 0.56566006 421 25721570 249 7 59 2433
-0.16503115 -1.6023066 0.37119755 142 25721570 39 8 17 1653
-0.10318109 -1.5778259 0.3478221 361 25721570 95 9 1 1619
-0.045500681 -1.5896831 0.33386064 376 25721570 99 10 30 1625
0.013056304 -1.6139263 0.32309076 331 25721570 90 11 3 1646
-0.15019564 -1.4605179 0.28169838 313 25721570 70 12 6 1495
-0.10262132 -1.5600665 0.28387114 296 25721570 75 13 3 1589
-0.047321402 -1.64227 0.28213358 144 25721570 40 14 55 1667
0.013389024 -1.7066047 0.27706012 108 25721570 32 15 18 1729
-0.15087342 -1.4668572 0.22722548 288 25721570 64 16 1 1492
-0.1067806 -1.6176925 0.23390917 89 25721570 24 17 37 1638
-0.046471607 -1.5830286 0.21322545 288 25721570 73 18 45 1598
0.011593168 -1.6024801 0.20037159 99 25721570 26 19 39 1615
-0.12674618 -1.2320703 0.14473185 203 25721570 32 20 17 1247
-0.087702863 -1.3255025 0.14229341 149 25721570 27 21 25 1336
-0.047626462 -1.5967144 0.15575629 230 25721570 59 22 52 1605
0.010381171 -1.5509477 0.13675724 55 25721570 13 23 76 1557
-0.12590592 -1.2215984 0.098333545 196 25721570 30 24 19 1232
-0.079937242 -1.2033541 0.085030206 222 25721570 32 25 29 1209
-0.036050934 -1.2072217 0.073594704 209 25721570 31 26 82 1210
0.0078401743 -1.2852741 0.066167474 178 25721570 30 27 62 1287
-0.11793757 -1.1388283 0.049768012 202 25721570 27 28 26 1146
-0.080244169 -1.2016323 0.040813789 179 25721570 26 29 21 1205
-0.034876123 -1.1321185 0.027938651 201 25721570 26 30 15 1133
0.0073035052 -1.273837 0.019032877 228 25721570 37 31 27 1274
-0.12243424 -1.1816452 0.0082937377 165 25721570 23 32 49 1188
-0.077849805 -1.1593856 -0.0029407023 252 25721570 34 33 29 1162
-0.035455354 -1.1463702 -0.013692621 186 25721570 24 34 51 1147
0.0062461514 -1.2277017 -0.0263387 229 25721570 34 35 44 1228
-0.11933789 -1.1462967 -0.034225293 243 25721570 32 36 53 1153
-0.075932726 -1.1185684 -0.043853842 266 25721570 33 37 24 1122
-0.037366465 -1.1920022 -0.058056038 225 25721570 32 38 68 1194
0.007629388 -1.4944545 -0.086929783 309 25721570 69 39 46 1497
-0.11815333 -1.1263285 -0.075161584 267 25721570 34 40 45 1135
-0.077367879 -1.1321068 -0.085979372 241 25721570 31 41 45 1138
-0.038930025 -1.2309041 -0.10514545 240 25721570 37 42 81 1236
0.0067563443 -1.4803339 -0.14048165 371 25721570 82 43 54 1487
-0.11984516 -1.1386256 -0.11819432 166 25721570 22 44 57 1151
-0.09186627 -1.3363718 -0.15091476 189 25721570 34 45 22 1348
-0.044656403 -1.3889451 -0.16981673 323 25721570 63 46 80 1400
0.0078241359 -1.8112613 -0.23916687 230 25721570 77 47 101 1827
-0.13875626 -1.307771 -0.1845694 379 25721570 67 48 23 1328
-0.095144019 -1.375282 -0.20684037 299 25721570 58 49 1 1394
-0.045889903 -1.404415 -0.22459298 309 25721570 63 50 79 1423
0.0084728356 -2.0969982 -0.3558884 314 25721570 142 51 52 2127
-0.13731875 -1.2833339 -0.23004095 307 25721570 53 52 25 1311
-0.092990942 -1.3343505 -0.25136173 366 25721570 68 53 28 1361
-0.044669017 -1.3540187 -0.2679539 287 25721570 55 54 100 1381
0.0085572051 -2.1087701 -0.43901241 339 25721570 157 55 32 2154
-0.14089079 -1.3098017 -0.28578559 325 25721570 59 56 51 1348
-0.091466941 -1.3026471 -0.29608369 301 25721570 54 57 23 1339
-0.065928444 -1.9868646 -0.47103256 329 25721570 137 58 50 2043
0.0082598515 -2.080229 -0.51480871 392 25721570 180 59 44 2143
-0.14074218 -1.2941864 -0.33408019 329 25721570 59 60 1 1344
-0.092250638 -1.2982416 -0.34708485 426 25721570 77 61 1 1347
-0.066407993 -1.9897912 -0.55197549 357 25721570 152 62 47 2066
0.0090297116 -2.0571017 -0.59340757 338 25721570 155 63 41 2141
-0.22432221 -2.0410089 0.64090776 139 25818070 64 0 39 2151
-0.14851388 -2.0769267 0.62497616 186 25818070 88 1 49 2174
-0.077638373 -2.2943814 0.66474557 340 25818070 194 2 39 2390
0.0085735582 -2.2334814 0.62389797 406 25818070 218 3 31 2319
-0.16534881 -1.5114803 0.41074577 402 25818070 100 4 1 1575
-0.11203767 -1.5572653 0.40514383 390 25818070 101 5 1 1613
-0.080382876 -2.348804 0.58544266 469 25818070 275 6 86 2422
0.0067210374 -2.3779919 0.56845003 422 25818070 252 7 85 2445
-0.176129 -1.6128882 0.37389225 170 25818070 47 8 11 1665
-0.11118747 -1.5537833 0.34266597 353 25818070 90 9 1 1595
-0.054845903 -1.577637 0.33139518 368 25818070 96 10 11 1613
0.0031531933 -1.613976 0.32309076 352 25818070 95 11 1 1646
-0.16170935 -1.483 0.28622061 287 25818070 66 12 9 1519
-0.11134451 -1.5476308 0.28172737 321 25818070 80 13 1 1577
-0.055331402 -1.5828503 0.27197883 271 25818070 70 14 57 1607
0.0027755138 -1.6237404 0.26359972 188 25818070 51 15 35 1645
-0.17015766 -1.5602247 0.24184588 196 25818070 49 16 1 1588
-0.11499461 -1.5933143 0.23048192 101 25818070 26 17 19 1614
-0.056605924 -1.5945989 0.21482666 231 25818070 60 18 37 1610
0.0018911141 -1.7215937 0.21525988 76 25818070 23 19 38 1735
-0.13301121 -1.2194208 0.14333907 207 25818070 32 20 32 1235
-0.093251973 -1.2892375 0.13845915 187 25818070 32 21 33 1300
-0.056134839 -1.5605853 0.1522627 289 25818070 71 22 64 1569
0.00085787702 -1.5390286 0.13570325 65 25818070 16 23 80 1545
-0.12560308 -1.1494572 0.092586778 184 25818070 25 24 37 1160
-0.089919448 -1.2386575 0.087562114 201 25818070 31 25 36 1245
-0.0443196 -1.2309179 0.075054437 199 25818070 30 26 83 1234
-4.7130205e-05 -1.3092663 0.067401372 205 25818070 35 27 66 1311
-0.12623118 -1.1500005 0.050289147 225 25818070 30 28 24 1158
-0.084998176 -1.1652333 0.039594453 210 25818070 29 29 10 1169
-0.044922676 -1.2158003 0.030010005 195 25818070 29 30 14 1217
-0.00050308951 -1.2498604 0.018674329 220 25818070 34 31 38 1250
-0.1257526 -1.1450877 0.0080424128 165 25818070 22 32 49 1152
-0.084084794 -1.1469183 -0.0029103337 273 25818070 36 33 48 1150
-0.04382224 -1.1821038 -0.014122381 210 25818070 29 34 42 1183
-0.0012995783 -1.239714 -0.026596081 233 25818070 36 35 40 1240
-0.1276844 -1.1574653 -0.034581501 218 25818070 30 36 73 1165
-0.083680205 -1.1300395 -0.044322867 239 25818070 31 37 28 1134
-0.04467975 -1.1917505 -0.058056038 229 25818070 33 38 84 1194
-0.0015035085 -1.458534 -0.084839292 316 25818070 67 39 46 1461
-0.1210954 -1.0898809 -0.072777607 249 25818070 30 40 62 1099
-0.085201971 -1.1435435 -0.086886019 243 25818070 32 41 47 1150
-0.046481978 -1.2306421 -0.10514545 196 25818070 30 42 87 1236
-0.0022706063 -1.4445086 -0.13708062 335 25818070 70 43 56 1451
-0.13079624 -1.1734581 -0.1218911 157 25818070 22 44 44 1187
-0.097392023 -1.3001091 -0.1468844 182 25818070 31 45 32 1312
-0.053633779 -1.4005475 -0.17127229 292 25818070 58 46 96 1412
-0.0025550558 -1.4067868 -0.18575685 291 25818070 59 47 96 1419
-0.14545168 -1.2950858 -0.18290162 295 25818070 51 48 28 1316
-0.1035808 -1.3746724 -0.20684037 299 25818070 58 49 13 1394
-0.052208133 -1.3449035 -0.21512315 341 25818070 63 50 86 1363
-0.0043942626 -2.0970106 -0.3558884 298 25818070 135 51 53 2127
-0.14784849 -1.3059448 -0.23425221 340 25818070 61 52 9 1335
-0.098500378 -1.2984754 -0.24471292 356 25818070 62 53 15 1325
-0.053436607 -1.365482 -0.27028227 351 25818070 68 54 109 1393
-0.0042844745 -2.0617907 -0.42922941 339 25818070 150 55 47 2106
-0.14229622 -1.2506524 -0.27306518 309 25818070 51 56 61 1288
-0.099458106 -1.3020613 -0.29608369 331 25818070 59 57 16 1339
-0.073071085 -1.8580782 -0.44059879 274 25818070 100 58 65 1911
-0.0044286824 -2.045295 -0.5061605 369 25818070 164 59 47 2107
-0.14868051 -1.2932984 -0.33408019 484 25818070 87 60 1 1344
-0.10200032 -1.3207718 -0.35326898 366 25818070 69 61 1 1371
-0.079072498 -2.0009012 -0.55518156 339 25818070 146 62 40 2078
-0.0035321885 -2.0225286 -0.58342963 321 25818070 142 63 21 2105
-0.23419882 -2.0168374 0.63375682 349 25914620 158 0 15 2127
-0.17193598 -2.2134836 0.66637295 192 25914620 103 1 61 2318
-0.092175469 -2.3053792 0.66808325 402 25914620 232 2 35 2402
-0.0051575382 -2.2450495 0.6271264 394 25914620 214 3 41 2331
-0.17461997 -1.5104374 0.41074577 428 25914620 106 4 1 1575
-0.12159076 -1.5565485 0.40514383 394 25914620 102 5 1 1613
-0.092914701 -2.3017278 0.57384014 333 25914620 188 6 86 2374
-0.0078701731 -2.3779883 0.56845003 448 25914620 268 7 73 2445
-0.17797798 -1.5420786 0.35772392 235 25914620 60 8 16 1593
-0.11981098 -1.5413873 0.34008795 356 25914620 89 9 1 1583
-0.065005109 -1.589005 0.33386064 369 25914620 97 10 29 1625
-0.0067500365 -1.6139649 0.32309076 365 25914620 99 11 9 1646
-0.17755261 -1.5405176 0.29752627 128 25914620 32 12 35 1579
-0.11899949 -1.5233763 0.27743983 272 25914620 66 13 1 1553
-0.064556852 -1.570664 0.26994786 270 25914620 69 14 56 1595
-0.0070827571 -1.6000372 0.25975388 311 25914620 82 15 19 1621
-0.1675045 -1.4531132 0.22539791 309 25914620 68 16 1 1480
-0.12755178 -1.628101 0.23562278 161 25914620 44 17 11 1650
-0.067873605 -1.6298686 0.21963023 186 25914620 50 18 33 1646
-0.0077726897 -1.5429659 0.19292744 61 25914620 15 19 40 1555
-0.13639565 -1.1830603 0.13916077 214 25914620 31 20 47 1199
-0.095558077 -1.2172701 0.13079064 223 25914620 34 21 31 1228
-0.065206788 -1.5482786 0.15109816 290 25914620 70 22 40 1557
-0.0088521736 -1.5868187 0.13991927 116 25914620 30 23 75 1593
-0.13951504 -1.2080785 0.097375743 196 25914620 29 24 17 1220
-0.090938486 -1.1545491 0.08165431 215 25914620 29 25 41 1161
-0.050358266 -1.1947212 0.072864845 189 25914620 27 26 69 1198
-0.0077108131 -1.2493218 0.064316638 224 25914620 35 27 64 1251
-0.13880983 -1.1968396 0.05237367 211 25914620 31 28 20 1206
-0.092146307 -1.1646898 0.039594453 218 25914620 30 29 8 1169
-0.051865343 -1.2035166 0.0297141 208 25914620 30 30 22 1205
-0.0082505317 -1.2618322 0.018853603 210 25914620 33 31 34 1262
-0.13969178 -1.2038931 0.0084612872 196 25914620 29 32 28 1212
-0.092071392 -1.158343 -0.0029407023 248 25914620 33 33 30 1162
-0.050038494 -1.1578367 -0.013835874 229 25914620 31 34 50 1159
-0.008733917 -1.2156889 -0.026081318 209 25914620 31 35 38 1216
-0.13478407 -1.1566601 -0.034581501 235 25914620 32 36 64 1165
-0.089653566 -1.1175524 -0.043853842 286 25914620 36 37 25 1122
-0.051468831 -1.1794795 -0.057472561 250 25914620 35 38 82 1182
-0.010109455 -1.4105796 -0.082051963 243 25914620 48 39 44 1413
-0.13196622 -1.1247938 -0.075161584 244 25914620 31 40 43 1135
-0.091254748 -1.1310722 -0.085979372 249 25914620 32 41 38 1138
-0.050360091 -1.1467189 -0.09799964 254 25914620 34 42 102 1152
-0.011133902 -1.4444674 -0.13708062 319 25914620 67 43 58 1451
-0.14217915 -1.2081978 -0.12558788 132 25914620 20 44 46 1223
-0.10440379 -1.2876016 -0.14554094 183 25914620 31 45 23 1300
-0.061168693 -1.3763927 -0.16836116 300 25914620 58 46 89 1388
-0.011092286 -1.3948482 -0.18418598 294 25914620 58 47 81 1407
-0.15339543 -1.2941688 -0.18290162 246 25914620 43 48 38 1316
-0.11201368 -1.3740109 -0.20684037 338 25914620 66 49 1 1394
-0.060991619 -1.3563956 -0.21701711 338 25914620 64 50 72 1375
-0.015313528 -1.8603356 -0.31573173 260 25914620 93 51 61 1887
-0.1516559 -1.2698216 -0.2279353 320 25914620 54 52 24 1299
-0.10453738 -1.2743385 -0.24028039 346 25914620 59 53 29 1301
-0.06074905 -1.3416086 -0.26562557 334 25914620 63 54 83 1369
-0.017128298 -2.0852208 -0.43412092 346 25914620 157 55 46 2130
-0.15136461 -1.2613994 -0.27560925 339 25914620 57 56 27 1300
-0.10744554 -1.3014266 -0.29608369 383 25914620 69 57 12 1339
-0.063253544 -1.3910091 -0.32993034 282 25914620 58 58 101 1431
-0.017268382 -2.080174 -0.51480871 364 25914620 167 59 52 2143
-0.15241824 -1.2577449 -0.3251316 494 25914620 85 60 1 1308
-0.1110662 -1.3316756 -0.35636103 341 25914620 65 61 1 1383
-0.090820789 -1.9888264 -0.55197549 335 25914620 143 62 42 2066
-0.016123889 -2.0455282 -0.59008163 339 25914620 154 63 23 2129
-0.24656948 -2.0153623 0.63375682 417 26011790 189 0 29 2127
-0.18743518 -2.2352934 0.67327237 257 26011790 141 1 52 2342
-0.10844389 -2.3508272 0.68143374 295 26011790 177 2 34 2450
-0.019127738 -2.2680898 0.63358331 391 26011790 217 3 36 2355
-0.18388455 -1.5093374 0.41074577 408 26011790 101 4 1 1575
-0.13016365 -1.5441989 0.40212974 392 26011790 100 5 1 1601
-0.084853381 -1.8242196 0.45491457 244 26011790 87 6 79 1882
-0.022350848 -2.3662245 0.56566006 454 26011790 269 7 76 2433
-0.18178885 -1.4945258 0.34694505 374 26011790 89 8 1 1545
-0.12730667 -1.5172656 0.33493182 322 26011790 78 9 1 1559
-0.073649779 -1.5651141 0.32892975 338 26011790 87 10 6 1601
-0.016288793 -1.5785955 0.31602439 361 26011790 94 11 1 1610
-0.19268636 -1.5861953 0.30657074 134 26011790 35 12 29 1627
-0.13627823 -1.6167394 0.29459 202 26011790 55 13 1 1649
-0.076984011 -1.629307 0.28010264 140 26011790 38 14 43 1655
-0.016775157 -1.5881194 0.25783098 309 26011790 80 15 27 1609
-0.17498708 -1.4402847 0.22357036 326 26011790 70 16 1 1468
-0.12853666 -1.5207742 0.2202002 256 26011790 61 17 20 1542
-0.072763488 -1.5225093 0.20521949 291 26011790 69 18 44 1538
-0.018171297 -1.6262349 0.20334925 100 26011790 27 19 32 1639
-0.14796536 -1.2176967 0.14333907 217 26011790 33 20 35 1235
-0.1060456 -1.2523285 0.1346249 196 26011790 31 21 34 1264
-0.068947963 -1.4285545 0.13945283 255 26011790 53 22 65 1437
-0.019708756 -1.682357 0.14835131 65 26011790 19 23 68 1689
-0.14403471 -1.1834515 0.095460162 180 26011790 26 24 26 1196
-0.098020956 -1.1539694 0.08165431 207 26011790 28 25 31 1161
-0.058265831 -1.2063535 0.073594704 211 26011790 31 26 67 1210
-0.015376362 -1.249251 0.064316638 186 26011790 29 27 56 1251
-0.14469664 -1.1840651 0.051852535 256 26011790 36 28 31 1194
-0.099290974 -1.1641026 0.039594453 219 26011790 30 29 1 1169
-0.059249002 -1.2031757 0.0297141 212 26011790 31 30 14 1205
-0.015384548 -1.2137672 0.018136509 223 26011790 33 31 36 1214
-0.13833892 -1.1315473 0.0079586376 176 26011790 23 32 42 1140
-0.097128704 -1.1338438 -0.0028799647 255 26011790 33 33 35 1138
-0.057733536 -1.1694924 -0.013979127 228 26011790 31 34 54 1171
-0.015873479 -1.1916201 -0.025566556 209 26011790 30 35 41 1192
-0.13895585 -1.1320006 -0.033869091 193 26011790 25 36 70 1141
-0.096509054 -1.1169813 -0.043853842 299 26011790 38 37 16 1122
-0.059896994 -1.2030835 -0.058639519 222 26011790 32 38 46 1206
-0.016692763 -1.2547679 -0.072993144 203 26011790 32 39 44 1257
-0.13886534 -1.1239628 -0.075161584 252 26011790 32 40 42 1135
-0.097157732 -1.1185701 -0.085072741 269 26011790 34 41 45 1126
-0.057993144 -1.1583297 -0.099020466 244 26011790 33 42 88 1164
-0.019500649 -1.4085364 -0.13367958 319 26011790 64 43 28 1415
-0.14665429 -1.1836107 -0.12312336 156 26011790 22 44 67 1199
-0.11126576 -1.2750573 -0.14419749 201 26011790 33 45 16 1288
-0.070214771 -1.3878877 -0.16981673 319 26011790 63 46 102 1400
-0.0198183 -1.4066495 -0.18575685 293 26011790 59 47 78 1419
-0.16280454 -1.3049954 -0.1845694 230 26011790 41 48 33 1328
-0.11629512 -1.3260107 -0.19971818 300 26011790 54 49 10 1346
-0.069918074 -1.3678299 -0.21891108 309 26011790 60 50 67 1387
-0.020439094 -1.4225109 -0.24144192 265 26011790 55 51 74 1443
-0.15649867 -1.245424 -0.22372404 320 26011790 52 52 34 1275
-0.1164999 -1.3206649 -0.24914546 383 26011790 70 53 22 1349
-0.068979859 -1.3412107 -0.26562557 319 26011790 60 54 106 1369
-0.029416915 -2.0498357 -0.42678365 345 26011790 151 55 47 2094
-0.16203883 -1.2837168 -0.28069744 317 26011790 56 56 31 1324
-0.11542892 -1.3007429 -0.29608369 342 26011790 61 57 9 1339
-0.067573488 -1.3089666 -0.31056336 310 26011790 56 58 78 1347
-0.029527264 -2.0450866 -0.5061605 338 26011790 150 59 57 2107
-0.16013275 -1.256786 -0.3251316 468 26011790 80 60 1 1308
-0.11820054 -1.3194206 -0.35326898 389 26011790 73 61 5 1371
-0.10302229 -1.9882318 -0.55197549 359 26011790 153 62 44 2066
-0.028674711 -2.0453908 -0.59008163 313 26011790 142 63 33 2129
-0.25747004 -2.00245 0.63018125 386 26109120 172 0 49 2115
-0.19805522 -2.1997597 0.66292322 138 26109120 74 1 59 2306
-0.12587522 -2.4076715 0.69812196 321 26109120 202 2 30 2510
-0.032875739 -2.2563736 0.63035488 403 26109120 221 3 37 2343
-0.19167066 -1.4966899 0.40761629 415 26109120 101 4 1 1563
-0.13858962 -1.5318031 0.39911565 381 26109120 96 5 1 1589
-0.083184548 -1.5794758 0.39400145 335 26109120 89 6 47 1630
-0.03668746 -2.354373 0.56287009 497 26109120 291 7 79 2421
-0.18947251 -1.4817832 0.34425035 390 26109120 92 8 7 1533
-0.13871716 -1.539801 0.34008795 288 26109120 72 9 1 1583
-0.082627758 -1.5529053 0.32646433 287 26109120 72 10 28 1589
-0.026361762 -1.6019957 0.32073531 353 26109120 94 11 2 1634
-0.19793668 -1.5499128 0.29978737 192 26109120 49 12 48 1591
-0.14300413 -1.580596 0.28815868 298 26109120 78 13 1 1613
-0.085087791 -1.5933738 0.27400976 124 26109120 33 14 63 1619
-0.026519358 -1.5879865 0.25783098 235 26109120 61 15 26 1609
-0.18231858 -1.4274194 0.22174282 263 26109120 56 16 1 1456
-0.13786553 -1.5199569 0.2202002 258 26109120 61 17 16 1542
-0.082744665 -1.5339097 0.20682068 293 26109120 70 18 51 1550
-0.027943248 -1.6141874 0.20186041 208 26109120 55 19 41 1627
-0.15241365 -1.1931202 0.14055353 220 26109120 32 20 25 1211
-0.11264805 -1.2397715 0.13334681 232 26109120 36 21 33 1252
-0.067328863 -1.2372931 0.1208203 190 26109120 30 22 66 1245
-0.027044022 -1.5148802 0.13359523 61 26109120 14 23 61 1521
-0.14977552 -1.1706804 0.09450236 228 26109120 32 24 35 1184
-0.10727234 -1.1771882 0.083342262 245 26109120 34 25 33 1185
-0.06501554 -1.1940134 0.072864845 198 26109120 28 26 63 1198
-0.022599295 -1.2251691 0.063082747 190 26109120 29 27 45 1227
-0.15043198 -1.1712641 0.051331405 246 26109120 34 28 29 1182
-0.10315428 -1.1276416 0.038375121 219 26109120 28 29 5 1133
-0.065303363 -1.1788336 0.029122286 224 26109120 31 30 29 1181
-0.022380423 -1.1896567 0.017777961 228 26109120 32 31 55 1190
-0.14680861 -1.142579 0.0080424128 174 26109120 23 32 27 1152
-0.10298646 -1.1212769 -0.0028495961 233 26109120 30 33 33 1126
-0.062912852 -1.1331742 -0.013549369 246 26109120 32 34 40 1135
-0.023651633 -1.2154902 -0.026081318 191 26109120 28 35 24 1216
-0.14283019 -1.1073344 -0.033156686 220 26109120 27 36 75 1117
-0.1033609 -1.1163681 -0.043853842 305 26109120 38 37 34 1122
-0.065269552 -1.166792 -0.056889087 258 26109120 35 38 89 1170
-0.023227284 -1.1947544 -0.069508985 203 26109120 29 39 31 1197
-0.15192349 -1.1705859 -0.078340225 272 26109120 38 40 47 1183
-0.10512787 -1.1298671 -0.085979372 303 26109120 39 41 39 1138
-0.065770559 -1.1698897 -0.10004129 254 26109120 35 42 111 1176
-0.028381564 -1.4203341 -0.13481326 316 26109120 64 43 40 1427
-0.15545447 -1.1945254 -0.12435563 151 26109120 22 44 48 1211
-0.11686825 -1.250605 -0.14151058 205 26109120 33 45 25 1264
-0.078729369 -1.3874308 -0.16981673 323 26109120 63 46 82 1400
-0.028208384 -1.3946071 -0.18418598 280 26109120 55 47 84 1407
-0.16463497 -1.2568403 -0.17789823 196 26109120 32 48 31 1280
-0.1255385 -1.3370873 -0.20149872 333 26109120 61 49 1 1358
-0.076277047 -1.3318845 -0.21322918 310 26109120 56 50 53 1351
-0.029167071 -1.4223588 -0.24144192 277 26109120 58 51 60 1443
-0.16568233 -1.2561526 -0.22582968 351 26109120 58 52 17 1287
-0.12460115 -1.3199252 -0.24914546 364 26109120 66 53 23 1349
-0.076531306 -1.3290098 -0.26329723 333 26109120 61 54 93 1357
-0.041271959 -2.0143797 -0.41944641 327 26109120 138 55 47 2058
-0.16529255 -1.2478213 -0.27306518 309 26109120 51 56 39 1288
-0.121196 -1.2767088 -0.29077673 337 26109120 58 57 15 1315
-0.074930348 -1.29687 -0.30779663 350 26109120 62 58 81 1335
-0.042314757 -2.0565131 -0.50904328 364 26109120 163 59 55 2119
-0.16938105 -1.2673007 -0.32811445 400 26109120 70 60 1 1320
-0.1240833 -1.2955867 -0.34708485 465 26109120 84 61 1 1347
-0.10852757 -1.8721182 -0.51991498 328 26109120 124 62 60 1946
-0.040295012 -1.9990661 -0.57677776 357 26109120 154 63 32 2081
-0.26209947 -1.9440713 0.61230379 331 26206500 140 0 33 2055
-0.21044812 -2.1870627 0.65947354 48 26206500 25 1 52 2294
-0.13997364 -2.3953469 0.69478434 279 26206500 174 2 25 2498
-0.046959247 -2.2676842 0.63358331 383 26206500 212 3 42 2355
-0.20239259 -1.5069673 0.41074577 403 26206500 100 4 1 1575
-0.14686839 -1.5193624 0.39610156 361 26206500 90 5 1 1577
-0.090139508 -1.5324392 0.38239893 321 26206500 80 6 36 1582
-0.051132932 -2.3541036 0.56287009 438 26206500 257 7 78 2421
-0.19700669 -1.4690028 0.34155563 369 26206500 85 8 1 1521
-0.14816259 -1.5389208 0.34008795 209 26206500 52 9 1 1583
-0.095634364 -1.6109859 0.33879149 182 26206500 49 10 15 1649
-0.035659362 -1.5782768 0.31602439 363 26206500 94 11 1 1610
-0.19961992 -1.4902655 0.28848174 283 26206500 66 12 10 1531
-0.14701971 -1.5209279 0.27743983 315 26206500 76 13 1 1553
-0.094862953 -1.5928217 0.27400976 133 26206500 35 14 53 1619
-0.037344351 -1.6351613 0.26552263 258 26206500 71 15 20 1657
-0.19579798 -1.4615389 0.22722548 149 26206500 33 16 1 1492
-0.14375289 -1.4836174 0.21505934 169 26206500 38 17 27 1506
-0.093581915 -1.5571157 0.21002308 211 26206500 52 18 38 1574
-0.037847191 -1.6139855 0.20186041 223 26206500 59 19 45 1627
-0.15973163 -1.1921626 0.14055353 206 26206500 30 20 35 1211
-0.11910043 -1.227181 0.13206872 212 26206500 33 21 20 1240
-0.07708583 -1.2726213 0.1243139 235 26206500 39 22 42 1281
-0.03519186 -1.4668851 0.12937921 100 26206500 22 23 78 1473
-0.15854664 -1.181595 0.095460162 184 26206500 26 24 16 1196
-0.11217456 -1.1526797 0.08165431 234 26206500 31 25 34 1161
-0.073789872 -1.2175035 0.074324571 210 26206500 31 26 77 1222
-0.030116364 -1.2250073 0.063082747 202 26206500 30 27 53 1227
-0.15601574 -1.1584376 0.050810274 250 26206500 34 28 24 1170
-0.11356883 -1.1627964 0.039594453 222 26206500 30 29 9 1169
-0.07032425 -1.1424897 0.02823456 203 26206500 27 30 21 1145
-0.029679598 -1.189497 0.017777961 235 26206500 33 31 39 1190
-0.15381658 -1.1416566 0.0080424128 184 26206500 24 32 57 1152
-0.11337709 -1.1564519 -0.0029407023 269 26206500 36 33 23 1162
-0.072819322 -1.1806723 -0.014122381 280 26206500 39 34 51 1183
-0.030495295 -1.1913356 -0.025566556 202 26206500 29 35 39 1192
-0.15283677 -1.1302102 -0.033869091 216 26206500 28 36 83 1141
-0.11020886 -1.1157128 -0.043853842 316 26206500 40 37 28 1122
-0.07019908 -1.1304812 -0.055138651 294 26206500 38 38 81 1134
-0.030557722 -1.1945894 -0.069508985 214 26206500 31 39 33 1197
-0.1574893 -1.1577672 -0.077545561 217 26206500 30 40 41 1171
-0.11442191 -1.1530153 -0.08779265 280 26206500 38 41 46 1162
-0.072947629 -1.1694641 -0.10004129 255 26206500 35 42 94 1176
-0.035536289 -1.360422 -0.12914488 328 26206500 61 43 50 1367
-0.16116798 -1.1817218 -0.12312336 139 26206500 20 44 48 1199
-0.12808663 -1.2854617 -0.14554094 192 26206500 32 45 21 1300
-0.086493216 -1.3750336 -0.16836116 305 26206500 59 46 84 1388
-0.035824317 -1.35873 -0.17947333 293 26206500 55 47 100 1371
-0.17395942 -1.2675797 -0.17956603 165 26206500 27 48 31 1292
-0.13728575 -1.3717164 -0.20684037 303 26206500 59 49 11 1394
-0.085197993 -1.3432173 -0.21512315 334 26206500 62 50 85 1363
-0.036633447 -1.3748465 -0.23341058 295 26206500 58 51 66 1395
-0.1782368 -1.2902205 -0.23214659 340 26206500 59 52 27 1323
-0.13151729 -1.3074013 -0.24692917 345 26206500 62 53 26 1337
-0.083186783 -1.3050189 -0.25864053 338 26206500 60 54 88 1333
-0.051442154 -1.9318808 -0.40232614 300 26206500 117 55 57 1974
-0.17455721 -1.2583996 -0.27560925 346 26206500 58 56 52 1300
-0.12902746 -1.2759413 -0.29077673 356 26206500 62 57 3 1315
-0.08214134 -1.2847329 -0.30502993 332 26206500 58 58 79 1323
-0.054310311 -2.0329258 -0.50327778 356 26206500 156 59 46 2095
-0.1739329 -1.243215 -0.32214874 355 26206500 60 60 1 1296
-0.13203053 -1.2948009 -0.34708485 483 26206500 88 61 1 1347
-0.093370564 -1.455974 -0.40449706 328 26206500 75 62 102 1514
-0.053166464 -2.0218329 -0.58342963 344 26206500 152 63 38 2105
-0.23081949 -1.6361753 0.51576543 306 26303870 92 0 15 1731
-0.21332437 -2.0828273 0.62842596 64 26303870 30 1 39 2186
