# .PCD v0.7 - Point Cloud Data file format
VERSION 0.7
FIELDS x y z intensity t reflectivity ring noise range
SIZE 4 4 4 4 4 2 1 2 4
TYPE F F F F U U U U U
COUNT 1 1 1 1 1 1 1 1 1
WIDTH 787
HEIGHT 1
VIEWPOINT 0 0 0 1 0 0 0
POINTS 787
DATA ascii
1.5959706 5.7662892 0.30801037 804 80168270 2887 27 71 5991
2.2217965 5.5738344 0.26082608 818 80168270 2952 28 87 6006
2.0253201 5.6749644 0.20420443 724 80168270 2630 29 37 6029
1.8281596 5.768394 0.14926095 793 80168270 2905 30 33 6053
1.6189836 5.8411074 0.090563029 872 80168270 3206 31 61 6062
2.2352421 5.6067119 0.042138889 768 80168270 2799 32 67 6036
2.0342774 5.6934705 -0.015300763 760 80168270 2780 33 64 6046
1.8371477 5.7942963 -0.072569698 780 80168270 2884 34 63 6079
1.6359463 5.8875332 -0.13109295 841 80168270 3143 35 58 6112
2.2596576 5.6599121 -0.18098146 809 80168270 3008 36 86 6097
2.0638511 5.7629046 -0.23943728 820 80168270 3076 37 55 6126
1.8517367 5.8318291 -0.29786542 854 80168270 3205 38 120 6126
1.6476233 5.9299583 -0.35799742 915 80168270 3480 39 68 6165
2.2801461 5.6982298 -0.40732944 904 80168270 3421 40 100 6151
2.0796397 5.7986994 -0.46676677 789 80168270 3012 41 88 6178
1.8687525 5.8797255 -0.52674806 873 80168270 3347 42 108 6192
1.6659859 5.9834943 -0.58941835 920 80168270 3583 43 65 6239
2.3076129 5.7610402 -0.6406728 887 80168270 3454 44 100 6239
2.0969741 5.8396554 -0.69904435 860 80168270 3351 45 51 6244
1.8924758 5.9435844 -0.76223451 951 80168270 3758 46 62 6284
1.6839472 6.0422893 -0.82824779 936 80168270 3747 47 92 6327
2.3276267 5.7969308 -0.87670463 904 80168270 3599 48 68 6308
2.1289032 5.9204483 -0.94398737 880 80168270 3560 49 44 6362
1.914261 6.001133 -1.0068016 852 80168270 3465 50 40 6379
1.6953727 6.0767231 -1.0706769 963 80168270 3945 51 70 6399
2.3569667 5.8549252 -1.1249371 897 80168270 3688 52 89 6411
2.1476498 5.9631019 -1.1910594 898 80168270 3736 53 72 6449
1.9304481 6.0453186 -1.255173 936 80168270 3918 54 80 6469
1.6842036 6.037097 -1.3048085 148 80168270 608 55 67 6402
2.4003115 5.9529977 -1.3924627 836 80168270 3607 56 85 6568
2.1706505 6.0170808 -1.4503458 886 80168270 3810 57 50 6559
1.6322403 5.108078 -1.2706121 448 80168270 1359 58 51 5511
1.3576064 4.8647556 -1.2499065 41 80168270 110 59 41 5203
2.432451 6.0124249 -1.6644351 552 80168270 2474 60 31 6696
1.8703182 5.170979 -1.4664142 122 80168270 395 61 16 5691
1.5009124 4.6939802 -1.3663131 396 80168270 1035 62 34 5114
1.4681138 5.2692642 -1.5778933 551 80168270 1784 63 45 5693
2.1379528 5.2671533 1.7743403 857 80265590 3041 0 63 5955
1.9381279 5.3509917 1.7081916 856 80265590 3024 1 60 5942
1.7513661 5.468513 1.6626984 760 80265590 2714 2 50 5978
1.5330846 5.4907532 1.592433 883 80265590 3093 3 39 5919
2.1464264 5.2957196 1.5436218 883 80265590 3095 4 62 5919
1.9580652 5.3986783 1.4902159 837 80265590 2945 5 34 5933
1.7559559 5.4756055 1.4324249 802 80265590 2818 6 77 5926
1.5584925 5.5600166 1.3803221 883 80265590 3114 7 69 5937
2.1545792 5.3187671 1.3224334 965 80265590 3348 8 74 5889
1.9715928 5.4424949 1.2733425 774 80265590 2720 9 80 5927
1.7725042 5.5169411 1.2164854 819 80265590 2871 10 31 5921
1.5710765 5.5861478 1.1616349 829 80265590 2902 11 53 5918
2.1787095 5.3807635 1.1137921 822 80265590 2873 12 85 5911
1.9903735 5.4877572 1.0599166 775 80265590 2727 13 45 5933
1.7878897 5.561162 1.0031228 745 80265590 2618 14 86 5927
1.5826479 5.6220207 0.94815779 799 80265590 2795 15 57 5917
2.200454 5.4341936 0.9034192 797 80265590 2804 16 40 5932
2.0037739 5.5207963 0.84738523 762 80265590 2685 17 59 5934
1.8017751 5.5939631 0.79125595 768 80265590 2699 18 57 5930
1.6025151 5.6792917 0.73783892 783 80265590 2770 19 77 5947
2.2185574 5.4786263 0.69069701 742 80265590 2630 20 59 5951
2.0131993 5.5440493 0.6317997 737 80265590 2595 21 67 5932
1.8215714 5.6463051 0.57848179 787 80265590 2799 22 60 5961
1.6156305 5.7139421 0.52357739 799 80265590 2840 23 107 5961
2.2309513 5.5061936 0.47570449 782 80265590 2779 24 68 5960
2.0269506 5.5773668 0.41839924 764 80265590 2705 25 62 5949
1.8346814 5.6862631 0.36408091 721 80265590 2584 26 80 5986
1.6345894 5.7679181 0.30862731 791 80265590 2851 27 88 6003
2.2514477 5.5489879 0.26030496 794 80265590 2854 28 84 5994
2.0601029 5.6624308 0.20420443 724 80265590 2631 29 24 6029
1.8635193 5.7570682 0.14926095 787 80265590 2883 30 30 6053
1.6515177 5.819521 0.090383753 877 80265590 3212 31 67 6050
2.2786264 5.6151295 0.042306442 742 80265590 2726 32 71 6060
2.0732803 5.6921558 -0.01533113 777 80265590 2854 33 58 6058
1.8800595 5.8057451 -0.072856203 792 80265590 2952 34 66 6103
1.6720407 5.8773842 -0.13109295 870 80265590 3248 35 52 6112
2.2988594 5.6570525 -0.18133767 843 80265590 3146 36 103 6109
2.0950608 5.7388687 -0.23896825 803 80265590 3000 37 48 6114
1.8911827 5.8317585 -0.29844889 858 80265590 3232 38 131 6138
1.6839778 5.9197369 -0.35799742 854 80265590 3248 39 63 6165
2.3150668 5.6841321 -0.40732944 889 80265590 3364 40 95 6151
2.1192892 5.7970681 -0.46767339 786 80265590 3013 41 75 6190
1.9047946 5.8681483 -0.52674806 864 80265590 3312 42 120 6192
1.6928439 5.938693 -0.58601725 926 80265590 3565 43 65 6203
2.3429186 5.7467728 -0.6406728 910 80265590 3543 44 90 6239
2.1409638 5.8490744 -0.7017312 866 80265590 3404 45 77 6268
1.9289093 5.9318604 -0.76223451 918 80265590 3627 46 77 6284
1.7209903 6.0318427 -0.82824779 923 80265590 3696 47 81 6327
2.3676476 5.7935405 -0.87837249 918 80265590 3668 48 77 6320
2.1611061 5.896132 -0.9422068 910 80265590 3668 49 45 6350
1.9510473 5.9892745 -1.0068016 839 80265590 3412 50 51 6379
1.7358761 6.0775824 -1.0726848 1002 80265590 4120 51 69 6411
2.3973265 5.851285 -1.1270428 893 80265590 3686 52 79 6423
2.1801338 5.9387407 -1.188843 887 80265590 3677 53 67 6437
1.9675051 6.0333595 -1.255173 903 80265590 3780 54 76 6469
1.7728351 6.2073922 -1.3439405 597 80265590 2598 55 67 6594
2.4234369 5.9056101 -1.3848306 934 80265590 3985 56 106 6532
2.2156072 6.0256162 -1.4556527 903 80265590 3911 57 48 6583
1.6816638 5.1534696 -1.2844456 393 80265590 1221 58 65 5571
1.4290293 5.0019403 -1.2873821 23 80265590 65 59 48 5359
2.4692967 5.9973865 -1.6644351 720 80265590 3227 60 39 6696
1.8538847 5.0288568 -1.4293094 583 80265590 1793 61 37 5547
1.5368645 4.7066674 -1.3727251 301 80265590 794 62 41 5138
1.5035805 5.271245 -1.5812192 608 80265590 1978 63 30 5705
2.1658578 5.2433486 1.7707648 844 80362150 2979 0 54 5943
1.9669441 5.3282166 1.7047418 852 80362150 2998 1 67 5930
1.7848873 5.457664 1.6626984 770 80362150 2753 2 60 5978
1.5699228 5.4923558 1.5956614 878 80362150 3087 3 51 5931
2.17888 5.2824497 1.5436218 901 80362150 3158 4 66 5919
1.9871267 5.3756676 1.4872019 834 80362150 2922 5 45 5921
1.785897 5.4536624 1.4295243 767 80362150 2684 6 65 5914
1.5829221 5.5166941 1.3719524 888 80362150 3090 7 56 5901
2.1960874 5.3270683 1.3278227 896 80362150 3134 8 76 5913
2.000891 5.419301 1.2707645 744 80362150 2604 9 79 5915
1.8099829 5.5171199 1.2189507 813 80362150 2861 10 46 5933
1.608578 5.5877104 1.1639905 841 80362150 2956 11 37 5930
2.2161741 5.37819 1.1160532 820 80362150 2877 12 101 5923
2.015821 5.4532924 1.0556291 786 80362150 2743 13 52 5909
1.8256676 5.5613241 1.0051538 762 80362150 2689 14 59 5939
1.6203939 5.6235857 0.95008069 815 80362150 2863 15 55 5929
2.2292376 5.4096241 0.90159166 806 80362150 2824 16 44 5920
2.0376112 5.5083971 0.84738523 752 80362150 2649 17 74 5934
1.8397807 5.5941 0.79285711 734 80362150 2590 18 53 5942
1.6373324 5.6693521 0.73783892 803 80362150 2841 19 82 5947
2.2612145 5.4869499 0.69348258 721 80362150 2576 20 74 5975
2.0554616 5.5539722 0.6343559 738 80362150 2619 21 67 5956
1.8561822 5.6350222 0.57848179 757 80362150 2689 22 54 5961
1.653983 5.7154031 0.52463138 780 80362150 2784 23 94 5973
2.2692542 5.5034595 0.47666225 773 80362150 2758 24 76 5972
2.0694497 5.5872746 0.42008716 734 80362150 2620 25 76 5973
1.8695371 5.6748986 0.36408091 757 80362150 2713 26 84 5986
1.6666117 5.7462702 0.30801037 809 80362150 2904 27 98 5991
2.2808778 5.5239873 0.2597838 804 80362150 2876 28 56 5982
2.0948081 5.6496835 0.20420443 717 80362150 2605 29 38 6029
1.8950446 5.7341347 0.14896505 778 80362150 2838 30 37 6041
1.6871946 5.8092775 0.090383753 836 80362150 3058 31 57 6050
2.3176177 5.6121335 0.042390216 712 80362150 2623 32 55 6072
2.1081676 5.6793275 -0.01533113 777 80362150 2850 33 49 6058
1.9156475 5.7941003 -0.072856203 807 80362150 3008 34 62 6103
1.7047186 5.855495 -0.13083556 872 80362150 3246 35 68 6100
2.3335271 5.6428409 -0.18133767 829 80362150 3094 36 92 6109
2.1302345 5.7259054 -0.23896825 812 80362150 3034 37 38 6114
1.9231628 5.8086662 -0.29786542 829 80362150 3110 38 150 6126
1.7169205 5.8977904 -0.35730058 861 80362150 3258 39 54 6153
2.3499005 5.6698198 -0.40732944 866 80362150 3278 40 78 6151
2.1506422 5.7727427 -0.46676677 841 80362150 3211 41 74 6178
1.940765 5.8563499 -0.52674806 871 80362150 3339 42 117 6192
1.7292511 5.928194 -0.58601725 895 80362150 3446 43 60 6203
2.3781359 5.7322884 -0.6406728 904 80362150 3520 44 82 6239
2.1768126 5.8358278 -0.7017312 868 80362150 3412 45 59 6268
1.9577644 5.8973036 -0.75932336 918 80362150 3599 46 72 6260
1.7579685 6.0211697 -0.82824779 919 80362150 3679 47 97 6327
2.4031515 5.7789035 -0.87837249 934 80362150 3732 48 61 6320
2.1972435 5.8827605 -0.9422068 854 80362150 3442 49 43 6350
1.9952387 5.9996786 -1.0105895 872 80362150 3573 50 55 6403
1.7731347 6.0668168 -1.0726848 983 80362150 4039 51 39 6411
2.4286382 5.8255606 -1.1249371 924 80362150 3799 52 89 6411
2.2206645 5.9362979 -1.1910594 911 80362150 3791 53 58 6449
2.0082064 6.0323429 -1.2575014 917 80362150 3854 54 58 6481
1.8108896 6.1963978 -1.3439405 856 80362150 3720 55 54 6594
2.4551089 5.879807 -1.3822864 915 80362150 3891 56 86 6520
2.252538 6.0119081 -1.4556527 914 80362150 3959 57 54 6583
1.7353954 5.2095232 -1.3010459 239 80362150 760 58 48 5643
1.4825739 5.071342 -1.3075613 92 80362150 274 59 63 5443
2.5015585 5.9714022 -1.6614524 835 80362150 3729 60 44 6684
1.8928607 5.0390949 -1.4354934 565 80362150 1752 61 52 5571
1.5876559 4.7629709 -1.3919615 114 80362150 309 62 33 5210
1.5552796 5.3283277 -1.601175 414 80362150 1381 63 35 5777
2.2024279 5.240521 1.7743403 847 80460860 3005 0 71 5955
1.9996004 5.3160472 1.7047418 897 80460860 3156 1 64 5930
1.8110414 5.4247432 1.6560231 755 80460860 2675 2 45 5954
1.6035937 5.4826193 1.5956614 855 80460860 3007 3 45 5931
2.2112515 5.268981 1.5436218 864 80460860 3028 4 66 5919
2.0159798 5.3525038 1.4841878 843 80460860 2942 5 47 5909
1.8267094 5.4646883 1.4353255 794 80460860 2801 6 69 5938
1.6200297 5.5180755 1.3747423 855 80460860 2991 7 58 5913
2.2377784 5.3350601 1.3332121 845 80460860 2980 8 77 5937
2.0423589 5.4288597 1.2759205 781 80460860 2755 9 98 5939
1.8438013 5.5059099 1.2189507 822 80460860 2892 10 45 5933
1.6395088 5.5664477 1.1616349 834 80460860 2919 11 42 5918
2.2491324 5.364491 1.1160532 810 80460860 2843 12 91 5923
2.0534053 5.4518704 1.0577729 781 80460860 2740 13 71 5921
1.8597568 5.5500174 1.0051538 736 80460860 2597 14 63 5939
1.6515195 5.6021757 0.94815779 794 80460860 2778 15 48 5917
2.2715602 5.4177194 0.90524679 803 80460860 2839 16 63 5944
2.0755603 5.5069046 0.8490988 738 80460860 2611 17 66 5946
1.870286 5.5714316 0.79125595 741 80460860 2604 18 52 5930
1.6720881 5.6591988 0.73783892 778 80460860 2753 19 70 5947
2.2856214 5.4509888 0.69069701 755 80460860 2675 20 69 5951
2.0895016 5.541256 0.6343559 743 80460860 2637 21 79 5956
1.8907231 5.6235266 0.57848179 760 80460860 2699 22 51 5961
1.6856277 5.6936855 0.52357739 790 80460860 2808 23 109 5961
2.3076077 5.5004621 0.47762007 776 80460860 2780 24 71 5984
2.1036935 5.5744715 0.42008716 760 80460860 2713 25 73 5973
1.9043225 5.6633205 0.36408091 735 80460860 2634 26 103 5986
1.7018387 5.7359357 0.30801037 826 80460860 2965 27 85 5991
2.3147295 5.5098882 0.2597838 827 80460860 2961 28 76 5982
2.125196 5.6255045 0.20379797 742 80460860 2685 29 29 6017
1.9301929 5.7223988 0.14896505 804 80460860 2933 30 34 6041
1.7228079 5.7988157 0.090383753 811 80460860 2970 31 64 6050
2.3520093 5.5978069 0.042390216 739 80460860 2723 32 56 6072
2.1387308 5.6550612 -0.015300763 789 80460860 2883 33 56 6046
1.9473269 5.7708678 -0.07271295 763 80460860 2832 34 78 6091
1.7406151 5.8449249 -0.13083556 861 80460860 3205 35 76 6100
2.3634553 5.6173601 -0.18098146 852 80460860 3167 36 107 6097
2.161078 5.7015142 -0.23849922 805 80460860 2996 37 56 6102
1.9587679 5.7967563 -0.29786542 855 80460860 3207 38 149 6126
1.7564954 5.8986263 -0.35799742 832 80460860 3161 39 55 6165
2.3892975 5.666327 -0.40812406 914 80460860 3473 40 79 6163
2.1817763 5.748251 -0.46586016 805 80460860 3062 41 78 6166
1.9766624 5.8443317 -0.52674806 877 80460860 3363 42 96 6192
1.769009 5.9289198 -0.58715093 914 80460860 3529 43 51 6215
2.4086223 5.7065916 -0.63944054 897 80460860 3480 44 83 6227
2.2125797 5.822361 -0.7017312 857 80460860 3366 45 40 6268
2.0053794 5.9190245 -0.76369011 860 80460860 3411 46 82 6296
1.7948807 6.0102696 -0.82824779 929 80460860 3719 47 99 6327
2.4339349 5.7531047 -0.87670463 918 80460860 3654 48 82 6308
2.2375185 5.880259 -0.94398737 895 80460860 3621 49 37 6362
2.0205896 5.95366 -1.0049076 914 80460860 3703 50 49 6367
1.8069381 6.0444875 -1.0706769 948 80460860 3883 51 75 6399
2.4643376 5.8105493 -1.1249371 889 80460860 3655 52 86 6411
2.2612469 5.9335809 -1.1932756 878 80460860 3667 53 68 6461
2.0451825 6.0199075 -1.2575014 900 80460860 3782 54 65 6481
1.8354174 6.1401458 -1.3341576 934 80460860 4000 55 47 6546
2.5003102 5.8862195 -1.3873745 942 80460860 4035 56 81 6544
2.2852106 5.98704 -1.4529991 882 80460860 3807 57 40 6571
1.8725594 5.5083265 -1.3785138 86 80460860 306 58 34 5979
1.6071025 5.3746395 -1.3882779 101 80460860 336 59 45 5779
2.5381513 5.9559402 -1.6614524 908 80460860 4055 60 48 6684
1.9154569 5.0057282 -1.4293094 630 80460860 1938 61 33 5547
1.6317474 4.7969308 -1.4047858 39 80460860 107 62 37 5258
1.5879444 5.3186846 -1.601175 367 80460860 1224 63 31 5777
2.2300386 5.2163754 1.7707648 857 80558290 3025 0 53 5943
2.0321815 5.3036776 1.7047418 870 80558290 3061 1 71 5930
1.8442929 5.4135289 1.6560231 764 80558290 2707 2 49 5954
1.6338917 5.4616041 1.592433 856 80558290 3001 3 59 5919
2.2435398 5.2553139 1.5436218 866 80558290 3035 4 81 5919
2.0529449 5.3508778 1.4872019 813 80558290 2849 5 33 5921
1.8564465 5.4423566 1.4324249 775 80558290 2723 6 71 5926
1.6538575 5.5080314 1.3747423 864 80558290 3023 7 59 5913
2.27965 5.3427396 1.3386017 838 80558290 2979 8 70 5961
2.0714374 5.405282 1.2733425 759 80558290 2668 9 83 5927
1.8737528 5.4833803 1.2164854 794 80558290 2783 10 38 5921
1.6770267 5.5675497 1.1639905 838 80558290 2945 11 43 5930
2.282006 5.3505893 1.1160532 822 80558290 2885 12 83 5923
2.0868187 5.439168 1.0577729 802 80558290 2813 13 77 5921
1.8937762 5.5385017 1.0051538 741 80558290 2615 14 58 5939
1.6756057 5.5579143 0.94238895 881 80558290 3045 15 57 5881
2.30476 5.4036794 0.90524679 840 80558290 2967 16 40 5944
2.1007974 5.47189 0.84567159 750 80558290 2632 17 62 5922
1.9044365 5.5598507 0.79125595 724 80558290 2544 18 55 5930
1.7033368 5.637434 0.73635012 778 80558290 2742 19 61 5935
2.3237014 5.447825 0.6920898 773 80558290 2747 20 56 5963
2.1277411 5.5394688 0.63563401 755 80558290 2690 21 78 5968
1.9329438 5.6344132 0.58081084 730 80558290 2613 22 55 5985
1.7205317 5.6832352 0.52357739 770 80558290 2737 23 94 5961
2.3413146 5.4861994 0.47762007 743 80558290 2662 24 64 5984
2.1378584 5.5614581 0.42008716 779 80558290 2781 25 61 5973
1.9390361 5.6515288 0.36408091 780 80558290 2796 26 81 5986
1.7439603 5.7483215 0.30924428 746 80558290 2700 27 75 6015
2.353205 5.5066061 0.26030496 804 80558290 2890 28 72 5994
2.1596735 5.6123586 0.20379797 708 80558290 2562 29 46 6017
1.9769801 5.7444777 0.14985277 774 80558290 2857 30 50 6077
1.7583563 5.788136 0.090383753 825 80558290 3022 31 62 6050
2.3815966 5.5722361 0.042306442 753 80558290 2767 32 60 6060
2.1820166 5.664227 -0.015361499 781 80558290 2876 33 55 6070
1.9866058 5.7701559 -0.072856203 798 80558290 2974 34 67 6103
1.7764461 5.8341346 -0.13083556 858 80558290 3194 35 65 6100
2.3978784 5.6027527 -0.18098146 830 80558290 3086 36 86 6097
2.1960211 5.6881471 -0.23849922 807 80558290 3003 37 57 6102
1.9942992 5.7846284 -0.29786542 837 80558290 3140 38 129 6126
1.7891662 5.8762774 -0.35730058 861 80558290 3258 39 52 6153
2.4240205 5.6515598 -0.40812406 923 80558290 3507 40 66 6163
2.2213206 5.7459164 -0.46676677 831 80558290 3172 41 90 6178
2.0085852 5.8207903 -0.52572721 847 80558290 3235 42 87 6180
1.8053548 5.9179535 -0.58715093 912 80558290 3524 43 70 6215
2.4577191 5.7246108 -0.64313734 828 80558290 3248 44 118 6263
2.2439592 5.797555 -0.70038784 852 80558290 3333 45 50 6256
2.0377686 5.8953505 -0.76223451 876 80558290 3461 46 83 6284
1.8282512 5.9877653 -0.82667696 936 80558290 3733 47 89 6315
2.4832811 5.7708097 -0.88170809 932 80558290 3752 48 74 6344
2.2649801 5.8442888 -0.94042629 850 80558290 3413 49 45 6338
2.0570827 5.9411497 -1.0049076 919 80558290 3724 50 49 6367
1.8439924 6.0332866 -1.0706769 942 80558290 3859 51 67 6399
2.499944 5.7953191 -1.1249371 926 80558290 3807 52 88 6411
2.2976122 5.9195943 -1.1932756 888 80558290 3709 53 70 6461
2.0782263 5.9961224 -1.255173 904 80558290 3784 54 82 6469
1.8696244 6.1175332 -1.3317118 950 80558290 4058 55 61 6534
2.5363803 5.8707671 -1.3873745 958 80558290 4103 56 97 6544
2.3176632 5.961998 -1.4503458 891 80558290 3831 57 48 6559
1.9866694 5.7284074 -1.4366149 95 80558290 367 58 54 6231
1.6128061 5.2755599 -1.365216 109 80558290 351 59 54 5683
2.5746484 5.9402547 -1.6614524 872 80558290 3894 60 50 6684
1.9461354 4.9938807 -1.4293094 535 80558290 1645 61 36 5547
1.6535677 4.7649789 -1.3983736 58 80558290 158 62 24 5234
1.6104506 5.2757583 -1.591197 97 80558290 319 63 40 5741
2.2620037 5.2025938 1.7707648 850 80656930 3004 0 60 5943
2.0688641 5.301816 1.7081916 880 80656930 3108 1 81 5942
1.8812587 5.4129977 1.6593608 786 80656930 2799 2 65 5966
1.6673727 5.4514756 1.592433 846 80656930 2963 3 47 5919
2.2757435 5.2414489 1.5436218 853 80656930 2990 4 70 5919
2.0857387 5.3381805 1.4872019 829 80656930 2905 5 32 5921
1.8936321 5.4418602 1.4353255 795 80656930 2805 6 65 5938
1.6841981 5.4866228 1.3719524 876 80656930 3049 7 55 5901
2.3030794 5.3071971 1.3332121 843 80656930 2973 8 72 5937
2.1045644 5.3924704 1.2733425 766 80656930 2692 9 89 5927
1.9034972 5.4606905 1.21402 773 80656930 2701 10 59 5909
1.7042315 5.5346637 1.1592795 821 80656930 2862 11 46 5906
2.3101039 5.3256745 1.1137921 835 80656930 2918 12 113 5911
2.1244502 5.4372582 1.0599166 783 80656930 2755 13 53 5933
1.919934 5.5044436 1.001092 769 80656930 2691 14 79 5915
1.7201426 5.5814872 0.94815779 814 80656930 2848 15 48 5917
2.333153 5.3785553 0.9034192 787 80656930 2768 16 54 5932
2.1343327 5.4588966 0.84567159 767 80656930 2691 17 68 5922
1.9385152 5.5480604 0.79125595 737 80656930 2590 18 48 5930
1.7414093 5.6382537 0.73783892 793 80656930 2806 19 66 5947
2.3570848 5.4334645 0.6920898 759 80656930 2701 20 62 5963
2.1573439 5.5151973 0.6343559 741 80656930 2627 21 54 5956
1.9674796 5.622447 0.58081084 754 80656930 2703 22 67 5985
1.7589046 5.6839905 0.52463138 775 80656930 2765 23 116 5973
2.3701704 5.4607573 0.47666225 767 80656930 2737 24 64 5972
2.176306 5.5593824 0.42093116 751 80656930 2692 25 64 5985
1.9697202 5.6282201 0.36335108 735 80656930 2623 26 98 5974
1.782748 5.7489591 0.30986121 760 80656930 2761 27 92 6027
2.3917272 5.5030584 0.26082608 817 80656930 2949 28 63 6006
2.2028213 5.6213341 0.20461087 729 80656930 2659 29 41 6041
2.0042436 5.7096009 0.14926095 762 80656930 2791 30 28 6053
1.7902805 5.7657785 0.090204477 853 80656930 3108 31 55 6038
2.4109585 5.5465126 0.042222664 790 80656930 2888 32 49 6048
2.2167306 5.650732 -0.015361499 790 80656930 2909 33 55 6070
2.0219734 5.7578578 -0.072856203 781 80656930 2911 34 71 6103
1.8157753 5.8345799 -0.13109295 857 80656930 3203 35 63 6112
2.4417851 5.60993 -0.18169387 841 80656930 3152 36 81 6121
2.2308815 5.6745653 -0.23849922 798 80656930 2970 37 46 6102
2.0337315 5.7835903 -0.29844889 859 80656930 3236 38 124 6138
1.8287482 5.8766274 -0.35799742 860 80656930 3271 39 68 6165
2.4538651 5.6256056 -0.40732944 914 80656930 3456 40 55 6151
2.2609179 5.7433119 -0.46767339 834 80656930 3197 41 65 6190
2.052202 5.8309131 -0.52776891 869 80656930 3344 42 118 6204
1.8451886 5.9181695 -0.58828461 919 80656930 3565 43 73 6227
2.4927983 5.7094226 -0.64313734 868 80656930 3405 44 110 6263
2.2794902 5.7836776 -0.70038784 862 80656930 3375 45 64 6256
2.0739036 5.8827362 -0.76223451 913 80656930 3607 46 79 6284
1.8685008 5.9877911 -0.82824779 927 80656930 3712 47 90 6327
2.5091152 5.7336903 -0.87837249 920 80656930 3676 48 73 6320
2.3051536 5.84132 -0.9422068 891 80656930 3591 49 36 6350
2.0974438 5.9395895 -1.0068016 925 80656930 3762 50 51 6379
1.8845046 6.0331511 -1.0726848 920 80656930 3779 51 56 6411
2.5307105 5.7690516 -1.1228315 918 80656930 3760 52 76 6399
2.3338909 5.905385 -1.1932756 812 80656930 3391 53 76 6461
2.1228251 6.0054555 -1.2598298 920 80656930 3880 54 79 6493
1.9036231 6.0947323 -1.329266 958 80656930 4077 55 61 6522
2.5770719 5.8658304 -1.3899187 940 80656930 4041 56 91 6556
2.3585088 5.9585462 -1.4529991 821 80656930 3547 57 58 6571
2.1658461 6.1234198 -1.5389831 528 80656930 2351 58 44 6675
1.624303 5.198853 -1.3479196 144 80656930 452 59 49 5611
2.620424 5.9456172 -1.667418 896 80656930 4030 60 48 6708
1.9981223 5.0357323 -1.4447697 332 80656930 1042 61 47 5607
1.6711997 4.7220397 -1.3887554 21 80656930 56 62 22 5198
1.5191746 4.8695369 -1.4714622 42 80656930 118 63 21 5309
2.2938838 5.1886168 1.7707648 861 80753760 3042 0 66 5943
2.0928688 5.2676592 1.7012922 876 80753760 3069 1 83 5918
1.9182875 5.4122171 1.6626984 771 80753760 2754 2 50 5978
1.7042391 5.4521737 1.5956614 828 80753760 2911 3 57 5931
2.3125405 5.2379842 1.5467513 887 80753760 3121 4 68 5931
2.1184537 5.3252821 1.4872019 876 80753760 3069 5 44 5921
1.9269871 5.4301391 1.4353255 775 80753760 2734 6 72 5938
1.7213249 5.4873214 1.3747423 854 80753760 2987 7 62 5913
2.3403213 5.3036642 1.3359069 860 80753760 3045 8 73 5949
2.1332846 5.3685646 1.2707645 755 80753760 2643 9 80 5915
1.9448347 5.4710388 1.2189507 814 80753760 2865 10 37 5933
1.7416911 5.535327 1.1616349 820 80753760 2870 11 43 5918
2.3474941 5.3221827 1.1160532 818 80753760 2871 12 86 5923
2.1577728 5.4241204 1.0599166 786 80753760 2769 13 68 5933
1.9615995 5.5148449 1.0051538 747 80753760 2636 14 68 5939
1.7507995 5.5595293 0.94623482 751 80753760 2617 15 47 5905
2.370898 5.3749895 0.90524679 792 80753760 2797 16 53 5944
2.1765728 5.4677672 0.8490988 749 80753760 2650 17 65 5946
1.9685293 5.524859 0.78965473 780 80753760 2730 18 38 5918
1.7723886 5.616107 0.73635012 769 80753760 2710 19 73 5935
2.3903794 5.4188995 0.6920898 766 80753760 2725 20 76 5963
2.191144 5.5018563 0.6343559 761 80753760 2701 21 61 5956
1.9979273 5.59902 0.57964629 776 80753760 2767 22 52 5973
1.7937478 5.6730909 0.52463138 761 80753760 2716 23 86 5973
2.4084623 5.4570546 0.47762007 794 80753760 2845 24 66 5984
2.2103767 5.5459247 0.42093116 794 80753760 2845 25 70 5985
2.0082431 5.6273084 0.36408091 750 80753760 2688 26 86 5986
1.8107499 5.7150631 0.30862731 764 80753760 2754 27 86 6003
2.4254484 5.4882793 0.26082608 776 80753760 2801 28 63 6006
2.2328274 5.5965729 0.20420443 760 80753760 2762 29 24 6029
2.0351965 5.6859012 0.14896505 787 80753760 2871 30 39 6041
1.8328816 5.7775593 0.090563029 858 80753760 3154 31 80 6062
2.4546483 5.553566 0.042390216 789 80753760 2907 32 57 6072
2.2469103 5.6258798 -0.01533113 806 80753760 2957 33 54 6058
2.0532198 5.734046 -0.07271295 806 80753760 2992 34 59 6091
1.8515414 5.823329 -0.13109295 870 80753760 3251 35 63 6112
2.4713066 5.5838737 -0.18133767 848 80753760 3165 36 89 6109
2.2656579 5.6607699 -0.23849922 822 80753760 3060 37 42 6102
2.0651352 5.7597198 -0.29786542 838 80753760 3144 38 149 6126
1.8647722 5.8652959 -0.35799742 803 80753760 3054 39 61 6165
2.488337 5.6104426 -0.40732944 888 80753760 3361 40 79 6151
2.2916646 5.7182245 -0.46676677 860 80753760 3283 41 90 6178
2.0919795 5.8294649 -0.5287897 832 80753760 3215 42 111 6216
1.8778412 5.8953533 -0.58715093 918 80753760 3547 43 72 6215
2.5229404 5.6831098 -0.64190507 937 80753760 3663 44 86 6251
2.3193755 5.7806482 -0.7017312 865 80753760 3400 45 68 6268
2.105931 5.8586907 -0.76077896 891 80753760 3507 46 77 6272
1.9015926 5.964879 -0.82667696 940 80753760 3749 47 89 6315
2.5442493 5.7181869 -0.87837249 941 80753760 3760 48 60 6320
2.3321042 5.8050423 -0.93864572 855 80753760 3420 49 41 6326
2.1258209 5.9043102 -1.0030136 893 80753760 3605 50 48 6355
1.9178911 6.0102038 -1.0706769 936 80753760 3831 51 55 6399
2.5708733 5.7642045 -1.1249371 918 80753760 3774 52 82 6411
2.3744836 5.901895 -1.1954919 813 80753760 3408 53 66 6473
2.1636252 6.0033913 -1.262158 907 80753760 3840 54 66 6505
1.9374125 6.0717449 -1.3268203 906 80753760 3842 55 59 6510
2.6082325 5.8391995 -1.3873745 954 80753760 4086 56 98 6544
2.3950253 5.9439626 -1.4529991 909 80753760 3923 57 52 6571
2.1914947 6.0770626 -1.530683 727 80753760 3203 58 37 6639
1.6172103 5.0667214 -1.3162094 684 80753760 2052 59 40 5479
2.6521034 5.9188194 -1.6644351 943 80753760 4226 60 55 6696
2.0506954 5.0771317 -1.46023 363 80753760 1165 61 39 5667
1.7472411 4.8422246 -1.4272281 55 80753760 156 62 38 5342
1.5315185 4.8051968 -1.4548324 57 80753760 156 63 24 5249
2.3350692 5.1953402 1.7779158 878 80850150 3128 0 59 5967
2.1251512 5.2547183 1.7012922 878 80850150 3077 1 61 5918
1.9436257 5.378664 1.6560231 784 80850150 2778 2 55 5954
1.7376609 5.4416142 1.5956614 837 80850150 2943 3 44 5931
2.3398929 5.2131271 1.5436218 901 80850150 3155 4 57 5919
2.1510892 5.3121834 1.4872019 847 80850150 2968 5 45 5921
1.9483851 5.3853645 1.4266237 906 80850150 3158 6 60 5902
1.7549621 5.476656 1.3747423 863 80850150 3019 7 59 5913
2.3632472 5.2678661 1.3305174 827 80850150 2904 8 74 5925
2.1705799 5.3662381 1.2733425 752 80850150 2643 9 75 5927
1.9823692 5.4700441 1.2214162 805 80850150 2844 10 57 5945
1.7684215 5.5021315 1.156924 829 80850150 2878 11 43 5894
2.3801062 5.3076787 1.1160532 821 80850150 2881 12 89 5923
2.1910138 5.4107785 1.0599166 800 80850150 2815 13 56 5933
1.9913691 5.4915867 1.0031228 728 80850150 2559 14 65 5927
1.7885065 5.559958 0.94815779 807 80850150 2824 15 34 5917
2.3989806 5.3495188 0.9034192 832 80850150 2927 16 42 5932
2.2100816 5.454309 0.8490988 752 80850150 2660 17 64 5946
2.0064526 5.5238543 0.79125595 709 80850150 2495 18 59 5930
1.8031617 5.5937929 0.73486125 759 80850150 2664 19 69 5923
2.4138298 5.3823795 0.68930423 768 80850150 2711 20 61 5939
2.2338266 5.5104237 0.63691211 777 80850150 2780 21 75 5980
2.0322447 5.5866556 0.57964629 757 80850150 2703 22 58 5973
1.8248501 5.6506033 0.52357739 779 80850150 2769 23 98 5961
2.4370039 5.4312606 0.47666225 778 80850150 2776 24 71 5972
2.2443643 5.5322576 0.42093116 800 80850150 2867 25 65 5985
2.0427337 5.6148801 0.36408091 754 80850150 2702 26 80 5986
1.8347137 5.6696391 0.30677649 795 80850150 2832 27 64 5967
2.454165 5.462358 0.26030496 844 80850150 3034 28 60 5994
2.2671254 5.582767 0.20420443 737 80850150 2677 29 45 6029
2.0700462 5.673306 0.14896505 749 80850150 2733 30 31 6041
1.8645991 5.7547898 0.090383753 841 80850150 3080 31 64 6050
2.4837596 5.5274544 0.042306442 808 80850150 2969 32 59 6060
2.2813878 5.6119871 -0.01533113 746 80850150 2740 33 59 6058
2.092479 5.7326117 -0.072856203 745 80850150 2777 34 61 6103
1.8835325 5.8004475 -0.13083556 878 80850150 3268 35 69 6100
2.5006003 5.5576663 -0.18098146 863 80850150 3209 36 93 6097
2.304873 5.6578665 -0.23896825 828 80850150 3094 37 47 6114
2.1086662 5.7694545 -0.29903236 874 80850150 3305 38 140 6150
1.9044255 5.8651376 -0.35869426 836 80850150 3192 39 59 6177
2.5276365 5.6059842 -0.40812406 909 80850150 3453 40 91 6163
2.3221884 5.692976 -0.46586016 853 80850150 3244 41 95 6166
2.1277092 5.8165188 -0.5287897 850 80850150 3284 42 112 6216
1.9139792 5.8837204 -0.58715093 905 80850150 3494 43 55 6215
2.5577638 5.6675224 -0.64190507 934 80850150 3650 44 101 6251
2.3502932 5.7552691 -0.70038784 856 80850150 3352 45 63 6256
2.1459377 5.856843 -0.76223451 890 80850150 3516 46 82 6284
1.9344738 5.9417863 -0.82510608 918 80850150 3648 47 85 6303
2.5841849 5.7132955 -0.88004029 879 80850150 3525 48 78 6332
2.3721707 5.8016076 -0.94042629 880 80850150 3534 49 38 6338
2.1701736 5.9134035 -1.0068016 904 80850150 3676 50 57 6379
1.954733 5.9983225 -1.0706769 989 80850150 4052 51 65 6399
2.6110716 5.7590809 -1.1270428 944 80850150 3896 52 87 6423
2.4106522 5.8872142 -1.1954919 878 80850150 3680 53 72 6473
2.1923025 5.9679031 -1.2575014 950 80850150 3988 54 56 6481
1.9819114 6.0820827 -1.3317118 927 80850150 3956 55 54 6534
2.639164 5.8124084 -1.3848306 943 80850150 4024 56 86 6532
2.4314516 5.9291549 -1.4529991 882 80850150 3806 57 47 6571
2.2206845 6.0415816 -1.5251496 867 80850150 3792 58 45 6615
1.6518786 5.0677781 -1.3190923 673 80850150 2030 59 73 5491
2.6883707 5.9024348 -1.6644351 910 80850150 4079 60 49 6696
2.139117 5.203867 -1.500427 157 80850150 531 61 33 5823
1.8727174 5.0918851 -1.5041733 70 80850150 221 62 37 5630
1.5716797 4.8286004 -1.4648104 63 80850150 175 63 31 5285
2.3669033 5.1809149 1.7779158 823 80947520 2931 0 76 5967
2.1661026 5.2628365 1.7081916 851 80947520 3006 1 79 5942
1.9805756 5.3774529 1.6593608 787 80947520 2800 2 46 5966
1.7638508 5.4088731 1.5892044 827 80947520 2885 3 40 5907
2.381453 5.2197514 1.5498807 856 80947520 3025 4 65 5943
2.1836436 5.2988844 1.4872019 863 80947520 3024 5 41 5921
1.9773638 5.3623829 1.4237231 913 80947520 3169 6 61 5890
1.7849036 5.4546928 1.3719524 845 80947520 2944 7 70 5901
2.4003773 5.263906 1.3332121 851 80947520 3001 8 78 5937
2.1945434 5.3311439 1.2681865 824 80947520 2872 9 92 5903
2.0077574 5.4357448 1.2164854 811 80947520 2842 10 48 5921
1.8021487 5.4911771 1.156924 814 80947520 2826 11 52 5894
2.4126287 5.2929745 1.1160532 808 80947520 2835 12 92 5923
2.2151754 5.3754005 1.0556291 805 80947520 2810 13 54 5909
2.0291274 5.4903579 1.0051538 729 80947520 2572 14 78 5939
1.8225881 5.5488791 0.94815779 773 80947520 2705 15 47 5917
2.4317594 5.3346982 0.9034192 832 80947520 2927 16 46 5932
2.2435069 5.4406457 0.8490988 772 80947520 2731 17 63 5946
2.0444372 5.5225921 0.79285711 737 80947520 2600 18 48 5942
1.8448961 5.6052446 0.73783892 760 80947520 2689 19 78 5947
2.4616416 5.400003 0.69348258 780 80947520 2786 20 75 5975
2.2539449 5.4635229 0.6330778 780 80947520 2757 21 69 5944
2.0664854 5.5740809 0.57964629 735 80947520 2621 22 53 5973
1.8594872 5.6392999 0.52357739 765 80947520 2719 23 98 5961
2.4851749 5.4488549 0.47953567 763 80947520 2755 24 81 6008
2.2828355 5.5294466 0.42177513 731 80947520 2630 25 88 5997
2.0771475 5.6022406 0.36408091 739 80947520 2648 26 97 5986
1.8732269 5.6696534 0.3073934 806 80947520 2882 27 80 5979
2.4975955 5.469007 0.2613472 865 80947520 3134 28 74 6018
2.2967572 5.5576673 0.20379797 714 80947520 2584 29 34 6017
2.1173611 5.6942301 0.14985277 724 80947520 2673 30 34 6077
1.8961064 5.7318487 0.090204477 840 80947520 3064 31 61 6038
2.5126433 5.5011954 0.042222664 779 80947520 2850 32 79 6048
2.3249538 5.6200604 -0.015391869 765 80947520 2828 33 50 6082
2.1317976 5.7309108 -0.072999455 799 80947520 2986 34 52 6115
1.9190879 5.7887812 -0.13083556 877 80947520 3265 35 60 6100
2.5396433 5.5531263 -0.18133767 854 80947520 3188 36 100 6109
2.3395457 5.6436176 -0.23896825 819 80947520 3060 37 51 6114
2.1398439 5.7451758 -0.29844889 846 80947520 3186 38 138 6138
1.9290688 5.8192277 -0.35660374 878 80947520 3313 39 63 6141
2.5569985 5.5794845 -0.40732944 932 80947520 3527 40 91 6151
2.3616633 5.6896715 -0.46676677 851 80947520 3249 41 89 6178
2.1591823 5.792151 -0.52776891 847 80947520 3260 42 99 6204
1.9462798 5.860528 -0.58601725 889 80947520 3422 43 63 6203
2.5974679 5.662571 -0.64313734 934 80947520 3665 44 100 6263
2.3901384 5.7517509 -0.7017312 878 80947520 3448 45 54 6268
2.1860006 5.8547249 -0.76369011 892 80947520 3538 46 69 6296
1.9746478 5.9410944 -0.82667696 885 80947520 3529 47 122 6315
2.6191924 5.6973314 -0.88004029 936 80947520 3755 48 61 6332
2.4168415 5.8088565 -0.94398737 886 80947520 3584 49 47 6362
2.2105675 5.9110751 -1.0086955 875 80947520 3572 50 51 6391
1.9877665 5.9749894 -1.0686691 931 80947520 3800 51 63 6387
2.6463594 5.7429514 -1.1270428 947 80947520 3909 52 73 6423
2.4376583 5.8505387 -1.1910594 852 80947520 3545 53 76 6449
2.2288795 5.954339 -1.2575014 917 80947520 3853 54 72 6481
2.0154846 6.05866 -1.329266 971 80947520 4128 55 57 6522
2.6796923 5.8067532 -1.3873745 925 80947520 3961 56 104 6544
2.4722931 5.9249249 -1.4556527 888 80947520 3846 57 46 6583
2.249522 6.0059719 -1.5196161 873 80947520 3791 58 37 6591
1.6829429 5.0575471 -1.3190923 717 80947520 2163 59 64 5491
2.7147715 5.8647323 -1.6584694 914 80947520 4067 60 54 6672
2.2336431 5.3403993 -1.5437158 74 80947520 265 61 25 5991
1.9729131 5.2643805 -1.5586762 72 80947520 244 62 33 5834
1.5830988 4.7641578 -1.4481806 100 80947520 272 63 35 5225
2.4034719 5.1766839 1.7814912 859 81045270 3069 0 49 5979
2.1939144 5.2388453 1.7047418 882 81045270 3103 1 71 5930
2.0135338 5.3651991 1.6593608 772 81045270 2746 2 46 5966
1.8006564 5.4089146 1.592433 854 81045270 2991 3 41 5919
2.4085629 5.1945305 1.5467513 879 81045270 3094 4 61 5931
2.216116 5.2853861 1.4872019 855 81045270 2996 5 40 5921
2.022516 5.3828492 1.4324249 808 81045270 2839 6 66 5926
1.8183393 5.4436378 1.3719524 849 81045270 2958 7 74 5901
2.4375479 5.2596879 1.3359069 837 81045270 2964 8 70 5949
2.2407961 5.3500075 1.2759205 760 81045270 2682 9 80 5939
2.0452092 5.4343138 1.2189507 786 81045270 2766 10 48 5933
1.8395456 5.4911728 1.1592795 824 81045270 2873 11 35 5906
2.4500141 5.288765 1.1183144 867 81045270 3055 12 78 5935
2.2526822 5.3725958 1.0577729 774 81045270 2715 13 70 5921
2.0669453 5.4888725 1.0071847 743 81045270 2632 14 66 5951
1.856601 5.5375919 0.94815779 811 81045270 2837 15 50 5917
2.4744177 5.3411994 0.90707433 811 81045270 2876 16 47 5956
2.272253 5.4158254 0.84738523 778 81045270 2741 17 67 5934
2.0782847 5.5099435 0.79285711 751 81045270 2650 18 52 5942
1.8830463 5.6051059 0.73932773 780 81045270 2772 19 61 5959
2.494729 5.3847971 0.69348258 796 81045270 2843 20 91 5975
2.30128 5.4825959 0.63691211 759 81045270 2715 21 78 5980
2.1048687 5.5724692 0.58081084 752 81045270 2692 22 53 5985
1.897867 5.6391129 0.52463138 743 81045270 2652 23 101 5973
2.5135312 5.4226508 0.47857785 749 81045270 2694 24 69 5996
2.3120847 5.5042992 0.42093116 777 81045270 2784 25 72 5985
2.1199489 5.6118002 0.36554065 748 81045270 2703 26 78 6010
1.9156388 5.6807647 0.30862731 812 81045270 2927 27 74 6003
2.5311058 5.4535794 0.2613472 848 81045270 3073 28 70 6018
2.3401122 5.5655813 0.20461087 745 81045270 2717 29 45 6041
2.1437607 5.6586947 0.14926095 752 81045270 2754 30 35 6053
1.9350787 5.7314749 0.090383753 840 81045270 3077 31 59 6050
2.5564554 5.507443 0.042390216 805 81045270 2969 32 84 6072
2.3500838 5.5835686 -0.01533113 792 81045270 2906 33 35 6058
2.1626694 5.706502 -0.072856203 792 81045270 2949 34 44 6103
1.9584162 5.7882614 -0.13109295 872 81045270 3259 35 59 6112
2.5787244 5.548316 -0.18169387 850 81045270 3186 36 84 6121
2.3741302 5.6291561 -0.23896825 838 81045270 3131 37 54 6114
2.1750555 5.7319379 -0.29844889 821 81045270 3092 38 133 6138
1.9724171 5.8299775 -0.35799742 848 81045270 3225 39 69 6165
2.6012955 5.5853982 -0.40891874 975 81045270 3719 40 78 6175
2.4058399 5.6971197 -0.46858004 862 81045270 3317 41 82 6202
2.1946816 5.7787933 -0.52776891 860 81045270 3310 42 108 6204
1.9860373 5.8597898 -0.58715093 890 81045270 3440 43 61 6215
2.6271205 5.6357079 -0.64190507 965 81045270 3772 44 83 6251
2.4300287 5.7479606 -0.70307469 864 81045270 3409 45 72 6280
2.2218833 5.8412013 -0.76369011 884 81045270 3506 46 75 6296
2.0110645 5.9288664 -0.82667696 885 81045270 3530 47 84 6315
2.6490712 5.6703868 -0.87837249 936 81045270 3740 48 76 6320
2.4478126 5.7829895 -0.9422068 865 81045270 3486 49 40 6350
2.2383583 5.8752537 -1.0049076 908 81045270 3679 50 40 6367
2.0281944 5.9738832 -1.0706769 976 81045270 3998 51 65 6399
2.6865578 5.7373042 -1.1291484 926 81045270 3836 52 86 6435
2.4689081 5.8246131 -1.188843 847 81045270 3511 53 61 6437
2.2653725 5.9405508 -1.2575014 921 81045270 3870 54 66 6481
2.0526218 6.0461793 -1.329266 946 81045270 4026 55 69 6522
2.7202504 5.8008189 -1.3899187 865 81045270 3719 56 81 6556
2.5040283 5.8988709 -1.4529991 916 81045270 3953 57 50 6571
2.2904942 6.0029659 -1.5223829 890 81045270 3878 58 41 6603
1.7139437 5.0471253 -1.3190923 569 81045270 1717 59 78 5491
2.7556529 5.8584824 -1.6614524 920 81045270 4108 60 55 6684
2.488807 5.8493838 -1.6952274 126 81045270 543 61 53 6579
1.9804307 5.187356 -1.5394399 71 81045270 235 62 29 5762
1.6048955 4.7325163 -1.4415287 202 81045270 546 63 31 5201
2.4254153 5.141119 1.7743403 871 81143240 3090 0 60 5955
2.2305226 5.2358589 1.7081916 911 81143240 3215 1 57 5942
2.0423 5.3419771 1.6560231 818 81143240 2898 2 50 5954
1.833811 5.3977642 1.592433 835 81143240 2927 3 58 5919
2.4403906 5.1796541 1.5467513 908 81143240 3195 4 81 5931
2.2485046 5.2716889 1.4872019 883 81143240 3094 5 29 5921
2.0513444 5.3594637 1.4295243 812 81143240 2841 6 81 5914
1.8554721 5.4434252 1.3747423 853 81143240 2984 7 60 5913
2.464793 5.2340531 1.3332121 817 81143240 2881 8 82 5937
2.2689869 5.3253756 1.2733425 797 81143240 2801 9 79 5927
2.074311 5.410697 1.2164854 815 81143240 2857 10 34 5921
1.8770103 5.4909163 1.1616349 802 81143240 2807 11 52 5918
2.4774001 5.2629695 1.1160532 833 81143240 2924 12 73 5923
2.2856054 5.3586726 1.0577729 770 81143240 2698 13 54 5921
2.0878782 5.4429598 1.001092 735 81143240 2573 14 69 5915
1.8905441 5.5260954 0.94815779 779 81143240 2729 15 58 5917
2.4970412 5.3044553 0.9034192 834 81143240 2937 16 60 5932
2.3101032 5.4127045 0.8490988 774 81143240 2738 17 68 5946
2.1163194 5.5081892 0.79445833 739 81143240 2621 18 59 5954
1.9096808 5.570919 0.73635012 762 81143240 2686 19 69 5935
2.522646 5.3586044 0.6920898 794 81143240 2825 20 75 5963
2.3348773 5.4683723 0.63691211 760 81143240 2719 21 86 5980
2.1390212 5.5594492 0.58081084 745 81143240 2670 22 66 5985
1.92855 5.6160564 0.52357739 801 81143240 2848 23 77 5961
2.5467567 5.4071259 0.47857785 782 81143240 2813 24 65 5996
2.3411114 5.479001 0.42008716 769 81143240 2744 25 80 5973
2.1500409 5.5875077 0.36481076 737 81143240 2651 26 102 5998
1.9465603 5.6575718 0.30801037 804 81143240 2886 27 89 5991
2.559407 5.427103 0.26082608 872 81143240 3147 28 83 6006
2.374218 5.5511179 0.20461087 726 81143240 2648 29 29 6041
2.1741226 5.6342421 0.14896505 777 81143240 2834 30 45 6041
1.9741179 5.7308378 0.090563029 866 81143240 3184 31 74 6062
2.5850813 5.4808002 0.042306442 782 81143240 2873 32 66 6060
2.3842995 5.5690436 -0.01533113 806 81143240 2957 33 50 6058
2.1933219 5.6819305 -0.07271295 790 81143240 2929 34 57 6091
1.9938954 5.7761359 -0.13109295 846 81143240 3162 35 67 6112
2.6127195 5.5323892 -0.18169387 860 81143240 3223 36 79 6121
2.4133527 5.6255026 -0.23943728 824 81143240 3091 37 54 6126
2.2188268 5.7408433 -0.29961583 810 81143240 3074 38 146 6162
2.0003345 5.7951169 -0.35660374 863 81143240 3254 39 42 6141
2.6303961 5.5585089 -0.40812406 916 81143240 3480 40 85 6163
2.4313066 5.6602621 -0.46676677 856 81143240 3268 41 85 6178
2.2387254 5.7875209 -0.52981055 812 81143240 3149 42 110 6228
2.021955 5.8474932 -0.58715093 899 81143240 3474 43 60 6215
2.67187 5.641057 -0.64436954 865 81143240 3407 44 92 6275
2.4652519 5.7329416 -0.70307469 877 81143240 3457 45 55 6280
2.2533793 5.8163514 -0.76223451 899 81143240 3552 46 85 6284
2.0396242 5.89393 -0.82353514 896 81143240 3546 47 108 6291
2.6838143 5.6540256 -0.87837249 946 81143240 3780 48 73 6320
2.4879429 5.7787609 -0.94398737 880 81143240 3560 49 43 6362
2.2743659 5.8614087 -1.0049076 894 81143240 3622 50 45 6367
2.0686834 5.9725056 -1.0726848 862 81143240 3541 51 56 6411
2.7217107 5.7207122 -1.1291484 930 81143240 3852 52 104 6435
2.5046008 5.8093543 -1.188843 866 81143240 3590 53 75 6437
2.2975185 5.9155655 -1.255173 904 81143240 3784 54 76 6469
2.0896819 6.0334706 -1.329266 935 81143240 3979 55 61 6522
2.7658808 5.8051929 -1.3950069 858 81143240 3716 56 80 6580
2.5355372 5.8726516 -1.4503458 915 81143240 3938 57 58 6559
2.3315141 5.9996824 -1.5251496 815 81143240 3564 58 53 6615
1.7753861 5.1245685 -1.3421541 417 81143240 1302 59 87 5587
2.7965596 5.8519506 -1.6644351 873 81143240 3916 60 65 6696
2.5937252 5.9936194 -1.7416084 547 81143240 2498 61 33 6759
1.9828879 5.0996628 -1.5169976 167 81143240 537 62 38 5678
1.6301335 4.7116833 -1.4382026 327 81143240 879 63 41 5189
2.4618661 5.1364703 1.7779158 842 81241180 2999 0 68 5967
2.2580378 5.2115278 1.7047418 906 81241180 3188 1 59 5930
2.0708573 5.318604 1.6526855 784 81241180 2767 2 49 5942
1.8668965 5.3864102 1.592433 867 81241180 3036 3 56 5919
2.4771283 5.1750321 1.5498807 876 81241180 3095 4 77 5943
2.2808089 5.2577929 1.4872019 885 81241180 3101 5 27 5921
2.0884197 5.3576245 1.4324249 797 81241180 2801 6 63 5926
1.8888375 5.4319377 1.3747423 864 81241180 3022 7 66 5913
2.4968619 5.2188311 1.3332121 838 81241180 2955 8 77 5937
2.2969604 5.3006001 1.2707645 864 81241180 3024 9 81 5915
2.1117425 5.4088068 1.2189507 805 81241180 2833 10 44 5933
1.9106666 5.4792957 1.1616349 830 81241180 2906 11 32 5918
2.5147309 5.2583013 1.1183144 828 81241180 2918 12 77 5935
2.3184426 5.3445473 1.0577729 796 81241180 2793 13 64 5921
2.1298432 5.4520783 1.0051538 783 81241180 2763 14 70 5939
1.9244159 5.5143914 0.94815779 768 81241180 2687 15 50 5917
2.5397761 5.3104324 0.90707433 847 81241180 3004 16 49 5956
2.3385425 5.3875337 0.84738523 784 81241180 2762 17 69 5934
2.1414104 5.47295 0.79125595 708 81241180 2491 18 62 5930
1.9438274 5.5590963 0.73635012 776 81241180 2735 19 67 5935
2.5657637 5.3645296 0.69487536 817 81241180 2930 20 64 5987
2.3683865 5.4539428 0.63691211 729 81241180 2609 21 61 5980
2.168736 5.5350995 0.57964629 734 81241180 2620 22 68 5973
1.9669247 5.6153984 0.52463138 772 81241180 2755 23 88 5973
2.574723 5.3806076 0.47762007 766 81241180 2744 24 78 5984
2.3842278 5.4864902 0.42177513 784 81241180 2821 25 63 5997
2.1842847 5.5742102 0.36481076 735 81241180 2645 26 88 5998
1.9812378 5.6455212 0.30801037 814 81241180 2923 27 59 5991
2.603019 5.43292 0.26186833 871 81241180 3169 28 73 6030
2.4082341 5.5364456 0.20461087 713 81241180 2601 29 42 6041
2.2130401 5.6319613 0.14926095 778 81241180 2849 30 37 6053
2.0012896 5.6959763 0.090204477 842 81241180 3072 31 61 6038
2.6238477 5.4756565 0.042390216 809 81241180 2984 32 70 6072
2.4280069 5.5763135 -0.015391869 719 81241180 2658 33 48 6082
2.2325339 5.679533 -0.072856203 768 81241180 2862 34 74 6103
2.0213311 5.7411599 -0.13057818 878 81241180 3255 35 69 6088
2.6466165 5.5162535 -0.18169387 865 81241180 3241 36 100 6121
2.4430299 5.5995979 -0.23896825 833 81241180 3112 37 53 6114
2.2496207 5.7159677 -0.29903236 859 81241180 3248 38 135 6150
2.0438113 5.8053341 -0.35799742 851 81241180 3236 39 63 6165
2.669641 5.5530558 -0.40891874 953 81241180 3635 40 71 6175
2.4659915 5.6452374 -0.46676677 875 81241180 3340 41 90 6178
2.2566674 5.729177 -0.52572721 862 81241180 3292 42 113 6180
2.0577965 5.8349767 -0.58715093 858 81241180 3312 43 54 6215
2.6960814 5.6030445 -0.64190507 925 81241180 3616 44 92 6251
2.4860487 5.6849308 -0.69904435 864 81241180 3367 45 50 6244
2.2890253 5.8024154 -0.76223451 899 81241180 3552 46 69 6284
2.0797098 5.8925223 -0.82510608 908 81241180 3608 47 96 6303
2.7236178 5.6481557 -0.88004029 953 81241180 3822 48 74 6332
2.5233541 5.7633862 -0.94398737 861 81241180 3483 49 38 6362
2.310288 5.847343 -1.0049076 908 81241180 3680 50 36 6367
2.1052911 5.9596996 -1.0726848 862 81241180 3545 51 69 6411
2.7567611 5.7039042 -1.1291484 909 81241180 3765 52 86 6435
2.5544057 5.8262806 -1.1954919 914 81241180 3831 53 70 6473
2.3381016 5.9123039 -1.2575014 899 81241180 3774 54 56 6481
2.1227503 6.0094576 -1.3268203 936 81241180 3968 55 67 6510
2.7912307 5.7670007 -1.3899187 912 81241180 3920 56 96 6556
2.5762281 5.8676982 -1.4529991 898 81241180 3876 57 42 6571
2.3639872 5.9744058 -1.5223829 871 81241180 3795 58 55 6603
1.8184384 5.1465273 -1.3508023 405 81241180 1282 59 65 5623
2.8374901 5.8451376 -1.667418 874 81241180 3931 60 45 6708
2.6257823 5.966979 -1.7385163 736 81241180 3349 61 40 6747
1.9843444 5.0121374 -1.4945552 555 81241180 1736 62 39 5594
1.6513401 4.6798468 -1.4315507 189 81241180 503 63 40 5165
2.5033648 5.1418657 1.7850667 832 81338260 2987 0 73 5991
2.2946067 5.2080927 1.7081916 902 81338260 3186 1 77 5942
2.1077006 5.3165126 1.6560231 802 81338260 2842 2 41 5954
1.8999118 5.3748541 1.592433 863 81338260 3022 3 48 5919
2.5088351 5.1597352 1.5498807 883 81338260 3120 4 79 5943
2.3177147 5.2543263 1.4902159 850 81338260 2991 5 30 5933
2.1255496 5.3555322 1.4353255 780 81338260 2752 6 67 5938
1.9182309 5.409246 1.3719524 857 81338260 2986 7 58 5901
2.5339484 5.2139297 1.3359069 843 81338260 2984 8 87 5949
2.3388927 5.3078556 1.2759205 769 81338260 2714 9 84 5939
2.1405525 5.3848348 1.2164854 795 81338260 2786 10 50 5921
1.9403086 5.4563828 1.1592795 820 81338260 2859 11 38 5906
2.546948 5.2427721 1.1183144 834 81338260 2939 12 87 5935
2.3607225 5.3518262 1.0620604 817 81338260 2890 13 61 5945
2.1632564 5.4389071 1.0051538 723 81338260 2551 14 66 5939
1.9502727 5.4801607 0.94431192 783 81338260 2718 15 41 5893
2.5671299 5.284081 0.90524679 845 81338260 2984 16 48 5944
2.3763514 5.3839488 0.8490988 808 81338260 2855 17 55 5946
2.1793528 5.4707556 0.79285711 756 81338260 2671 18 63 5942
1.9739016 5.5358491 0.73486125 753 81338260 2643 19 69 5923
2.6038399 5.359406 0.69626808 761 81338260 2740 20 84 5999
2.4018066 5.4393082 0.63691211 790 81338260 2827 21 69 5980
2.207083 5.5327811 0.58081084 746 81338260 2671 22 55 5985
1.9973224 5.5919671 0.52357739 757 81338260 2691 23 96 5961
2.6076894 5.3647084 0.47762007 796 81338260 2852 24 79 5984
2.4081709 5.4498596 0.42008716 775 81338260 2766 25 72 5973
2.2140079 5.5495777 0.36408091 767 81338260 2748 26 106 5986
2.0158408 5.6332583 0.30801037 792 81338260 2843 27 86 5991
2.6310594 5.4060659 0.2613472 859 81338260 3113 28 74 6018
2.4421599 5.5215645 0.20461087 755 81338260 2754 29 35 6041
2.2430997 5.6071382 0.14896505 787 81338260 2871 30 30 6041
2.0402486 5.6948853 0.090383753 830 81338260 3040 31 64 6050
2.6521444 5.4486647 0.042306442 815 81338260 2995 32 59 6060
2.4573188 5.5503378 -0.015361499 772 81338260 2843 33 56 6070
2.2717991 5.676868 -0.072999455 797 81338260 2979 34 52 6115
2.0565202 5.7286491 -0.13057818 853 81338260 3160 35 49 6088
2.6804137 5.4999104 -0.18169387 845 81338260 3167 36 80 6121
2.4822047 5.5954633 -0.23943728 853 81338260 3200 37 47 6126
2.2846508 5.7020569 -0.29903236 862 81338260 3260 38 119 6150
2.0712988 5.7701335 -0.35660374 861 81338260 3249 39 65 6141
2.7036638 5.5365705 -0.40891874 926 81338260 3532 40 75 6175
2.5054405 5.6409354 -0.46767339 873 81338260 3346 41 82 6190
2.2962284 5.7263198 -0.52674806 866 81338260 3320 42 100 6192
2.0976026 5.8334823 -0.58828461 864 81338260 3349 43 45 6227
2.735652 5.5971203 -0.64313734 924 81338260 3625 44 100 6263
2.5354183 5.7022576 -0.70307469 893 81338260 3520 45 42 6280
