# .PCD v0.7 - Point Cloud Data file format
VERSION 0.7
FIELDS x y z intensity t reflectivity ring noise range
SIZE 4 4 4 4 4 2 1 2 4
TYPE F F F F U U U U U
COUNT 1 1 1 1 1 1 1 1 1
WIDTH 773
HEIGHT 1
VIEWPOINT 0 0 0 1 0 0 0
POINTS 773
DATA ascii
0.66500264 -1.9500084 -0.57121181 414 20009250 189 62 69 2138
0.75764859 -1.9743923 -0.61003745 405 20009250 196 63 75 2201
0.498757 -1.932707 0.6230303 398 20107960 174 0 57 2091
0.58021617 -1.9398487 0.60772753 407 20107960 182 1 90 2114
0.67681861 -1.9876724 0.60800582 339 20107960 162 2 65 2186
0.74114937 -1.9345815 0.57869965 411 20107960 190 3 52 2151
0.34007388 -1.315051 0.3669329 441 20107960 87 4 16 1407
0.57304859 -1.9189346 0.51967919 390 20107960 167 5 40 2069
0.6667102 -1.9604529 0.51582766 403 20107960 184 6 107 2134
0.73188198 -1.9161955 0.49033174 439 20107960 195 7 70 2109
0.33619744 -1.299032 0.309219 407 20107960 77 8 46 1377
0.40601864 -1.3577094 0.31172937 385 20107960 81 9 1 1451
0.64335787 -1.8951489 0.42015076 410 20107960 171 10 53 2045
0.73373365 -1.9260845 0.41259828 418 20107960 184 11 46 2102
0.34740564 -1.3414706 0.26587051 381 20107960 76 12 50 1411
0.40682372 -1.362307 0.2581459 403 20107960 84 13 3 1445
0.45184737 -1.3318535 0.24151447 393 20107960 80 14 101 1427
0.7167263 -1.8828222 0.32705593 410 20107960 171 15 60 2041
0.34587574 -1.335659 0.21260506 356 20107960 69 16 1 1396
0.41260564 -1.3828129 0.20820487 397 20107960 84 17 51 1458
0.46603486 -1.376119 0.19561234 403 20107960 86 18 56 1466
0.53959519 -1.4201117 0.18994978 367 20107960 86 19 96 1531
0.36126313 -1.3951805 0.1684089 351 20107960 74 20 27 1451
0.41372037 -1.3873441 0.15507425 381 20107960 81 21 33 1456
0.47725201 -1.4114301 0.1452755 369 20107960 83 22 99 1497
0.73665959 -1.9419115 0.1831335 336 20107960 146 23 137 2085
0.35255432 -1.3626255 0.11270045 379 20107960 76 24 15 1412
0.41611642 -1.396714 0.10275362 391 20107960 83 25 24 1461
0.65920377 -1.9497604 0.1254151 346 20107960 147 26 151 2062
0.74799412 -1.9753243 0.10873675 355 20107960 159 27 78 2115
0.35218206 -1.363935 0.061232895 395 20107960 79 28 34 1410
0.56235439 -1.8899791 0.066826224 272 20107960 106 29 49 1973
0.67594606 -2.0055077 0.052203111 331 20107960 148 30 55 2117
0.7478224 -1.9770585 0.031582024 373 20107960 167 31 70 2114
0.446917 -1.7312001 0.012482494 277 20107960 89 32 78 1788
0.59416884 -1.999583 -0.0052790921 352 20107960 153 33 76 2086
0.68415898 -2.0306947 -0.02558264 253 20107960 116 34 125 2143
0.75140053 -1.9904015 -0.045642305 364 20107960 165 35 73 2128
0.50897747 -1.9755893 -0.060584415 335 20107960 139 36 134 2041
0.58089513 -1.960174 -0.079968765 361 20107960 151 37 72 2046
0.65929818 -1.9596163 -0.10064992 392 20107960 168 38 140 2070
0.74364048 -1.9697417 -0.12246822 353 20107960 157 39 75 2109
0.5020678 -1.955124 -0.13396642 397 20107960 162 40 56 2023
0.58331627 -1.9716277 -0.15579039 374 20107960 159 41 86 2062
0.65523547 -1.9493419 -0.17558269 376 20107960 160 42 149 2064
0.7412051 -1.9665103 -0.19943292 389 20107960 174 43 67 2111
0.50378513 -1.964658 -0.2093816 448 20107960 186 44 84 2039
0.58221108 -1.9707998 -0.23152205 380 20107960 163 45 76 2068
0.66185129 -1.9724431 -0.25423992 404 20107960 178 46 111 2096
0.73485422 -1.9511049 -0.27529716 386 20107960 171 47 142 2103
0.5050571 -1.9764988 -0.28630495 420 20107960 178 48 66 2060
0.58806503 -1.9938171 -0.31189269 380 20107960 168 49 54 2102
0.66083992 -1.9728535 -0.33254912 386 20107960 172 50 59 2107
0.7469089 -1.9847915 -0.35990405 388 20107960 180 51 76 2151
0.49621567 -1.9491299 -0.35848483 435 20107960 182 52 95 2043
0.57425553 -1.9506345 -0.3821215 402 20107960 172 53 88 2069
0.66149724 -1.9768778 -0.4123114 401 20107960 181 54 107 2125
0.73861802 -1.9626558 -0.43656668 418 20107960 192 55 42 2142
0.49173814 -1.9360641 -0.43334258 427 20107960 178 56 106 2044
0.57597798 -1.9602733 -0.46325266 393 20107960 173 57 73 2095
0.65268242 -1.95178 -0.48763284 416 20107960 186 58 81 2115
0.74483871 -1.9797095 -0.52345693 418 20107960 199 59 86 2179
0.5012787 -1.9833448 -0.52498311 458 20107960 204 60 43 2112
0.57120025 -1.9500513 -0.54188526 450 20107960 199 61 41 2103
0.64935994 -1.9430846 -0.5680058 413 20107960 187 62 67 2126
0.7373904 -1.9574245 -0.60338545 401 20107960 190 63 43 2177
0.48688874 -1.9357308 0.6230303 394 20203800 172 0 65 2091
0.56830251 -1.9433722 0.60772753 409 20203800 183 1 68 2114
0.66096133 -1.980854 0.60466814 354 20203800 168 2 65 2174
0.74147028 -1.9715461 0.58838499 436 20203800 208 3 47 2187
0.33766159 -1.3395797 0.37319189 449 20203800 92 4 1 1431
0.55475289 -1.900115 0.51365107 419 20203800 175 5 35 2045
0.63626176 -1.9092724 0.50132453 388 20203800 167 6 98 2074
0.73650008 -1.9643633 0.50149143 445 20203800 207 7 92 2157
0.33394101 -1.3237469 0.31460842 429 20203800 84 8 1 1401
0.40096912 -1.371424 0.31430742 395 20203800 85 9 3 1463
0.62059665 -1.8656299 0.41275445 377 20203800 152 10 64 2009
0.7219016 -1.9305503 0.41259828 429 20203800 189 11 55 2102
0.33916798 -1.3435769 0.26587051 282 20203800 56 12 53 1411
0.40507507 -1.3874452 0.26243344 386 20203800 83 13 21 1469
0.44739765 -1.3458239 0.24354543 366 20203800 76 14 79 1439
0.61809468 -1.6541759 0.28667471 320 20203800 102 15 81 1789
0.34057644 -1.3492556 0.21443263 341 20203800 68 16 3 1408
0.40078709 -1.3739167 0.20649125 348 20203800 73 17 42 1446
0.45383686 -1.3676652 0.19401115 364 20203800 77 18 88 1454
0.51006651 -1.367613 0.18250564 376 20203800 81 19 75 1471
0.35269567 -1.3973709 0.1684089 364 20203800 77 20 7 1451
0.40853956 -1.4013114 0.15635233 341 20203800 73 21 35 1468
0.4573141 -1.3803198 0.1417819 335 20203800 72 22 91 1461
0.72055936 -1.9351928 0.18207951 370 20203800 159 23 126 2073
0.34711188 -1.3763616 0.11365825 354 20203800 72 24 4 1424
0.40084383 -1.3762554 0.10106567 361 20203800 74 25 25 1437
0.61709505 -1.8628074 0.11957619 348 20203800 134 26 118 1966
0.72750956 -1.9574101 0.10750287 288 20203800 126 27 131 2091
0.34965849 -1.3893224 0.062275156 405 20203800 83 28 1 1434
0.4703542 -1.6170142 0.057071563 296 20203800 84 29 38 1685
0.66738951 -2.021009 0.052499022 321 20203800 146 30 58 2129
0.73567736 -1.9816099 0.031582024 382 20203800 171 31 53 2114
0.36308375 -1.4429852 0.010388115 297 20203800 66 32 79 1488
0.57184625 -1.9686203 -0.005187986 334 20203800 140 33 57 2050
0.66416365 -2.0120656 -0.025296133 298 20203800 134 34 88 2119
0.73917347 -1.9949745 -0.045642305 356 20203800 161 35 106 2128
0.49392471 -1.9670415 -0.060228206 350 20203800 144 36 135 2029
0.57552963 -1.9867362 -0.080906816 369 20203800 158 37 44 2070
0.65851849 -1.9977748 -0.10240036 363 20203800 161 38 145 2106
0.73154032 -1.9742675 -0.12246822 369 20203800 164 39 73 2109
0.49587587 -1.9813988 -0.13555574 449 20203800 188 40 71 2047
0.56455922 -1.9521804 -0.15397713 363 20203800 151 41 91 2038
0.65074193 -1.9760387 -0.17762434 404 20203800 176 42 155 2088
0.73326963 -1.9822255 -0.20056662 402 20203800 181 43 74 2123
0.49172077 -1.9677122 -0.2093816 450 20203800 187 44 87 2039
0.57672387 -1.9972481 -0.23420896 384 20203800 168 45 71 2092
0.64229631 -1.9538356 -0.25132874 382 20203800 164 46 120 2072
0.73111814 -1.9778947 -0.27843893 407 20203800 184 47 91 2127
0.49292001 -1.9795606 -0.28630495 423 20203800 180 48 66 2060
0.56924564 -1.9745823 -0.30833161 387 20203800 167 49 46 2078
0.64502758 -1.9656123 -0.33065516 388 20203800 170 50 72 2095
0.72651875 -1.9671409 -0.3558884 407 20203800 184 51 77 2127
0.4899354 -1.9750707 -0.36269614 458 20203800 196 52 84 2067
0.56553704 -1.9654551 -0.38433778 400 20203800 173 53 75 2081
0.64935488 -1.9808995 -0.4123114 385 20203800 174 54 86 2125
0.72656149 -1.9671509 -0.43656668 439 20203800 202 55 82 2142
0.48548362 -1.9618125 -0.43843073 450 20203800 193 56 87 2068
0.56393915 -1.9637705 -0.46325266 410 20203800 180 57 58 2095
0.64796454 -1.977941 -0.4931663 412 20203800 189 58 85 2139
0.72460759 -1.9623877 -0.51769149 457 20203800 212 59 81 2155
0.48076281 -1.9525245 -0.5160346 453 20203800 195 60 35 2076
0.55922419 -1.9535195 -0.54188526 447 20203800 198 61 40 2103
0.63022935 -1.9250526 -0.56159365 414 20203800 183 62 57 2102
0.72136772 -1.951098 -0.60005951 416 20203800 195 63 63 2165
0.46137226 -1.8830526 0.60515285 359 20302190 148 0 49 2031
0.55005115 -1.9247208 0.60082811 391 20302190 171 1 73 2090
0.64879459 -1.9848723 0.60466814 342 20302190 162 2 66 2174
0.71735322 -1.9435308 0.57869965 410 20302190 190 3 57 2151
0.31838545 -1.2966241 0.3606739 444 20302190 85 4 16 1383
0.48253438 -1.6912611 0.45638335 337 20302190 111 5 27 1817
0.6281482 -1.9242098 0.50422519 375 20302190 163 6 92 2086
0.71234238 -1.9359857 0.49312162 439 20302190 198 7 104 2121
0.33139375 -1.3484824 0.31999788 419 20302190 85 8 2 1425
0.38288727 -1.340052 0.30657327 403 20302190 82 9 14 1427
0.45996112 -1.4115897 0.31167173 381 20302190 88 10 52 1517
0.71409595 -1.9459898 0.41495377 443 20302190 198 11 57 2114
0.36750379 -1.4944057 0.29526511 196 20302190 48 12 60 1567
0.38683611 -1.3558429 0.25600213 395 20302190 81 13 19 1433
0.44279343 -1.3597895 0.2455764 404 20302190 85 14 101 1451
0.48559895 -1.324311 0.22898722 383 20302190 78 15 75 1429
0.34361926 -1.3973876 0.22174282 279 20302190 59 16 1 1456
0.39560536 -1.3877721 0.20820487 318 20302190 68 17 39 1458
0.45278889 -1.3930446 0.19721353 297 20302190 65 18 67 1478
0.50575781 -1.3818988 0.18399446 358 20302190 79 19 65 1483
0.33842313 -1.3763603 0.16562337 335 20302190 68 20 17 1427
0.39012593 -1.3693663 0.15251808 319 20302190 65 21 56 1432
0.44883603 -1.3830999 0.1417819 301 20302190 64 22 89 1461
0.67585325 -1.8497564 0.17364745 371 20302190 145 23 137 1977
0.34722176 -1.4133143 0.11653163 340 20302190 72 24 24 1460
0.39566851 -1.3902022 0.10190965 309 20302190 65 25 22 1449
0.49844721 -1.5361608 0.098410107 283 20302190 74 26 125 1618
0.72369754 -1.9843546 0.10873675 345 20302190 154 27 95 2115
0.3297087 -1.3448663 0.060190633 407 20302190 78 28 1 1386
0.40795985 -1.4352912 0.05056845 336 20302190 75 29 1 1493
0.64390105 -1.9908233 0.051611297 302 20302190 133 30 62 2093
0.7193976 -1.9748126 0.031402752 325 20302190 144 31 78 2102
0.34565303 -1.4102217 0.01013679 348 20302190 73 32 51 1452
0.56630945 -1.9951798 -0.0052487236 370 20302190 159 33 62 2074
0.6370405 -1.9704338 -0.02472312 325 20302190 140 34 86 2071
0.71872032 -1.976922 -0.045127545 373 20302190 165 35 70 2104
0.48184589 -1.9700351 -0.060228206 390 20302190 161 36 122 2029
0.56006271 -1.9786924 -0.080437794 386 20302190 164 37 73 2058
0.64256561 -1.9903716 -0.10181687 373 20302190 163 38 139 2094
0.71122587 -1.9562014 -0.12107455 360 20302190 157 39 68 2085
0.47520205 -1.9495051 -0.13317177 411 20302190 166 40 83 2011
0.55257028 -1.9556078 -0.15397713 362 20302190 150 41 97 2038
0.63126469 -1.9572358 -0.17558269 385 20302190 164 42 148 2064
0.71294135 -1.9642286 -0.19829926 402 20302190 177 43 73 2099
0.48528343 -1.9938884 -0.21184613 436 20302190 186 44 100 2063
0.5579825 -1.9777961 -0.23152205 381 20302190 163 45 56 2068
0.64124686 -1.9917547 -0.25569546 406 20302190 181 46 111 2108
0.70679957 -1.9487919 -0.27372628 369 20302190 161 47 142 2091
0.47516322 -1.95945 -0.28296936 410 20302190 170 48 75 2036
0.56355357 -2.0008833 -0.31189269 368 20302190 163 49 65 2102
0.63658017 -1.9808146 -0.33254912 395 20302190 175 50 51 2107
0.71846563 -1.9826849 -0.35789624 411 20302190 188 51 64 2139
0.47225949 -1.9550725 -0.35848483 435 20302190 182 52 84 2043
0.55346656 -1.9688882 -0.38433778 390 20302190 169 53 92 2081
0.63718808 -1.9848465 -0.4123114 422 20302190 191 54 94 2125
0.7144776 -1.971572 -0.43656668 413 20302190 190 55 75 2142
0.46794263 -1.9419527 -0.43334258 403 20302190 168 56 96 2044
0.54871798 -1.9559261 -0.46059921 411 20302190 178 57 67 2083
0.63581592 -1.9818796 -0.4931663 405 20302190 185 58 80 2139
0.70858508 -1.9558448 -0.51480871 478 20302190 220 59 89 2143
0.47419262 -1.9780439 -0.52200031 455 20302190 201 60 35 2100
0.54722708 -1.9569141 -0.54188526 435 20302190 192 61 43 2103
0.63252711 -1.9729303 -0.57441789 418 20302190 193 62 59 2150
0.70938241 -1.9554874 -0.60005951 415 20302190 194 63 53 2165
0.37007952 -1.5515766 0.49788794 310 20399470 86 0 51 1671
0.5444116 -1.9501998 0.60772753 395 20399470 177 1 84 2114
0.62606174 -1.9558824 0.59465522 353 20399470 162 2 73 2138
0.69754374 -1.9261621 0.5722428 418 20399470 189 3 42 2127
0.31042352 -1.2985532 0.3606739 459 20399470 88 4 4 1383
0.37236544 -1.3361443 0.35993251 379 20399470 78 5 7 1433
0.60923856 -1.9058453 0.4984239 374 20399470 159 6 112 2062
0.69252414 -1.9183646 0.48754176 425 20399470 187 7 81 2097
0.32039243 -1.3391179 0.31730315 410 20399470 82 8 1 1413
0.3683565 -1.3197994 0.30141717 415 20399470 82 9 13 1403
0.43344173 -1.358444 0.29934457 406 20399470 86 10 49 1457
0.69417083 -1.928193 0.41024286 408 20399470 178 11 32 2090
0.33637497 -1.4049436 0.27717614 302 20399470 65 12 56 1471
0.3753399 -1.3468175 0.25385836 400 20399470 81 13 15 1421
0.43803445 -1.3737488 0.24760734 377 20399470 81 14 71 1463
0.47746399 -1.3272656 0.22898722 384 20399470 78 15 41 1429
0.33227727 -1.3879356 0.21991527 259 20399470 54 16 8 1444
0.3966403 -1.4244987 0.21334572 261 20399470 58 17 38 1494
0.44423282 -1.3957967 0.19721353 151 20399470 33 18 55 1478
0.49726912 -1.384976 0.18399446 378 20399470 83 19 59 1483
0.33829603 -1.4131852 0.16980167 264 20399470 56 20 27 1463
0.40090877 -1.4407042 0.16018659 227 20399470 51 21 68 1504
0.45480809 -1.4313581 0.14644003 174 20399470 40 22 70 1509
0.51929086 -1.4487742 0.13570325 305 20399470 73 23 160 1545
0.32741311 -1.368884 0.11270045 339 20399470 68 24 26 1412
0.4031612 -1.4502685 0.10612951 214 20399470 49 25 67 1509
0.45274425 -1.4250352 0.091111459 343 20399470 77 26 127 1498
0.69536048 -1.9436229 0.10626898 340 20399470 145 27 94 2067
0.32979992 -1.3818475 0.061754026 389 20399470 79 28 19 1422
0.38631284 -1.391543 0.048942674 328 20399470 68 29 1 1445
0.63167346 -1.9947367 0.051611297 296 20399470 130 30 44 2093
0.70726687 -1.9791896 0.031402752 292 20399470 129 31 96 2102
0.33699355 -1.4123161 0.01013679 326 20399470 69 32 38 1452
0.55405664 -1.9986171 -0.0052487236 324 20399470 140 33 71 2074
0.62131703 -1.9628657 -0.024579866 306 20399470 130 34 82 2059
0.70254672 -1.9699947 -0.044870161 374 20399470 164 35 84 2092
0.47530535 -1.9962918 -0.06094062 355 20399470 150 36 132 2053
0.54791117 -1.9820917 -0.080437794 349 20399470 148 37 46 2058
0.61950403 -1.9599913 -0.10006644 368 20399470 156 38 153 2058
0.70323372 -1.9718122 -0.12177138 373 20399470 164 39 67 2097
0.46599531 -1.9640342 -0.13396642 430 20399470 176 40 76 2023
0.54692626 -1.9820306 -0.15579039 358 20399470 152 41 99 2062
0.61924344 -1.9610723 -0.17558269 380 20399470 162 42 122 2064
0.70087564 -1.9685662 -0.19829926 374 20399470 165 43 88 2099
0.46753687 -1.9735981 -0.2093816 443 20399470 184 44 77 2039
0.53950185 -1.9581902 -0.22883515 350 20399470 146 45 45 2044
0.62185216 -1.9729309 -0.25278434 388 20399470 169 46 119 2084
0.69482869 -1.953092 -0.27372628 370 20399470 162 47 109 2091
0.46040168 -1.950763 -0.28130159 419 20399470 171 48 55 2024
0.54811871 -1.9928615 -0.31011218 385 20399470 168 49 62 2090
0.62085789 -1.9733797 -0.33065516 402 20399470 176 50 56 2095
0.70628655 -1.9870559 -0.35789624 398 20399470 182 51 83 2139
0.45484769 -1.9349328 -0.35427359 435 20399470 177 52 77 2019
0.54137528 -1.9722471 -0.38433778 395 20399470 171 53 95 2081
0.61793852 -1.966258 -0.40765473 395 20399470 174 54 98 2101
0.69449711 -1.9537796 -0.43167514 408 20399470 183 55 68 2118
0.45869538 -1.9562049 -0.43588662 419 20399470 177 56 90 2056
0.53670633 -1.9592561 -0.46059921 392 20399470 170 57 73 2083
0.61314726 -1.952323 -0.48486617 406 20399470 180 58 68 2103
0.69657093 -1.9601557 -0.51480871 433 20399470 199 59 73 2143
0.45148557 -1.9356381 -0.51006883 418 20399470 176 60 32 2052
0.52910143 -1.9378641 -0.5357011 417 20399470 180 61 44 2079
0.61002129 -1.9436748 -0.56479973 435 20399470 195 62 62 2114
0.70123571 -1.9706658 -0.60338545 434 20399470 206 63 74 2177
0.30876738 -1.3306487 0.42637801 414 20497140 85 0 14 1431
0.51732343 -1.8980589 0.5904789 396 20497140 167 1 80 2054
0.61749536 -1.9706863 0.5979929 361 20497140 167 2 79 2150
0.68571192 -1.9304059 0.5722428 425 20497140 192 3 42 2127
0.31032279 -1.3342843 0.37006238 470 20497140 95 4 1 1419
0.36416 -1.3384041 0.35993251 411 20497140 84 5 1 1433
0.6010105 -1.9206605 0.50132453 372 20497140 160 6 95 2074
0.67684472 -1.9115758 0.48475182 425 20497140 185 7 76 2085
0.31747195 -1.3638365 0.32269257 420 20497140 87 8 3 1437
0.36333269 -1.3333422 0.30399522 443 20497140 89 9 8 1415
0.42859948 -1.3722881 0.30181003 419 20497140 90 10 43 1469
0.67840886 -1.9213208 0.40788737 415 20497140 179 11 53 2078
0.30903232 -1.3266368 0.26134828 389 20497140 75 12 69 1387
0.37326849 -1.3718807 0.2581459 422 20497140 88 13 1 1445
0.42959705 -1.3764106 0.24760734 389 20497140 83 14 114 1463
0.47325212 -1.3413404 0.23091015 405 20497140 84 15 60 1441
0.31030238 -1.3321942 0.21077752 391 20497140 75 16 1 1384
0.37231424 -1.3696001 0.20477761 394 20497140 81 17 31 1434
0.45334581 -1.4552686 0.20521949 182 20497140 43 18 89 1538
0.48876172 -1.3880011 0.18399446 379 20497140 83 19 66 1483
0.31880397 -1.3688015 0.1642306 354 20497140 71 20 35 1415
0.39831755 -1.4661659 0.16274275 249 20497140 58 21 39 1528
0.45311058 -1.456931 0.1487691 148 20497140 35 22 75 1533
0.49057052 -1.3955475 0.13043322 374 20497140 82 23 126 1485
0.32714099 -1.4058185 0.11557384 338 20497140 71 24 21 1448
0.40366063 -1.4873722 0.10866143 178 20497140 42 25 50 1545
0.44399187 -1.4277864 0.091111459 360 20497140 81 26 120 1498
0.68738914 -1.9591612 0.10688592 328 20497140 142 27 93 2079
0.33216092 -1.4305571 0.063838549 358 20497140 77 28 1 1470
0.38090438 -1.4054627 0.049349118 361 20497140 77 29 1 1457
0.61587071 -1.9871163 0.051315386 306 20497140 132 30 42 2081
0.69114125 -1.9721687 0.03122348 357 20497140 156 31 92 2090
0.3283214 -1.4143572 0.01013679 342 20497140 72 32 54 1452
0.53237873 -1.9672292 -0.0051576174 374 20497140 156 33 63 2038
0.61636311 -1.9895648 -0.024866374 333 20497140 145 34 68 2083
0.69440633 -1.9855931 -0.045127545 368 20497140 163 35 86 2104
0.4603408 -1.9874852 -0.060584415 344 20497140 143 36 100 2041
0.53573895 -1.9854163 -0.080437794 339 20497140 144 37 64 2058
0.6180923 -1.998107 -0.10181687 363 20497140 159 38 151 2094
0.69112164 -1.9760901 -0.12177138 386 20497140 170 39 71 2097
0.45662811 -1.9785236 -0.13476108 440 20497140 182 40 72 2035
0.53786653 -1.9969032 -0.15669703 376 20497140 162 41 94 2074
0.60719889 -1.964835 -0.17558269 389 20497140 165 42 167 2064
0.68090796 -1.9502721 -0.1960319 377 20497140 163 43 63 2075
0.45809856 -1.9880617 -0.21061386 424 20497140 179 44 80 2051
0.52747643 -1.9614637 -0.22883515 392 20497140 164 45 61 2044
0.61324573 -1.9880917 -0.25423992 394 20497140 173 46 123 2096
0.68675035 -1.9685515 -0.27529716 405 20497140 179 47 138 2103
0.45108196 -1.9651334 -0.28296936 409 20497140 170 48 89 2036
0.5328036 -1.9847257 -0.30833161 379 20497140 164 49 61 2078
0.60525101 -1.9658273 -0.32876122 394 20497140 171 50 52 2083
0.68629313 -1.9690087 -0.35388055 382 20497140 171 51 70 2115
0.44559944 -1.9492041 -0.35637924 441 20497140 182 52 81 2031
0.53231561 -1.9869237 -0.38655406 438 20497140 192 53 100 2093
0.60240173 -1.9587607 -0.40532637 386 20497140 169 54 88 2089
0.69022959 -1.9801912 -0.43656668 410 20497140 188 55 67 2142
0.44146952 -1.936115 -0.43079847 439 20497140 181 56 90 2032
0.5216518 -1.9512064 -0.45794573 413 20497140 177 57 75 2071
0.60801703 -1.9783713 -0.49039957 441 20497140 200 58 64 2127
0.68453056 -1.9643929 -0.51480871 475 20497140 218 59 84 2143
0.44474179 -1.9610431 -0.5160346 469 20497140 202 60 28 2076
0.52018625 -1.952278 -0.53879315 449 20497140 196 61 43 2091
0.59808367 -1.9473813 -0.56479973 430 20497140 192 62 60 2114
0.68913072 -1.9749314 -0.60338545 425 20497140 201 63 45 2177
0.29303467 -1.2989957 0.4156515 467 20595130 91 0 8 1395
0.51157588 -1.923412 0.59737831 403 20595130 174 1 92 2078
0.59525508 -1.9413776 0.58797997 344 20595130 154 2 53 2114
0.67005253 -1.9236625 0.56901431 409 20595130 183 3 58 2115
0.29957494 -1.3248639 0.3669329 452 20595130 89 4 24 1407
0.3589215 -1.3518395 0.36294657 454 20595130 95 5 1 1445
0.57898676 -1.8909103 0.49262267 371 20595130 154 6 103 2038
0.66893071 -1.9267185 0.48754176 422 20595130 186 7 71 2097
0.30135405 -1.3315436 0.31460842 398 20595130 78 8 28 1401
0.3521328 -1.3242203 0.30141717 398 20595130 78 9 28 1403
0.4167389 -1.3636607 0.29934457 415 20595130 88 10 59 1457
0.64351004 -1.8587329 0.3937546 397 20595130 160 11 46 2006
0.3060928 -1.3514959 0.26587051 412 20595130 82 12 33 1411
0.36787361 -1.3855567 0.26028964 422 20595130 90 13 8 1457
0.40732604 -1.333776 0.23948352 397 20595130 79 14 108 1415
0.45726806 -1.3218309 0.22706431 404 20595130 81 15 59 1417
0.30212235 -1.3340731 0.21077752 396 20595130 76 16 1 1384
0.36694875 -1.3833388 0.20649125 408 20595130 85 17 22 1446
0.41666853 -1.3670149 0.19240995 310 20595130 65 18 68 1442
0.4802359 -1.390974 0.18399446 390 20595130 86 19 74 1483
0.31039917 -1.3707318 0.1642306 344 20595130 69 20 37 1415
0.36179686 -1.364782 0.15123999 384 20595130 77 21 47 1420
0.45459294 -1.493962 0.1522627 208 20595130 51 22 70 1569
0.4742085 -1.3759289 0.12832521 372 20595130 79 23 118 1461
0.32378805 -1.431133 0.11748943 380 20595130 82 24 1 1472
0.37614095 -1.4203924 0.1035976 321 20595130 70 25 53 1473
0.42824993 -1.4075656 0.089651734 351 20595130 76 26 139 1474
0.67145687 -1.9520098 0.10626898 370 20595130 158 27 127 2067
0.31017789 -1.3740963 0.061232895 393 20595130 78 28 14 1410
0.36614132 -1.3845844 0.04853623 347 20595130 71 29 1 1433
0.60018533 -1.9793776 0.051019475 270 20595130 115 30 50 2069
0.6790272 -1.9763724 0.03122348 363 20595130 159 31 90 2090
0.31699526 -1.4046398 0.010053015 359 20595130 74 32 27 1440
0.51723444 -1.9588563 -0.0051272484 349 20595130 143 33 69 2026
0.6006633 -1.9818258 -0.02472312 307 20595130 132 34 104 2071
0.67831892 -1.9784676 -0.044870161 364 20595130 159 35 82 2092
0.44286755 -1.966869 -0.059872009 337 20595130 137 36 135 2017
0.51744109 -1.9654748 -0.079499744 355 20595130 147 37 59 2034
0.59887707 -1.9789181 -0.10064992 351 20595130 150 38 138 2070
0.67121267 -1.9576293 -0.12037773 369 20595130 159 39 76 2073
0.43923753 -1.9579216 -0.13317177 413 20595130 167 40 57 2011
0.52560359 -2.0001659 -0.15669703 347 20595130 149 41 87 2074
0.59513146 -1.9685237 -0.17558269 377 20595130 160 42 134 2064
0.6689285 -1.9544133 -0.1960319 393 20595130 169 43 72 2075
0.44328257 -1.979187 -0.2093816 415 20595130 173 44 81 2039
0.51543123 -1.9646633 -0.22883515 373 20595130 156 45 64 2044
0.59759444 -1.9804134 -0.25278434 386 20595130 168 46 97 2084
0.67080891 -1.9614716 -0.27372628 361 20595130 158 47 142 2091
0.44419071 -1.9910612 -0.28630495 425 20595130 180 48 72 2060
0.52061552 -1.9879576 -0.30833161 353 20595130 153 49 62 2078
0.59659475 -1.9808501 -0.33065516 395 20595130 174 50 61 2095
0.67802387 -1.9843781 -0.3558884 391 20595130 177 51 90 2127
0.43619299 -1.963434 -0.35848483 428 20595130 179 52 83 2043
0.52011406 -1.9901525 -0.38655406 416 20595130 182 53 108 2093
0.58698034 -1.9511474 -0.40299803 374 20595130 161 54 74 2077
0.66667026 -1.9510381 -0.42922941 420 20595130 186 55 72 2106
0.42958143 -1.9387875 -0.43079847 413 20595130 170 56 117 2032
0.51262277 -1.9656948 -0.46059921 407 20595130 177 57 60 2083
0.5891431 -1.9597002 -0.48486617 387 20595130 171 58 75 2103
0.67246437 -1.9685562 -0.51480871 465 20595130 214 59 92 2143
0.4301995 -1.9523839 -0.51305169 447 20595130 190 60 19 2064
0.50819749 -1.9554331 -0.53879315 432 20595130 189 61 46 2091
0.58279634 -1.9399394 -0.56159365 430 20595130 190 62 54 2102
0.66953635 -1.9573042 -0.59673357 408 20595130 189 63 51 2153
0.28505865 -1.3007692 0.4156515 426 20691280 83 0 14 1395
0.49687839 -1.9153894 0.59392858 412 20691280 176 1 71 2066
0.59657681 -1.9891562 0.60133058 331 20691280 155 2 59 2162
0.66197121 -1.9386753 0.5722428 413 20691280 187 3 54 2127
0.29889697 -1.3606219 0.37632138 473 20691280 98 4 1 1443
0.34770831 -1.342772 0.35993251 444 20691280 91 5 1 1433
0.55735117 -1.8609633 0.48392081 368 20691280 148 6 104 2002
0.66085625 -1.9418356 0.49033174 453 20691280 202 7 66 2109
0.29568934 -1.3447884 0.31730315 329 20691280 66 8 27 1413
0.34694317 -1.3377005 0.30399522 413 20691280 83 9 9 1415
0.40836379 -1.3661921 0.29934457 417 20691280 89 10 62 1457
0.58293718 -1.7177948 0.36313364 338 20691280 116 11 43 1850
0.2927292 -1.3303293 0.26134828 393 20691280 76 12 44 1387
0.34752601 -1.3420681 0.25171456 378 20691280 75 13 3 1409
0.41267404 -1.3815788 0.24760734 356 20691280 76 14 81 1463
0.47577444 -1.4031349 0.24052472 384 20691280 86 15 30 1501
0.29902801 -1.3590678 0.21443263 383 20691280 76 16 1 1408
0.3525044 -1.3625673 0.20306399 386 20691280 78 17 31 1422
0.42865819 -1.4379282 0.20201711 331 20691280 76 18 78 1514
0.47169203 -1.3938944 0.18399446 326 20691280 72 19 71 1483
0.29686069 -1.3493296 0.16144505 358 20691280 69 20 45 1391
0.35938913 -1.3900801 0.15379617 388 20691280 81 21 38 1444
0.41475788 -1.3936983 0.1417819 332 20691280 71 22 72 1461
0.4542805 -1.3448378 0.12516318 343 20691280 70 23 127 1425
0.31243274 -1.42141 0.11653163 365 20691280 78 24 1 1460
0.36143208 -1.3994937 0.10190965 395 20691280 83 25 17 1449
0.42302126 -1.4216471 0.0903816 355 20691280 78 26 142 1486
0.6556384 -1.9447368 0.10565203 329 20691280 139 27 90 2055
0.30174077 -1.3759736 0.061232895 440 20691280 88 28 9 1410
0.3666234 -1.4216444 0.049755566 352 20691280 76 29 2 1469
0.58461833 -1.9715217 0.050723571 263 20691280 111 30 45 2057
0.65922958 -1.9577589 0.03086493 381 20691280 163 31 78 2066
0.30580086 -1.3948371 0.0099692401 328 20691280 67 32 64 1428
0.50819772 -1.9736142 -0.0051576174 359 20691280 149 33 56 2038
0.5884918 -1.9854741 -0.02472312 291 20691280 125 34 82 2071
0.6699878 -1.9939649 -0.045127545 384 20691280 170 35 79 2104
0.42053887 -1.9226785 -0.05844719 382 20691280 148 36 116 1969
0.50238985 -1.9569985 -0.079030715 345 20691280 141 37 40 2022
0.58672339 -1.9825554 -0.10064992 389 20691280 167 38 141 2070
0.6630041 -1.9730666 -0.12107455 360 20691280 157 39 65 2085
0.43231422 -1.9839782 -0.13476108 413 20691280 171 40 69 2035
0.5073809 -1.9801708 -0.15488377 372 20691280 156 41 77 2050
0.58304161 -1.9721384 -0.17558269 374 20691280 159 42 152 2064
0.65312481 -1.947155 -0.19489823 387 20691280 165 43 68 2063
0.43113017 -1.9818697 -0.2093816 443 20691280 184 44 99 2039
0.50927693 -1.990894 -0.23152205 357 20691280 152 45 57 2068
0.58880264 -1.9954674 -0.25423992 384 20691280 169 46 112 2096
0.65876091 -1.9655507 -0.27372628 384 20691280 168 47 140 2091
0.42693278 -1.970521 -0.28296936 408 20691280 169 48 60 2036
0.50253594 -1.9681182 -0.30477053 360 20691280 152 49 56 2054
0.58777684 -1.9958404 -0.33254912 375 20691280 167 50 64 2107
0.66207874 -1.9772823 -0.35388055 404 20691280 181 51 72 2115
0.42164615 -1.9545255 -0.35637924 441 20691280 182 52 65 2031
0.49624509 -1.9475926 -0.37768897 400 20691280 167 53 71 2045
0.57831931 -1.9660057 -0.40532637 406 20691280 177 54 85 2089
0.66214716 -1.9773722 -0.43412092 427 20691280 193 55 57 2130
0.42014378 -1.9528518 -0.43334258 419 20691280 175 56 90 2044
0.50055188 -1.9688032 -0.46059921 415 20691280 180 57 65 2083
0.57710755 -1.9632782 -0.48486617 416 20691280 184 58 68 2103
0.65667498 -1.9615991 -0.511926 467 20691280 212 59 79 2131
0.42307469 -1.9777192 -0.5190174 444 20691280 193 60 44 2088
0.49334204 -1.9472748 -0.5357011 463 20691280 200 61 41 2079
0.57414126 -1.954574 -0.56479973 422 20691280 189 62 62 2114
0.65384918 -1.9504435 -0.59340757 419 20691280 192 63 51 2141
0.27468848 -1.2912896 0.412076 435 20791470 83 0 10 1383
0.45693931 -1.8069752 0.55943131 393 20791470 149 1 49 1946
0.58436036 -1.9927793 0.60133058 354 20791470 165 2 55 2162
0.64639574 -1.9317403 0.56901431 411 20791470 184 3 59 2115
0.2808781 -1.3171104 0.36380342 433 20791470 84 4 12 1395
0.33662 -1.3336182 0.35691842 447 20791470 90 5 1 1421
0.4346652 -1.4844011 0.38529959 312 20791470 79 6 97 1594
0.64154416 -1.9237105 0.48475182 437 20791470 190 7 98 2085
0.29475543 -1.3808851 0.32538733 194 20791470 41 8 45 1449
0.33298343 -1.3170794 0.29883912 420 20791470 81 9 30 1391
0.39667907 -1.3573996 0.29687914 403 20791470 84 10 54 1445
0.45729002 -1.3752104 0.29011431 373 20791470 81 11 30 1478
0.29440874 -1.3782004 0.27039275 364 20791470 75 12 42 1435
0.33350554 -1.3212794 0.24742703 372 20791470 71 13 24 1385
0.40087378 -1.3727322 0.2455764 294 20791470 62 14 85 1451
0.45221698 -1.3610649 0.23283306 411 20791470 87 15 49 1453
0.28820589 -1.3492786 0.21260506 388 20791470 76 16 1 1396
0.3412331 -1.3531882 0.20135038 329 20791470 65 17 53 1410
0.39653423 -1.3606075 0.19080876 282 20791470 58 18 57 1430
0.45938286 -1.3854604 0.18250564 213 20791470 46 19 63 1471
0.29604432 -1.3860937 0.16562337 342 20791470 70 20 45 1427
0.350853 -1.392259 0.15379617 301 20791470 63 21 45 1444
0.40953481 -1.4076849 0.14294642 316 20791470 69 22 72 1473
0.46855593 -1.4156891 0.13148722 254 20791470 57 23 127 1497
0.29372042 -1.3765068 0.11270045 359 20791470 72 24 17 1412
0.36160427 -1.4365095 0.10444156 310 20791470 68 25 39 1485
0.42098135 -1.4472181 0.091841333 309 20791470 70 26 138 1510
0.6512109 -1.9714818 0.10688592 350 20791470 151 27 100 2079
0.29329225 -1.3777992 0.061232895 403 20791470 80 28 1 1410
0.35789347 -1.4238672 0.049755566 293 20791470 63 29 3 1469
0.5624907 -1.9405056 0.04983585 275 20791470 112 30 49 2021
0.65848207 -1.9959507 0.031402752 369 20791470 163 31 76 2102
0.30223209 -1.4201609 0.01013679 380 20791470 80 32 53 1452
0.45226371 -1.8021097 -0.0047020866 345 20791470 119 33 59 1858
0.57629806 -1.9890476 -0.02472312 334 20791470 143 34 91 2071
0.65023768 -1.9752471 -0.044612784 335 20791470 145 35 86 2080
0.32653022 -1.538027 -0.046692446 301 20791470 74 36 117 1573
0.49619293 -1.9833088 -0.079968765 391 20791470 164 37 39 2046
0.581209 -2.0091455 -0.10181687 405 20791470 178 38 124 2094
0.65088511 -1.9770975 -0.12107455 396 20791470 172 39 75 2085
0.41765517 -1.9748788 -0.13396642 413 20791470 169 40 56 2023
0.49232236 -1.9716375 -0.15397713 371 20791470 154 41 70 2038
0.57092983 -1.9756787 -0.17558269 389 20791470 166 42 140 2064
0.648624 -1.9738243 -0.19716558 396 20791470 173 43 73 2087
0.41896152 -1.9844776 -0.2093816 435 20791470 181 44 77 2039
0.49416718 -1.9824108 -0.23017858 377 20791470 160 45 62 2056
0.56994587 -1.9761528 -0.25132874 391 20791470 168 46 101 2072
0.64297682 -1.9582525 -0.27215537 370 20791470 160 47 131 2079
0.40994388 -1.949845 -0.27963376 403 20791470 163 48 71 2012
0.49331564 -1.9826806 -0.30655104 361 20791470 154 49 58 2066
0.56240851 -1.9538603 -0.32497326 407 20791470 172 50 54 2059
0.64993387 -1.9813075 -0.35388055 396 20791470 177 51 65 2115
0.41206577 -1.9686389 -0.35848483 411 20791470 172 52 102 2043
0.48996907 -1.973493 -0.3821215 419 20791470 179 53 98 2069
0.56299257 -1.9582037 -0.40299803 407 20791470 176 54 78 2077
0.64633977 -1.9702349 -0.43167514 455 20791470 204 55 71 2118
0.40815338 -1.955393 -0.43334258 415 20791470 173 56 102 2044
0.48846209 -1.9718374 -0.46059921 384 20791470 167 57 65 2083
0.56505018 -1.9667823 -0.48486617 419 20791470 185 58 65 2103
0.6446265 -1.9655914 -0.511926 454 20791470 206 59 87 2131
0.40857002 -1.9688971 -0.5160346 445 20791470 192 60 41 2076
0.48416308 -1.9615222 -0.53879315 427 20791470 187 61 59 2091
0.56532836 -1.969175 -0.5680058 438 20791470 198 62 58 2126
0.65266192 -1.9872814 -0.60338545 428 20791470 203 63 54 2177
0.26907474 -1.3041694 0.4156515 409 20888280 80 0 16 1395
0.3331224 -1.3521938 0.41799238 374 20888280 79 1 49 1454
0.56894636 -1.9852468 0.5979929 365 20888280 168 2 54 2150
0.63813084 -1.9466527 0.5722428 430 20888280 194 3 44 2127
0.27513775 -1.3301536 0.3669329 432 20888280 85 4 12 1407
0.3228837 -1.3130999 0.35089022 442 20888280 86 5 1 1397
0.39030895 -1.3638976 0.35339269 390 20888280 83 6 86 1462
0.6224798 -1.9054224 0.47917196 408 20888280 173 7 67 2061
0.29813105 -1.4399209 0.3388609 246 20888280 56 8 21 1509
0.33050141 -1.3418573 0.30399522 426 20888280 85 9 1 1415
0.38834277 -1.359808 0.29687914 429 20888280 90 10 62 1445
0.43426651 -1.3332384 0.28069246 396 20888280 81 11 31 1430
0.30029389 -1.4492204 0.28395951 269 20888280 61 12 43 1507
0.34794629 -1.4150242 0.26457721 292 20888280 64 13 11 1481
0.4119167 -1.4434031 0.25776213 132 20888280 31 14 88 1523
0.45118859 -1.386341 0.2366789 390 20888280 85 15 54 1477
0.27992144 -1.3510215 0.21260506 384 20888280 75 16 1 1396
0.34992403 -1.4244611 0.2116321 215 20888280 47 17 24 1482
0.42401007 -1.4888318 0.20842187 126 20888280 31 18 45 1562
0.48397604 -1.4901778 0.1959051 98 20888280 25 19 61 1579
0.2851159 -1.3762131 0.1642306 362 20888280 72 20 18 1415
0.36221606 -1.4754995 0.16274275 193 20888280 45 21 55 1528
0.40415561 -1.4216594 0.14411096 127 20888280 28 22 67 1485
0.45986059 -1.4185375 0.13148722 116 20888280 26 23 124 1497
0.28526878 -1.3782831 0.11270045 322 20888280 64 24 25 1412
0.34423092 -1.4038236 0.10190965 242 20888280 51 25 35 1449
0.41536835 -1.4612952 0.092571191 147 20888280 34 26 114 1522
0.62803519 -1.9412338 0.10503507 346 20888280 144 27 127 2043
0.27756038 -1.3443496 0.059669502 357 20888280 67 28 22 1374
0.34059361 -1.3910893 0.04853623 263 20888280 54 29 18 1433
0.51134402 -1.8054125 0.046284951 277 20888280 97 30 47 1877
0.6351552 -1.9657012 0.03086493 358 20888280 153 31 72 2066
0.29593819 -1.4337407 0.010220566 345 20888280 74 32 53 1464
0.36141166 -1.4784623 -0.0038517632 312 20888280 72 33 55 1522
0.56408262 -1.9925463 -0.02472312 329 20888280 141 34 80 2071
0.64546829 -2.0020366 -0.045127545 372 20888280 165 35 82 2104
0.29773515 -1.4460156 -0.043842815 363 20888280 79 36 93 1477
0.47833666 -1.9630162 -0.079030715 361 20888280 147 37 47 2022
0.56887019 -2.0126739 -0.10181687 364 20888280 159 38 156 2094
0.64241785 -1.992456 -0.12177138 323 20888280 142 39 82 2097
0.40312418 -1.9656749 -0.13317177 437 20888280 177 40 78 2011
0.48304293 -1.986248 -0.15488377 367 20888280 154 41 83 2050
0.5522989 -1.9561315 -0.17354104 356 20888280 148 42 156 2040
0.63284081 -1.966395 -0.1960319 392 20888280 169 43 73 2075
0.40677711 -1.9870111 -0.2093816 450 20888280 187 44 72 2039
0.47918087 -1.9738178 -0.22883515 383 20888280 160 45 83 2044
0.55780965 -1.9796127 -0.25132874 384 20888280 165 46 122 2072
0.63094914 -1.9621609 -0.27215537 364 20888280 157 47 109 2079
0.40034574 -1.9639678 -0.28130159 409 20888280 167 48 57 2024
0.47555164 -1.9626033 -0.30298996 374 20888280 156 49 40 2042
0.55682492 -1.9800888 -0.32876122 389 20888280 169 50 50 2083
0.64500165 -2.007786 -0.35789624 403 20888280 185 51 69 2139
0.39762935 -1.9595525 -0.35637924 437 20888280 180 52 60 2031
0.47507927 -1.9649991 -0.37990525 407 20888280 172 53 70 2057
0.55414987 -1.9729545 -0.40532637 381 20888280 166 54 80 2089
0.6306451 -1.9629787 -0.42922941 419 20888280 186 55 56 2106
0.39847332 -1.9693546 -0.43588662 431 20888280 182 56 114 2056
0.47635394 -1.9747975 -0.46059921 409 20888280 178 57 68 2083
0.55612689 -1.9814545 -0.48763284 428 20888280 191 58 57 2115
0.63967776 -1.9916912 -0.51769149 447 20888280 208 59 80 2155
0.39648142 -1.971367 -0.5160346 439 20888280 189 60 36 2076
0.47211829 -1.9644561 -0.53879315 439 20888280 192 61 36 2091
0.54386705 -1.9392041 -0.55838764 423 20888280 185 62 66 2090
0.63339531 -1.9692966 -0.59673357 422 20888280 196 63 75 2153
0.26331317 -1.3170285 0.419227 413 20985090 82 0 13 1407
0.31409615 -1.3095065 0.40419343 456 20985090 90 1 37 1406
0.55675435 -1.9887004 0.5979929 381 20985090 176 2 54 2150
0.61557627 -1.9175183 0.5625574 414 20985090 181 3 51 2091
0.26469398 -1.3204581 0.36380342 422 20985090 82 4 24 1395
0.32022911 -1.3376486 0.35691842 445 20985090 90 5 1 1421
0.37566313 -1.3438383 0.34759146 371 20985090 77 6 86 1438
0.61788899 -1.9314383 0.48475182 412 20985090 179 7 75 2085
0.27088609 -1.3500032 0.31730315 433 20985090 86 8 28 1413
0.32772762 -1.3666532 0.30915132 420 20985090 87 9 1 1439
0.37683621 -1.3508532 0.29441372 433 20985090 89 10 42 1433
0.42607772 -1.3358779 0.28069246 390 20985090 80 11 11 1430
0.27515361 -1.3701552 0.26813164 407 20985090 82 12 46 1423
0.32551295 -1.35972 0.25385836 370 20985090 75 13 37 1421
0.39987665 -1.4345108 0.25573117 137 20985090 31 14 93 1511
0.43188405 -1.3552262 0.23091015 378 20985090 78 15 46 1441
0.27629626 -1.3759695 0.21626016 373 20985090 75 16 1 1420
0.34946483 -1.4612352 0.21677297 178 20985090 41 17 37 1518
0.39574361 -1.4226595 0.19881473 118 20985090 26 18 89 1490
0.48564899 -1.5271614 0.20037159 90 20985090 24 19 78 1615
0.28605136 -1.4246793 0.16980167 313 20985090 67 20 23 1463
0.34206182 -1.4312744 0.15763041 144 20985090 32 21 85 1480
0.41459697 -1.4931604 0.15109816 104 20985090 25 22 61 1557
0.46199721 -1.4555128 0.13464925 120 20985090 28 23 107 1533
0.28621629 -1.4269201 0.11653163 255 20985090 54 24 18 1460
0.34394887 -1.4408387 0.10444156 114 20985090 25 25 78 1485
0.41280252 -1.486899 0.094030924 112 20985090 27 26 115 1546
0.57268578 -1.8079547 0.09763173 308 20985090 111 27 109 1899
0.28341854 -1.4165616 0.062796287 289 20985090 60 28 7 1446
0.34039348 -1.428152 0.049755566 122 20985090 26 29 22 1469
0.40750787 -1.4732131 0.037703615 272 20985090 64 30 64 1529
0.61946291 -1.9581218 0.030685658 386 20985090 163 31 73 2054
0.28948891 -1.4472961 0.010304341 355 20985090 77 32 16 1476
0.34122151 -1.4339561 -0.0037302885 373 20985090 81 33 39 1474
0.55184597 -1.99597 -0.02472312 324 20985090 139 34 101 2071
0.62233818 -1.9716369 -0.0443554 366 20985090 157 35 90 2068
0.28651011 -1.4360522 -0.043486606 398 20985090 85 36 82 1465
0.46628281 -1.9659142 -0.079030715 339 20985090 138 37 56 2022
0.55013162 -1.9930192 -0.10064992 369 20985090 158 38 126 2070
0.63378644 -2.0077844 -0.12246822 352 20985090 157 39 97 2109
0.38872191 -1.9563673 -0.13237709 408 20985090 163 40 59 1999
0.47084644 -1.9891746 -0.15488377 365 20985090 153 41 94 2050
0.543464 -1.9710097 -0.17456186 377 20985090 159 42 153 2052
0.61717343 -1.9588469 -0.19489823 383 20985090 163 43 67 2063
0.39225525 -1.9777613 -0.20814934 430 20985090 177 44 54 2027
0.46706071 -1.9767208 -0.22883515 365 20985090 152 45 56 2044
0.54565251 -1.982998 -0.25132874 394 20985090 169 46 101 2072
0.61889768 -1.9659954 -0.27215537 363 20985090 157 47 126 2079
0.38828754 -1.9663873 -0.28130159 420 20985090 172 48 72 2024
0.46894795 -1.988585 -0.30655104 346 20985090 148 49 72 2066
0.54466486 -1.9834682 -0.32876122 408 20985090 177 50 52 2083
0.62557125 -1.9891341 -0.35388055 438 20985090 196 51 70 2115
0.38332 -1.9503634 -0.35427359 423 20985090 173 52 64 2019
0.46301332 -1.9678771 -0.37990525 415 20985090 176 53 62 2057
0.54203361 -1.9763175 -0.40532637 419 20985090 183 54 99 2089
0.61506385 -1.9556044 -0.42678365 414 20985090 182 55 77 2094
0.38187182 -1.948746 -0.43079847 420 20985090 173 56 120 2032
0.4669022 -1.9890763 -0.46325266 390 20985090 171 57 81 2095
0.54087222 -1.9735683 -0.48486617 397 20985090 176 58 79 2103
0.62045711 -1.973354 -0.511926 462 20985090 210 59 78 2131
0.37993416 -1.9509444 -0.51006883 420 20985090 177 60 35 2052
0.45741549 -1.9560257 -0.5357011 422 20985090 182 61 49 2079
0.53501236 -1.9536576 -0.56159365 396 20985090 175 62 65 2102
0.61783713 -1.9621483 -0.59340757 420 20985090 192 63 47 2141
0.25522709 -1.3186194 0.419227 459 21082930 91 0 8 1407
0.30866742 -1.3226019 0.40764317 470 21082930 94 1 31 1418
0.53846288 -1.9698421 0.59131765 359 21082930 162 2 51 2126
0.61072922 -1.943311 0.56901431 404 21082930 181 3 48 2115
0.25658682 -1.3220574 0.36380342 394 21082930 77 4 19 1395
0.31201541 -1.3395884 0.35691842 468 21082930 94 5 1 1421
0.37660846 -1.3798178 0.35629335 389 21082930 85 6 67 1474
0.59905046 -1.9129177 0.47917196 408 21082930 173 7 87 2061
0.25813729 -1.3286821 0.3119137 426 21082930 82 8 38 1389
0.31400988 -1.345812 0.30399522 435 21082930 87 9 19 1415
0.37779894 -1.3871337 0.30181003 421 21082930 91 10 51 1469
0.41787291 -1.3384671 0.28069246 400 21082930 82 11 30 1430
0.25774372 -1.3255441 0.25908715 420 21082930 80 12 66 1375
0.31448534 -1.3501925 0.25171456 399 21082930 79 13 13 1409
0.38796139 -1.4255257 0.2537002 241 21082930 54 14 86 1499
0.42356041 -1.3578507 0.23091015 383 21082930 79 15 48 1441
0.25200373 -1.2961448 0.20346731 398 21082930 71 16 5 1336
0.32165077 -1.3823758 0.20477761 379 21082930 78 17 44 1434
0.39947423 -1.470969 0.20521949 160 21082930 38 18 81 1538
0.46565282 -1.4960047 0.1959051 106 21082930 26 19 92 1579
0.26820618 -1.3796083 0.1642306 345 21082930 69 20 34 1415
0.33597547 -1.4449681 0.1589085 216 21082930 48 21 46 1492
0.3929286 -1.4495667 0.14644003 103 21082930 24 22 79 1509
0.45305765 -1.4583201 0.13464925 102 21082930 24 23 112 1533
0.27289459 -1.4051647 0.11461604 349 21082930 72 24 24 1436
0.32968581 -1.4196022 0.10275362 163 21082930 35 25 61 1461
0.39427146 -1.4547218 0.091841333 99 21082930 23 26 115 1510
0.44802326 -1.4451414 0.077889457 327 21082930 75 27 112 1515
0.28156087 -1.4535837 0.06435968 298 21082930 65 28 15 1482
0.33433306 -1.4418968 0.050162006 138 21082930 30 29 22 1481
0.38595182 -1.4293596 0.036519986 331 21082930 73 30 46 1481
0.61453402 -1.9848094 0.031044204 358 21082930 155 31 72 2078
0.26919639 -1.3901409 0.0098854648 353 21082930 71 32 48 1416
0.32429776 -1.4009504 -0.0036391823 370 21082930 76 33 33 1438
0.53020895 -1.9645644 -0.024293359 313 21082930 130 34 105 2035
0.60314679 -1.952493 -0.043840639 371 21082930 155 35 85 2044
0.27541864 -1.4260062 -0.043130402 423 21082930 89 36 82 1453
0.45151579 -1.9570543 -0.078561686 355 21082930 143 37 37 2010
0.54412872 -2.0195034 -0.10181687 355 21082930 156 38 140 2094
0.61084694 -1.9772974 -0.12037773 355 21082930 153 39 70 2073
0.38349476 -1.9939901 -0.13476108 423 21082930 175 40 66 2035
0.4640016 -2.0153475 -0.15669703 376 21082930 162 41 86 2074
0.53135991 -1.9743072 -0.17456186 390 21082930 164 42 141 2052
0.60514253 -1.962597 -0.19489823 397 21082930 169 43 55 2063
0.38236281 -1.9918532 -0.2093816 416 21082930 173 44 54 2039
0.46026453 -2.0027926 -0.23152205 388 21082930 166 45 59 2068
0.5334748 -1.9863088 -0.25132874 391 21082930 168 46 138 2072
0.61032552 -1.9811255 -0.27372628 391 21082930 171 47 129 2091
0.37621471 -1.9687327 -0.28130159 409 21082930 168 48 67 2024
0.45408455 -1.9798583 -0.30477053 381 21082930 161 49 46 2054
0.53248423 -1.9867729 -0.32876122 386 21082930 167 50 53 2083
0.60639435 -1.9703202 -0.3498649 393 21082930 172 51 70 2091
0.37355268 -1.9642845 -0.35637924 417 21082930 172 52 82 2031
0.4456687 -1.947688 -0.37547269 406 21082930 168 53 93 2033
0.52685308 -1.9682348 -0.40299803 397 21082930 171 54 74 2077
0.60996467 -1.9817982 -0.43167514 401 21082930 180 55 64 2118
0.37209186 -1.9625745 -0.43334258 414 21082930 173 56 116 2044
0.44687539 -1.9576752 -0.45529222 424 21082930 180 57 46 2059
0.52573532 -1.9655696 -0.48209944 409 21082930 179 58 66 2091
0.60491157 -1.9659905 -0.50904328 456 21082930 205 59 74 2119
0.37225986 -1.976084 -0.5160346 426 21082930 184 60 24 2076
0.44540492 -1.9587955 -0.5357011 446 21082930 193 61 37 2079
0.52600068 -1.9680754 -0.56479973 406 21082930 182 62 82 2114
0.60918134 -1.976921 -0.59673357 418 21082930 194 63 51 2153
0.24713139 -1.3201606 0.419227 442 21179590 87 0 1 1407
0.30308968 -1.3356794 0.41109291 447 21179590 91 1 7 1430
0.51151085 -1.9174237 0.57462943 336 21179590 144 2 61 2066
0.5953964 -1.935975 0.56578588 400 21179590 177 3 68 2103
0.25060737 -1.3349926 0.3669329 327 21179590 65 4 30 1407
0.30379 -1.3414776 0.35691842 444 21179590 90 5 1 1421
0.3651379 -1.3708508 0.35339269 411 21179590 88 6 98 1462
0.54626751 -1.7826494 0.44569269 394 21179590 145 7 109 1917
0.25213942 -1.3417333 0.31460842 389 21179590 76 8 32 1401
0.30315331 -1.336284 0.30141717 450 21179590 89 9 3 1403
0.36324736 -1.3667258 0.29687914 417 21179590 87 10 36 1445
0.40965238 -1.3410059 0.28069246 387 21179590 79 11 16 1430
0.25396222 -1.3502645 0.26360938 409 21179590 80 12 40 1399
0.30619478 -1.3520968 0.25171456 417 21179590 83 13 23 1409
0.35795745 -1.3478647 0.23948352 338 21179590 68 14 97 1415
0.40830526 -1.3377659 0.22706431 324 21179590 65 15 32 1417
0.25281411 -1.3442894 0.21077752 402 21179590 77 16 1 1384
0.31054202 -1.3727392 0.20306399 389 21179590 79 17 26 1422
0.36911654 -1.392921 0.19401115 275 21179590 58 18 77 1454
0.43565065 -1.4304892 0.18697213 128 21179590 29 19 64 1507
0.25312787 -1.3460872 0.1600523 374 21179590 71 20 27 1379
0.32184127 -1.4237262 0.15635233 344 21179590 74 21 37 1468
0.3870807 -1.4634967 0.14760455 140 21179590 32 22 87 1521
0.44062468 -1.4496356 0.13359523 161 21179590 37 23 106 1521
0.25322568 -1.3480322 0.10982707 397 21179590 75 24 31 1376
0.3209691 -1.4215983 0.10275362 339 21179590 72 25 4 1461
0.38533804 -1.4571136 0.091841333 141 21179590 32 26 111 1510
0.42175558 -1.390522 0.074804723 351 21179590 74 27 93 1455
0.25939104 -1.3845819 0.061232895 422 21179590 84 28 22 1410
0.33075395 -1.4673202 0.050974898 213 21179590 48 29 2 1505
0.3863425 -1.4665024 0.037407707 347 21179590 80 30 29 1517
0.59886545 -1.9770592 0.03086493 315 21179590 135 31 63 2066
0.26728857 -1.4271504 0.01013679 398 21179590 84 32 23 1452
0.32096449 -1.4263282 -0.0036999197 356 21179590 76 33 22 1462
0.52425539 -1.990988 -0.024579866 325 21179590 138 34 74 2059
0.60156685 -1.9906099 -0.044612784 366 21179590 158 35 71 2080
0.2578544 -1.380506 -0.041705586 430 21179590 85 36 79 1405
0.43687519 -1.9480878 -0.078092672 376 21179590 150 37 43 1998
0.53477418 -2.0343962 -0.10240036 365 21179590 162 38 138 2106
0.59870297 -1.9810083 -0.12037773 363 21179590 156 39 76 2073
0.36030662 -1.9374466 -0.13078777 405 21179590 158 40 64 1975
0.44378766 -1.9831258 -0.15397713 356 21179590 148 41 80 2038
0.51619935 -1.9659661 -0.17354104 382 21179590 159 42 155 2040
0.59308887 -1.9662732 -0.19489823 405 21179590 172 43 54 2063
0.36577719 -1.9706897 -0.20691708 419 21179590 170 44 96 2015
0.44276816 -1.9823036 -0.22883515 378 21179590 158 45 65 2044
0.51523906 -1.9664999 -0.24841762 375 21179590 157 46 113 2048
0.59129256 -1.9620516 -0.27058452 354 21179590 151 47 130 2067
0.36196882 -1.9593182 -0.27963376 398 21179590 161 48 55 2012
0.44967338 -2.0173559 -0.31011218 398 21179590 174 49 43 2090
0.52028364 -1.9900028 -0.32876122 419 21179590 182 50 62 2083
0.59088266 -1.9626752 -0.34785703 395 21179590 171 51 61 2079
0.35722134 -1.9433014 -0.35216796 451 21179590 182 52 71 2007
0.44138956 -1.984923 -0.3821215 391 21179590 168 53 78 2069
0.51774037 -1.9828203 -0.40532637 390 21179590 170 54 69 2089
0.58763236 -1.9517555 -0.42433789 414 21179590 180 55 65 2082
0.35792896 -1.9532853 -0.43079847 406 21179590 168 56 97 2032
0.43738928 -1.9718057 -0.45794573 396 21179590 170 57 60 2071
0.5136649 -1.9687585 -0.48209944 426 21179590 186 58 75 2091
0.59955162 -1.9919738 -0.51480871 443 21179590 204 59 86 2143
0.36012784 -1.9783309 -0.5160346 424 21179590 183 60 33 2076
0.43087617 -1.9501699 -0.53260905 415 21179590 177 61 43 2067
0.51391488 -1.9712659 -0.56479973 413 21179590 185 62 79 2114
0.59371203 -1.9695823 -0.59340757 412 21179590 189 63 55 2141
0.23902638 -1.3216521 0.419227 420 21277160 83 0 10 1407
0.2924138 -1.3262901 0.40764317 463 21277160 93 1 14 1418
0.45909935 -1.7643558 0.5279026 297 21277160 107 2 69 1898
