# .PCD v0.7 - Point Cloud Data file format
VERSION 0.7
FIELDS x y z intensity t reflectivity ring noise range
SIZE 4 4 4 4 4 2 1 2 4
TYPE F F F F U U U U U
COUNT 1 1 1 1 1 1 1 1 1
WIDTH 895
HEIGHT 1
VIEWPOINT 0 0 0 1 0 0 0
POINTS 895
DATA ascii
2.0397866 -0.87230796 0.21631201 66 6732450 33 22 91 2229
2.0162735 -0.77647167 0.19051155 229 6732450 108 23 125 2169
1.8029679 -0.93176955 0.16250575 144 6732450 60 24 63 2036
1.9461459 -0.91768813 0.15170401 241 6732450 112 25 84 2157
1.9143988 -0.81876534 0.12687485 205 6732450 89 26 149 2086
1.8923763 -0.7300483 0.10441814 209 6732450 86 27 100 2031
1.7089709 -0.88425052 0.083641529 133 6732450 50 28 59 1926
1.8591548 -0.87746161 0.06967134 67 6732450 29 29 63 2057
1.8348205 -0.78677708 0.049244031 186 6732450 74 30 55 1997
1.8151194 -0.70100826 0.029072195 222 6732450 84 31 69 1946
1.6625388 -0.86033618 0.01306892 57 6732450 20 32 75 1872
1.7667639 -0.83464801 -0.0049450365 202 6732450 77 33 74 1954
1.7708248 -0.75959164 -0.023004081 184 6732450 68 34 85 1927
1.7603722 -0.6811713 -0.04049468 203 6732450 72 35 84 1888
0 -0 -0 4 6732450 0 36 103 0
0 -0 -0 0 6732450 0 37 68 0
0 -0 -0 9 6732450 0 38 89 0
1.7401279 -0.67330295 -0.10853157 50 6732450 18 39 76 1869
0 -0 -0 0 6732450 0 40 108 0
1.2092633 -0.57303214 -0.10139219 10 6732450 2 41 95 1342
1.1644065 -0.50043255 -0.10820793 15 6732450 2 42 138 1272
1.6142365 -0.62559646 -0.16428891 47 6732450 14 43 68 1739
1.0689397 -0.55536002 -0.12435563 50 6732450 7 44 110 1211
1.0917507 -0.51788336 -0.13613676 37 6732450 6 45 76 1216
1.7250407 -0.74244922 -0.22949518 189 6732450 68 46 121 1892
1.8661911 -0.72376585 -0.26430097 212 6732450 86 47 137 2019
1.0083891 -0.5249747 -0.15955245 52 6732450 7 48 86 1148
1.0308856 -0.48956248 -0.17122939 50 6732450 7 49 55 1154
1.1162956 -0.48114121 -0.19428951 57 6732450 9 50 65 1231
1.9990309 -0.77592748 -0.36391973 165 6732450 78 51 86 2175
1.0081179 -0.52597457 -0.20266765 56 6732450 7 52 100 1155
1.0375589 -0.49337533 -0.21590143 64 6732450 9 53 77 1169
1.1682807 -0.5039829 -0.25165549 90 6732450 15 54 73 1297
1.3416324 -0.52073008 -0.29960456 44 6732450 10 55 75 1470
0.92854339 -0.48511738 -0.22727163 56 6732450 6 56 118 1072
1.083923 -0.51611823 -0.2722024 75 6732450 11 57 75 1231
1.1283565 -0.48701695 -0.29119635 76 6732450 12 58 70 1263
1.1791016 -0.45776513 -0.31301716 130 6732450 22 59 76 1303
0.98839605 -0.51785958 -0.28635445 69 6732450 9 60 31 1152
1.1327746 -0.54054391 -0.33471656 67 6732450 11 61 45 1299
1.212014 -0.52340096 -0.36602443 48 6732450 9 62 88 1370
4.7129903 -1.8274629 -1.4581584 222 6732450 616 63 64 5261
0 -0 0 5 6830960 0 0 78 0
0 -0 0 9 6830960 0 1 83 0
2.4562831 -1.0620825 0.7748875 30 6830960 23 2 37 2786
2.459059 -0.95505923 0.73689371 174 6830960 130 3 49 2739
0 -0 0 5 6830960 0 4 86 0
2.8650038 -1.3702445 0.82410222 17 6830960 18 5 42 3281
2.4239511 -1.0492073 0.65795827 74 6830960 55 6 115 2722
2.1723127 -0.84622335 0.55729026 119 6830960 69 7 66 2397
1.7060715 -0.89484835 0.44395494 41 6830960 16 8 73 1977
2.3784342 -1.136411 0.57984674 13 6830960 9 9 35 2699
2.170295 -0.94080687 0.49657914 151 6830960 88 10 68 2417
2.347332 -0.91676199 0.50446129 292 6830960 193 11 31 2570
1.801326 -0.94444937 0.39023232 11 6830960 5 12 100 2071
2.1986315 -1.0515388 0.44251031 97 6830960 60 13 79 2477
2.0063999 -0.87021708 0.37555754 163 6830960 80 14 96 2219
2.1963387 -0.85840946 0.38282052 97 6830960 55 15 54 2389
2.198781 -1.1528871 0.38256729 33 6830960 21 16 46 2512
1.8480725 -0.88439226 0.29559949 95 6830960 41 17 75 2070
2.1398065 -0.92945421 0.31410056 265 6830960 147 18 82 2354
2.1020396 -0.82303447 0.2822572 223 6830960 115 19 121 2275
2.0258307 -1.0622491 0.26729548 200 6830960 106 20 89 2303
1.8869408 -0.90335697 0.2240908 111 6830960 49 21 90 2104
2.0563004 -0.89433426 0.21864107 97 6830960 49 22 80 2253
1.9892143 -0.78010029 0.18840355 225 6830960 104 23 126 2145
1.9031433 -0.99838352 0.17208371 176 6830960 82 24 53 2156
1.9404784 -0.92961216 0.15170401 282 6830960 131 25 108 2157
1.909339 -0.83049643 0.12687485 216 6830960 94 26 116 2086
1.8878611 -0.74164599 0.10441814 222 6830960 92 27 99 2031
1.6610579 -0.87242162 0.081557006 125 6830960 44 28 53 1878
1.8753642 -0.89922333 0.070484228 142 6830960 61 29 42 2081
1.8519509 -0.80761117 0.04983585 172 6830960 70 30 45 2021
1.810784 -0.71213245 0.029072195 227 6830960 86 31 81 1946
1.8059543 -0.94864482 0.014241773 43 6830960 18 32 92 2040
1.7940648 -0.86104977 -0.0050361427 182 6830960 72 33 74 1990
1.7661307 -0.7704429 -0.023004081 172 6830960 64 34 92 1927
1.7338353 -0.68316382 -0.039979916 174 6830960 61 35 76 1864
0 -0 -0 3 6830960 0 36 122 0
0 -0 -0 6 6830960 0 37 76 0
0 -0 -0 0 6830960 0 38 95 0
0 -0 -0 0 6830960 0 39 66 0
0 -0 -0 0 6830960 0 40 83 0
0 -0 -0 5 6830960 0 41 97 0
1.1394024 -0.497991 -0.10616627 35 6830960 6 42 188 1248
1.6103675 -0.63548946 -0.16428891 48 6830960 15 43 69 1739
1.1183035 -0.58974868 -0.13051692 59 6830960 10 44 113 1271
1.0455834 -0.50386572 -0.13076295 58 6830960 8 45 64 1168
1.1202948 -0.49033859 -0.14943872 87 6830960 13 46 110 1232
1.9170408 -0.75705147 -0.27215537 211 6830960 91 47 142 2079
1.0892032 -0.57556909 -0.17289484 43 6830960 7 48 78 1244
1.0064856 -0.48556575 -0.1676683 53 6830960 7 49 55 1130
1.1458809 -0.5022524 -0.19997141 84 6830960 14 50 66 1267
1.9942323 -0.78817868 -0.36391973 173 6830960 82 51 66 2175
1.0257521 -0.543208 -0.20687893 70 6830960 10 52 95 1179
1.034512 -0.4997324 -0.21590143 69 6830960 9 53 81 1169
1.1543862 -0.50641268 -0.24932715 78 6830960 13 54 103 1285
1.2400798 -0.49009061 -0.27759281 80 6830960 15 55 69 1362
0.97735244 -0.51827615 -0.23999207 69 6830960 9 56 127 1132
1.0596653 -0.5125674 -0.26689544 61 6830960 9 57 62 1207
1.1039627 -0.48454541 -0.28566295 54 6830960 8 58 61 1239
1.143772 -0.45214429 -0.30436894 95 6830960 15 59 80 1267
1.0467749 -0.55665922 -0.30425161 57 6830960 9 60 32 1224
0.98336619 -0.47667801 -0.29142758 70 6830960 9 61 27 1131
1.1452525 -0.5029304 -0.34678811 77 6830960 13 62 79 1298
4.6373429 -1.8309416 -1.4382026 213 6830960 572 63 56 5189
0 -0 0 4 6928240 0 0 67 0
0 -0 0 9 6928240 0 1 96 0
2.4075139 -1.0585761 0.76153702 29 6928240 21 2 43 2738
2.4209096 -0.95737886 0.72720838 149 6928240 109 3 58 2703
0 -0 0 0 6928240 0 4 76 0
2.7520666 -1.3370404 0.79396141 16 6928240 16 5 42 3161
2.4707551 -1.0875154 0.67246139 42 6928240 33 6 92 2782
2.1453817 -0.85093033 0.55171037 138 6928240 78 7 69 2373
1.6902267 -0.89980477 0.44126025 85 6928240 33 8 84 1965
2.4030473 -1.1663356 0.58758086 11 6928240 8 9 46 2735
2.2611983 -0.99673861 0.51876807 233 6928240 149 10 59 2525
2.308861 -0.91810441 0.49739492 264 6928240 169 11 44 2534
0 -0 0 7 6928240 0 12 107 0
2.2027578 -1.070169 0.44465405 43 6928240 27 13 66 2489
2.076771 -0.91591918 0.38977426 149 6928240 79 14 102 2303
2.2240469 -0.88500804 0.38858926 264 6928240 155 15 61 2425
2.1916656 -1.1663568 0.38256729 25 6928240 16 16 58 2512
1.8960202 -0.92167795 0.3041676 67 6928240 31 17 88 2130
2.1231844 -0.93776137 0.31249937 256 6928240 141 18 80 2342
2.108011 -0.84032613 0.28374603 204 6928240 107 19 87 2287
1.9982313 -1.06346 0.26450992 195 6928240 101 20 96 2279
1.8599021 -0.90448177 0.22153464 87 6928240 38 21 88 2080
1.9961598 -0.88278192 0.21281841 234 6928240 113 22 85 2193
1.9843903 -0.79229116 0.18840355 212 6928240 98 23 134 2145
1.8969815 -1.0100422 0.17208371 182 6928240 85 24 75 2156
1.9239745 -0.93626344 0.15086004 162 6928240 75 25 82 2145
1.9042072 -0.84219629 0.12687485 202 6928240 88 26 135 2086
1.894402 -0.75766599 0.10503507 198 6928240 83 27 93 2043
1.6768323 -0.89387643 0.082599267 135 6928240 49 28 32 1902
1.8590291 -0.90546179 0.070077777 221 6928240 94 29 41 2069
1.8140608 -0.80437118 0.048948124 172 6928240 68 30 51 1985
1.8063803 -0.72322983 0.029072195 213 6928240 81 31 70 1946
1.6836225 -0.89760929 0.013320246 33 6928240 12 32 96 1908
1.7779613 -0.86678314 -0.0050057736 108 6928240 42 33 81 1978
1.7174958 -0.76180452 -0.022431068 156 6928240 55 34 103 1879
1.7073412 -0.68485665 -0.039465152 185 6928240 63 35 69 1840
0 -0 -0 0 6928240 0 36 136 0
0 -0 -0 9 6928240 0 37 57 0
0 -0 -0 5 6928240 0 38 79 0
0 -0 -0 0 6928240 0 39 64 0
0 -0 -0 0 6928240 0 40 114 0
0 -0 -0 9 6928240 0 41 96 0
1.1253991 -0.50011736 -0.10514545 40 6928240 6 42 171 1236
1.6175232 -0.6498118 -0.16542257 31 6928240 10 43 60 1751
1.0515201 -0.56280297 -0.12312336 48 6928240 7 44 108 1199
1.0638926 -0.52075678 -0.13344985 57 6928240 8 45 58 1192
1.0628527 -0.47298887 -0.14216086 97 6928240 13 46 107 1172
1.8682071 -0.75104994 -0.26587188 212 6928240 87 47 144 2031
1.0437611 -0.55977559 -0.16622366 47 6928240 7 48 85 1196
1.0141438 -0.49695426 -0.16944885 44 6928240 6 49 55 1142
1.1427777 -0.50927395 -0.19997141 132 6928240 21 50 77 1267
1.923504 -0.7739042 -0.35187274 157 6928240 70 51 83 2103
0.93915087 -0.50474942 -0.19003382 64 6928240 8 52 88 1083
1.1055408 -0.54243499 -0.2314153 66 6928240 10 53 94 1253
1.0975019 -0.48951033 -0.2376854 61 6928240 9 54 85 1225
1.1825536 -0.47576565 -0.26536405 71 6928240 12 55 59 1302
0.99480736 -0.53537846 -0.24508022 52 6928240 7 56 102 1156
1.0670041 -0.52422029 -0.26954895 64 6928240 10 57 58 1219
1.1329582 -0.50558543 -0.29396307 64 6928240 10 58 76 1275
1.195008 -0.48089749 -0.31878263 95 6928240 17 59 76 1327
0.98196667 -0.52994972 -0.28635445 69 6928240 9 60 43 1152
1.0948489 -0.53903955 -0.32544035 71 6928240 11 61 33 1263
1.1632632 -0.51937693 -0.3532002 62 6928240 11 62 52 1322
4.5297389 -1.820662 -1.408269 229 6928240 592 63 61 5081
0 -0 0 4 7024480 0 0 61 0
0 -0 0 10 7024480 0 1 108 0
2.5588167 -1.1438905 0.81160158 13 7024480 11 2 61 2918
2.1469553 -0.86431128 0.64649713 89 7024480 52 3 60 2403
1.847177 -0.99841076 0.56722039 10 7024480 5 4 73 2175
2.6188159 -1.2922243 0.75779229 10 7024480 9 5 51 3017
2.3790078 -1.0646052 0.64925641 31 7024480 23 6 89 2686
2.1401203 -0.86407816 0.55171037 151 7024480 85 7 76 2373
1.6332333 -0.88236773 0.42778662 37 7024480 14 8 84 1905
0 -0 0 6 7024480 0 9 26 0
2.2657568 -1.0153972 0.5212335 240 7024480 155 10 66 2537
2.1941147 -0.88810617 0.47384027 113 7024480 66 11 46 2414
0 -0 0 4 7024480 0 12 111 0
2.2490904 -1.1097876 0.4553729 28 7024480 18 13 54 2549
2.027945 -0.90928954 0.38165042 126 7024480 64 14 104 2255
2.2185748 -0.89863783 0.38858926 288 7024480 170 15 69 2425
2.3723042 -1.281229 0.41546321 23 7024480 17 16 51 2728
2.0713747 -1.0226803 0.33329913 119 7024480 65 17 90 2334
2.0414464 -0.91667026 0.30129105 144 7024480 74 18 90 2258
2.0697143 -0.83981377 0.27927953 81 7024480 41 19 84 2251
2.0336168 -1.0983572 0.27008098 89 7024480 48 20 102 2327
1.8971092 -0.93701243 0.22664696 138 7024480 63 21 88 2128
1.9907055 -0.89501351 0.21281841 217 7024480 105 22 68 2193
1.9684173 -0.79995179 0.18734953 228 7024480 104 23 117 2133
1.869701 -1.01029 0.17016812 160 7024480 73 24 69 2132
1.8001506 -0.88970941 0.14157633 98 7024480 40 25 74 2013
1.8990037 -0.85386443 0.12687485 80 7024480 35 26 128 2086
1.8897173 -0.76927555 0.10503507 233 7024480 97 27 87 2043
1.6291378 -0.88133085 0.080514744 157 7024480 54 28 44 1854
1.8641881 -0.92216921 0.070484228 216 7024480 93 29 41 2081
1.8528373 -0.83520645 0.050131753 181 7024480 75 30 50 2033
1.8463545 -0.75241214 0.029789289 192 7024480 77 31 71 1994
1.4986655 -0.81084943 0.011896068 43 7024480 13 32 79 1704
1.7511015 -0.86702698 -0.0049450365 40 7024480 15 33 66 1954
1.7674818 -0.79699045 -0.023147335 189 7024480 71 34 93 1939
1.7475358 -0.7134586 -0.04049468 162 7024480 58 35 56 1888
0 -0 -0 5 7024480 0 36 115 0
0 -0 -0 6 7024480 0 37 54 0
0 -0 -0 0 7024480 0 38 73 0
0 -0 -0 0 7024480 0 39 76 0
0 -0 -0 4 7024480 0 40 87 0
1.2092278 -0.60051584 -0.10229884 10 7024480 2 41 77 1354
1.0678282 -0.48240095 -0.10004129 45 7024480 6 42 151 1176
1.3702358 -0.5602572 -0.14048165 16 7024480 4 43 64 1487
0.97462249 -0.52936405 -0.11449753 57 7024480 7 44 126 1115
1.1247451 -0.55912375 -0.14151058 49 7024480 8 45 64 1264
1.0816356 -0.48932067 -0.14507201 103 7024480 15 46 105 1196
1.8745742 -0.76700401 -0.26744273 234 7024480 98 47 112 2043
1.0507445 -0.57185006 -0.16789144 56 7024480 8 48 79 1208
1.0216997 -0.5084548 -0.17122939 56 7024480 8 49 62 1154
1.0748693 -0.48693779 -0.1886076 60 7024480 8 50 55 1195
1.6012136 -0.65567738 -0.29364556 141 7024480 44 51 88 1755
1.0086372 -0.55009818 -0.20477329 65 7024480 9 52 85 1167
1.0916359 -0.54394847 -0.22919904 52 7024480 8 53 77 1241
1.0623134 -0.48165199 -0.23070036 71 7024480 10 54 89 1189
1.1578681 -0.47410926 -0.26047257 70 7024480 11 55 69 1278
0.97091883 -0.53023076 -0.23999207 54 7024480 7 56 125 1132
1.0637674 -0.53075743 -0.26954895 61 7024480 9 57 42 1219
1.1192008 -0.50770378 -0.29119635 63 7024480 10 58 43 1263
1.256712 -0.51471066 -0.33607903 100 7024480 20 59 84 1399
0.94811219 -0.51921606 -0.27740586 78 7024480 10 60 30 1116
1.0292964 -0.5146358 -0.30688795 63 7024480 9 61 41 1191
1.1811146 -0.53606319 -0.35961232 56 7024480 10 62 63 1346
4.4864674 -1.8353251 -1.398291 241 7024480 615 63 59 5045
0 -0 0 0 7123340 0 0 77 0
0 -0 0 8 7123340 0 1 79 0
2.6776755 -1.2167929 0.8516531 10 7123340 9 2 41 3062
2.3768947 -0.97386944 0.71752298 127 7123340 91 3 59 2667
1.6073974 -0.88159519 0.49524203 61 7123340 22 4 69 1899
2.7666054 -1.3863226 0.80300367 20 7123340 20 5 40 3197
2.5632145 -1.1659671 0.70146763 17 7123340 15 6 80 2902
2.3506846 -0.96591085 0.60750914 183 7123340 125 7 80 2613
0 -0 0 3 7123340 0 8 79 0
0 -0 0 5 7123340 0 9 34 0
2.2594838 -1.0292805 0.5212335 231 7123340 149 10 65 2537
2.1559851 -0.88810742 0.4667739 126 7123340 71 11 45 2378
0 -0 0 3 7123340 0 12 117 0
1.7672254 -0.88554174 0.35890317 44 7123340 18 13 57 2009
1.9147091 -0.87266648 0.36134085 118 7123340 54 14 107 2135
2.2239699 -0.91674793 0.39051214 293 7123340 174 15 63 2437
2.2083893 -1.2102636 0.38804993 17 7123340 11 16 46 2548
2.0969126 -1.0513405 0.33844 217 7123340 122 17 102 2370
1.9384121 -0.88473648 0.28688031 132 7123340 61 18 81 2150
2.0315046 -0.83886355 0.27481306 58 7123340 29 19 89 2215
2.026839 -1.1108146 0.27008098 42 7123340 23 20 94 2327
1.9659816 -0.98608142 0.23559357 181 7123340 89 21 95 2212
1.9091369 -0.87246192 0.20466669 101 7123340 45 22 90 2109
1.9634719 -0.8120147 0.18734953 225 7123340 102 23 155 2133
1.8634667 -1.0217432 0.17016812 90 7123340 41 24 76 2132
1.7732608 -0.88999915 0.13988841 104 7123340 41 25 82 1989
1.7956833 -0.82069021 0.12030605 92 7123340 36 26 155 1978
1.8960334 -0.78544271 0.10565203 209 7123340 88 27 113 2055
1.5711523 -0.86246544 0.077909082 147 7123340 47 28 47 1794
1.8799285 -0.94435728 0.071297109 216 7123340 95 29 55 2105
1.8367717 -0.84156269 0.04983585 156 7123340 64 30 40 2021
1.8195361 -0.75453472 0.029430743 198 7123340 77 31 70 1970
1.5041807 -0.82580465 0.011979843 55 7123340 16 32 80 1716
1.7671906 -0.88853616 -0.0050057736 77 7123340 30 33 69 1978
1.7625583 -0.8078205 -0.023147335 175 7123340 66 34 83 1939
1.732046 -0.71956503 -0.040237296 187 7123340 66 35 72 1876
0 -0 -0 6 7123340 0 36 135 0
0 -0 -0 9 7123340 0 37 51 0
0 -0 -0 5 7123340 0 38 78 0
0 -0 -0 3 7123340 0 39 76 0
0 -0 -0 6 7123340 0 40 103 0
0 -0 -0 7 7123340 0 41 93 0
1.0322509 -0.47397631 -0.096978813 51 7123340 7 42 145 1140
1.6094272 -0.66961241 -0.16542257 19 7123340 6 43 54 1751
1.1072588 -0.61023307 -0.13051692 52 7123340 8 44 117 1271
1.0787125 -0.54452032 -0.13613676 60 7123340 9 45 55 1216
1.0677906 -0.49097216 -0.14361642 111 7123340 16 46 103 1184
1.9137641 -0.79678231 -0.27372628 223 7123340 97 47 134 2091
1.0784245 -0.59552026 -0.17289484 42 7123340 7 48 86 1244
1.0291523 -0.52006656 -0.17300993 43 7123340 6 49 62 1166
1.0933882 -0.50343567 -0.19239554 74 7123340 11 50 59 1219
1.1166471 -0.46527416 -0.20530093 148 7123340 22 51 108 1227
1.0259163 -0.56771684 -0.20898458 48 7123340 7 52 95 1191
1.0882778 -0.55063641 -0.22919904 68 7123340 11 53 88 1241
1.1341777 -0.52264857 -0.24699879 66 7123340 11 54 72 1273
1.1657817 -0.48572323 -0.26291829 103 7123340 17 55 53 1290
0.9779048 -0.54186207 -0.24253614 64 7123340 8 56 117 1144
1.0082927 -0.51082957 -0.25628155 54 7123340 7 57 52 1159
1.0736488 -0.49500576 -0.28012952 68 7123340 10 58 58 1215
1.1675123 -0.48656386 -0.31301716 82 7123340 14 59 72 1303
1.0261909 -0.57018715 -0.30126873 80 7123340 12 60 44 1212
1.0364579 -0.52619052 -0.30998001 56 7123340 8 61 39 1203
1.1463016 -0.5287692 -0.34999415 67 7123340 12 62 73 1310
4.4112544 -1.8362337 -1.3783352 219 7123340 540 63 51 4973
0 -0 0 3 7219380 0 0 71 0
0 -0 0 6 7219380 0 1 80 0
2.5864441 -1.1945367 0.82495207 11 7219380 9 2 55 2966
2.4775505 -1.0329095 0.74980754 264 7219380 205 3 64 2787
1.6222037 -0.9027077 0.50150102 74 7219380 27 4 90 1923
2.706285 -1.376936 0.78793317 18 7219380 17 5 42 3137
2.5877199 -1.1963317 0.71016949 11 7219380 10 6 84 2938
2.3770175 -0.99382228 0.61587894 230 7219380 162 7 78 2649
0 -0 0 6 7219380 0 8 89 0
0 -0 0 7 7219380 0 9 35 0
2.3277266 -1.0776628 0.53849149 91 7219380 62 10 53 2621
2.1070874 -0.8831265 0.45735207 141 7219380 76 11 52 2330
0 -0 0 3 7219380 0 12 108 0
1.7407122 -0.88566035 0.35461563 58 7219380 23 13 58 1985
2.0917547 -0.96890312 0.39586711 146 7219380 80 14 105 2339
2.2292264 -0.93495798 0.39243507 296 7219380 178 15 67 2449
0 -0 0 6 7219380 0 16 54 0
2.1539288 -1.0965168 0.34872171 80 7219380 48 17 82 2442
1.9545239 -0.90662241 0.29008269 125 7219380 59 18 74 2174
2.0812082 -0.87437326 0.2822572 101 7219380 52 19 89 2275
2.2074871 -1.2274922 0.29515085 28 7219380 18 20 91 2543
2.0024233 -1.0197849 0.24070589 184 7219380 94 21 86 2260
2.0120687 -0.93446749 0.21631201 187 7219380 93 22 75 2229
1.9804884 -0.83331901 0.18945754 202 7219380 94 23 154 2157
1.6167417 -0.89940953 0.14813884 108 7219380 37 24 61 1856
1.7357707 -0.88455772 0.13735649 128 7219380 49 25 72 1953
1.8883826 -0.87710387 0.12687485 72 7219380 31 26 120 2086
1.8911784 -0.79706174 0.10565203 200 7219380 85 27 87 2055
1.5239357 -0.84875613 0.075824559 106 7219380 32 28 51 1746
1.8527313 -0.94497621 0.070484228 196 7219380 85 29 58 2081
1.7989476 -0.83762586 0.048948124 155 7219380 61 30 38 1985
1.7817069 -0.75169277 0.028892923 217 7219380 81 31 79 1934
1.6039164 -0.89341146 0.012817594 34 7219380 12 32 95 1836
1.7723932 -0.90481895 -0.0050361427 130 7219380 51 33 41 1990
1.7575684 -0.81862015 -0.023147335 169 7219380 64 34 92 1939
1.7496997 -0.73952049 -0.040752061 193 7219380 70 35 71 1900
0 -0 -0 10 7219380 0 36 121 0
0 -0 -0 6 7219380 0 37 77 0
0 -0 -0 3 7219380 0 38 64 0
0 -0 -0 4 7219380 0 39 65 0
0 -0 -0 0 7219380 0 40 91 0
0 -0 -0 0 7219380 0 41 97 0
1.061828 -0.49546853 -0.10004129 52 7219380 7 42 151 1176
1.5062757 -0.63756567 -0.15521948 18 7219380 5 43 54 1643
1.0930752 -0.61119014 -0.12928466 47 7219380 7 44 106 1259
1.117799 -0.57288402 -0.14151058 69 7219380 11 45 69 1264
1.0971323 -0.51264191 -0.14798315 73 7219380 11 46 103 1220
1.8650206 -0.78995019 -0.26744273 218 7219380 91 47 132 2043
1.1369543 -0.63697588 -0.18290162 39 7219380 7 48 85 1316
1.1104105 -0.56970918 -0.18725434 50 7219380 8 49 49 1262
1.0688128 -0.50009143 -0.1886076 63 7219380 9 50 59 1195
1.1028786 -0.4674997 -0.20329309 71 7219380 11 51 66 1215
0.95030367 -0.5335173 -0.19424509 49 7219380 6 52 88 1107
1.0743883 -0.55191469 -0.22698277 54 7219380 8 53 72 1229
1.1629323 -0.5445748 -0.25398383 65 7219380 11 54 77 1309
1.1411463 -0.48369756 -0.25802678 94 7219380 15 55 68 1266
0.94389355 -0.53061211 -0.23490389 66 7219380 8 56 110 1108
1.0363601 -0.53306556 -0.26424199 61 7219380 9 57 56 1195
1.0917388 -0.51149207 -0.28566295 63 7219380 10 58 58 1239
1.1645049 -0.49371842 -0.31301716 83 7219380 14 59 72 1303
0.97204566 -0.54793477 -0.28635445 103 7219380 14 60 46 1152
1.0744351 -0.55378866 -0.3223483 62 7219380 10 61 28 1251
1.0592712 -0.49652863 -0.32434574 55 7219380 8 62 70 1214
4.3255854 -1.8317934 -1.3550535 254 7219380 606 63 57 4889
1.518286 -0.85813707 0.5443694 30 7317470 10 0 73 1827
0 -0 0 5 7317470 0 1 79 0
2.7668872 -1.2985309 0.88502949 11 7317470 11 2 48 3182
2.5030863 -1.0616304 0.75949287 80 7317470 63 3 52 2823
1.5863696 -0.89555895 0.49211255 28 7317470 10 4 86 1887
2.8009841 -1.4468218 0.81807411 12 7317470 12 5 47 3257
0 -0 0 7 7317470 0 6 102 0
2.3493948 -0.99925268 0.61029911 212 7317470 146 7 90 2625
0 -0 0 4 7317470 0 8 103 0
1.8008876 -0.92935568 0.44578803 11 7317470 5 9 42 2075
2.2785633 -1.0719281 0.52862978 34 7317470 23 10 67 2573
2.0475099 -0.8729648 0.44557479 135 7317470 69 11 44 2270
0 -0 0 4 7317470 0 12 111 0
1.7667156 -0.91258025 0.36104697 23 7317470 9 13 45 2021
2.1285734 -1.0018661 0.40399092 201 7317470 115 14 95 2387
2.1253943 -0.90678495 0.37512884 196 7317470 108 15 77 2341
3.3399847 -1.8840731 0.59090805 11 7317470 17 16 66 3880
2.0944042 -1.0824468 0.34015363 42 7317470 24 17 94 2382
1.8628632 -0.87803441 0.27727315 98 7317470 42 18 88 2078
1.9882097 -0.84969205 0.27034655 201 7317470 96 19 86 2179
2.1064844 -1.1883087 0.2826159 32 7317470 19 20 104 2435
2.027925 -1.0484922 0.24454014 174 7317470 92 21 82 2296
2.0062971 -0.94679576 0.21631201 208 7317470 104 22 84 2229
2.008306 -0.85956591 0.19261955 128 7317470 61 23 143 2193
1.6111926 -0.90931278 0.14813884 112 7317470 38 24 51 1856
1.751574 -0.90619236 0.13904443 122 7317470 48 25 80 1977
1.893797 -0.89378637 0.12760471 83 7317470 37 26 114 2098
1.8752373 -0.80392873 0.10503507 196 7317470 82 27 108 2043
1.3934456 -0.78732049 0.069570996 61 7317470 16 28 43 1602
1.8042978 -0.93426806 0.068858445 100 7317470 41 29 51 2033
1.9239019 -0.91021264 0.052499022 65 7317470 29 30 42 2129
1.8432184 -0.79100186 0.029968563 215 7317470 87 31 85 2006
1.6297456 -0.9209466 0.01306892 88 7317470 31 32 64 1872
1.7881163 -0.9267205 -0.0050968803 162 7317470 66 33 82 2014
1.774204 -0.83965474 -0.02343384 153 7317470 59 34 100 1963
1.7451291 -0.75024253 -0.040752061 197 7317470 71 35 66 1900
0 -0 -0 8 7317470 0 36 128 0
0 -0 -0 3 7317470 0 37 77 0
0 -0 -0 7 7317470 0 38 69 0
0 -0 -0 7 7317470 0 39 76 0
0 -0 -0 4 7317470 0 40 100 0
0 -0 -0 5 7317470 0 41 89 0
1.0803754 -0.51221883 -0.10208296 51 7317470 7 42 154 1200
1.5133078 -0.65152001 -0.15635316 24 7317470 7 43 59 1655
1.1308346 -0.64144278 -0.1342137 66 7317470 11 44 109 1307
1.0084784 -0.52469409 -0.12807603 73 7317470 10 45 58 1144
1.0616852 -0.50403863 -0.14361642 73 7317470 10 46 132 1184
1.7618053 -0.75901526 -0.25330481 79 7317470 30 47 121 1935
1.0400406 -0.59109396 -0.16789144 47 7317470 7 48 71 1208
0.95954198 -0.4997654 -0.16232666 43 7317470 5 49 55 1094
1.0657243 -0.50664014 -0.1886076 60 7317470 8 50 55 1195
1.0999893 -0.47425804 -0.20329309 105 7317470 16 51 77 1215
1.0394037 -0.59195662 -0.21319585 52 7317470 8 52 94 1215
0.98732471 -0.51487112 -0.20925263 62 7317470 8 53 95 1133
1.159569 -0.55170012 -0.25398383 42 7317470 7 54 76 1309
1.1489452 -0.49534151 -0.26047257 68 7317470 11 55 71 1278
0.9813689 -0.55963099 -0.24508022 66 7317470 9 56 109 1156
1.0330698 -0.53941453 -0.26424199 61 7317470 9 57 50 1195
1.1518388 -0.54829347 -0.30226323 62 7317470 11 58 59 1311
1.1400607 -0.49162912 -0.30725166 61 7317470 10 59 72 1279
0.92830426 -0.53081012 -0.274423 90 7317470 11 60 32 1104
1.0812904 -0.56574613 -0.32544035 66 7317470 10 61 39 1263
1.0875252 -0.51793534 -0.33396387 76 7317470 12 62 77 1250
4.2719064 -1.8400553 -1.3417497 156 7317470 367 63 59 4841
1.5726172 -0.90162164 0.56582236 83 7415210 30 0 61 1899
0 -0 0 6 7415210 0 1 93 0
0 -0 0 6 7415210 0 2 56 0
2.5601985 -1.104437 0.77886361 45 7415210 37 3 38 2895
0 -0 0 3 7415210 0 4 71 0
2.7509058 -1.4424057 0.8060177 11 7415210 11 5 49 3209
0 -0 0 5 7415210 0 6 93 0
2.3967783 -1.0368186 0.6242488 162 7415210 117 7 83 2685
0 -0 0 4 7415210 0 8 87 0
1.701717 -0.89144272 0.42258561 95 7415210 37 9 26 1967
2.2189634 -1.060567 0.51630259 25 7415210 15 10 54 2513
2.0313196 -0.88083047 0.4432193 146 7415210 74 11 38 2258
0 -0 0 0 7415210 0 12 107 0
0 -0 0 7 7415210 0 13 58 0
2.1437254 -1.0251122 0.40805283 183 7415210 106 14 93 2411
2.0328617 -0.88208944 0.3597455 144 7415210 73 15 73 2245
3.0607197 -1.7513835 0.5433917 15 7415210 18 16 55 3568
2.2244503 -1.1670084 0.36243069 33 7415210 21 17 92 2538
1.8574407 -0.88944823 0.27727315 80 7415210 35 18 63 2078
2.0375605 -0.88560766 0.2777907 101 7415210 51 19 87 2239
1.8612206 -1.0650578 0.25058225 19 7415210 9 20 67 2159
2.0003233 -1.0498259 0.24198398 198 7415210 102 21 93 2272
1.8927543 -0.90745509 0.20466669 90 7415210 40 22 73 2109
1.9153118 -0.83370572 0.18418752 50 7415210 22 23 158 2097
1.57444 -0.90135276 0.14526546 90 7415210 30 24 76 1820
1.8307629 -0.96144712 0.14579621 117 7415210 50 25 50 2073
1.834275 -0.87949675 0.12395538 62 7415210 26 26 121 2038
1.8922403 -0.82499897 0.10626898 215 7415210 92 27 119 2067
1.4717997 -0.8435474 0.073740043 65 7415210 19 28 50 1698
1.6711391 -0.87836313 0.063981116 70 7415210 25 29 30 1889
1.8317822 -0.88042581 0.050131753 67 7415210 28 30 63 2033
1.7833453 -0.77829981 0.029072195 257 7415210 97 31 88 1946
1.6552962 -0.94883168 0.013320246 112 7415210 41 32 87 1908
1.7823963 -0.9376747 -0.0050968803 120 7415210 49 33 67 2014
1.7582045 -0.84532589 -0.023290588 168 7415210 64 34 91 1951
1.7075151 -0.74651855 -0.039979916 168 7415210 58 35 81 1864
0 -0 -0 10 7415210 0 36 145 0
0 -0 -0 4 7415210 0 37 62 0
0 -0 -0 0 7415210 0 38 79 0
0 -0 -0 0 7415210 0 39 64 0
0 -0 -0 6 7415210 0 40 89 0
0 -0 -0 3 7415210 0 41 89 0
1.0664401 -0.51364988 -0.10106213 69 7415210 10 42 140 1188
1.5530554 -0.67995822 -0.16088787 19 7415210 6 43 59 1703
1.0854926 -0.62455779 -0.12928466 46 7415210 7 44 92 1259
1.0685068 -0.56428361 -0.13613676 73 7415210 11 45 61 1216
1.0800301 -0.52089238 -0.14652757 64 7415210 9 46 102 1208
1.0706142 -0.46904773 -0.15433921 46 7415210 6 47 144 1179
1.0466895 -0.60339946 -0.16955924 52 7415210 8 48 83 1220
1.0928442 -0.57774633 -0.18547377 39 7415210 6 49 46 1250
1.0732658 -0.51832289 -0.19050156 60 7415210 9 50 66 1207
1.1078937 -0.48574916 -0.20530093 163 7415210 25 51 83 1227
0.99483335 -0.57468569 -0.20477329 49 7415210 7 52 105 1167
0.99457043 -0.52643681 -0.21146891 59 7415210 8 53 87 1145
1.0077776 -0.4870865 -0.22138698 60 7415210 8 54 80 1141
1.1458843 -0.50238198 -0.26047257 72 7415210 12 55 65 1278
0.93731105 -0.54215515 -0.23490389 57 7415210 7 56 110 1108
1.0090595 -0.53478265 -0.258935 55 7415210 8 57 65 1171
1.1169163 -0.54010081 -0.29396307 52 7415210 9 58 59 1275
1.1476905 -0.50329334 -0.31013441 71 7415210 12 59 73 1291
0.97530311 -0.56565344 -0.28933731 105 7415210 14 60 20 1164
1.0265969 -0.54517919 -0.30998001 66 7415210 10 61 32 1203
1.0218697 -0.4943817 -0.31472757 79 7415210 11 62 72 1178
1.1450026 -0.50154287 -0.36059004 30 7415210 5 63 88 1301
1.537348 -0.89397907 0.55509585 55 7512120 19 0 67 1863
0 -0 0 5 7512120 0 1 99 0
0 -0 0 8 7512120 0 2 35 0
2.6486292 -1.1619123 0.80791968 27 7512120 25 3 58 3003
0 -0 0 3 7512120 0 4 74 0
0 -0 0 7 7512120 0 5 39 0
0 -0 0 6 7512120 0 6 89 0
2.3476386 -1.0327076 0.61308903 65 7512120 45 7 55 2637
0 -0 0 3 7512120 0 8 82 0
1.644475 -0.87435752 0.40969533 58 7512120 21 9 43 1907
2.4025779 -1.1664898 0.56068039 11 7512120 9 10 62 2729
2.1658397 -0.95499229 0.47384027 161 7512120 94 11 57 2414
0 -0 0 7 7512120 0 12 119 0
0 -0 0 6 7512120 0 13 59 0
2.1799481 -1.0589168 0.41617665 106 7512120 64 14 95 2459
1.9840633 -0.87542003 0.35205382 89 7512120 43 15 62 2197
3.1832643 -1.8475245 0.56714994 20 7512120 27 16 57 3724
2.2591817 -1.2029643 0.36928517 10 7512120 7 17 92 2586
1.8947266 -0.92163688 0.28367794 98 7512120 44 18 72 2126
2.032088 -0.89809322 0.2777907 72 7512120 36 19 103 2239
1.5660156 -0.90893131 0.21158472 62 7512120 21 20 82 1823
1.9517208 -1.0396416 0.23687166 211 7512120 104 21 105 2224
1.8227243 -0.88767582 0.19767949 95 7512120 40 22 71 2037
1.9429526 -0.8599562 0.18734953 56 7512120 25 23 119 2133
1.4550929 -0.84492415 0.13472973 65 7512120 19 24 62 1688
1.8142656 -0.9670319 0.14495224 163 7512120 69 25 63 2061
1.8611494 -0.9064694 0.12614498 113 7512120 49 26 136 2074
1.8980982 -0.84145081 0.10688592 229 7512120 99 27 113 2079
1.5909718 -0.92486441 0.079993613 42 7512120 14 28 65 1842
1.6974628 -0.90553522 0.065200448 107 7512120 40 29 39 1925
1.8371259 -0.89691192 0.05042766 179 7512120 75 30 52 2045
1.7895035 -0.79409432 0.029251469 231 7512120 89 31 72 1958
1.6079477 -0.93484551 0.012985145 147 7512120 51 32 82 1860
1.5648981 -0.83555365 -0.0044895057 46 7512120 15 33 64 1774
1.7637666 -0.86136371 -0.02343384 158 7512120 61 34 92 1963
1.7248282 -0.76672816 -0.04049468 182 7512120 65 35 83 1888
0 -0 -0 10 7512120 0 36 148 0
0 -0 -0 0 7512120 0 37 55 0
0 -0 -0 8 7512120 0 38 79 0
0 -0 -0 3 7512120 0 39 86 0
0 -0 -0 0 7512120 0 40 100 0
0 -0 -0 6 7512120 0 41 85 0
1.0954885 -0.53594697 -0.10412462 66 7512120 10 42 147 1224
1.417888 -0.6311751 -0.14728372 25 7512120 6 43 66 1559
1.122878 -0.65527159 -0.1342137 53 7512120 9 44 100 1307
1.0650244 -0.57082927 -0.13613676 81 7512120 12 45 57 1216
1.0875103 -0.53274965 -0.14798315 62 7512120 9 46 112 1220
1.0568486 -0.47076729 -0.15276833 63 7512120 9 47 128 1167
0.99167395 -0.5798198 -0.16122027 60 7512120 8 48 81 1160
1.0369934 -0.55638784 -0.17657104 48 7512120 7 49 48 1190
0.98495656 -0.48315024 -0.17534983 46 7512120 6 50 58 1111
1.1048924 -0.49253792 -0.20530093 85 7512120 13 51 69 1227
1.0014815 -0.58675104 -0.20687893 57 7512120 8 52 89 1179
1.0640473 -0.57159716 -0.22698277 54 7512120 8 53 80 1229
1.0047699 -0.49326092 -0.22138698 62 7512120 8 54 80 1141
1.1427801 -0.50940353 -0.26047257 75 7512120 12 55 64 1278
1.0148882 -0.59536737 -0.25525659 32 7512120 5 56 123 1204
0.98514593 -0.52987683 -0.25362808 59 7512120 8 57 69 1147
1.0926198 -0.53664845 -0.28842965 57 7512120 9 58 49 1251
1.1552198 -0.51506948 -0.31301716 67 7512120 11 59 71 1303
0.98183262 -0.57752019 -0.29232013 90 7512120 12 60 31 1176
1.0334392 -0.55696893 -0.31307209 68 7512120 10 61 40 1215
1.1018444 -0.5414418 -0.34037599 74 7512120 12 62 77 1274
1.1945662 -0.53201288 -0.37721986 62 7512120 11 63 52 1361
0 -0 0 3 7610360 0 0 76 0
0 -0 0 3 7610360 0 1 83 0
0 -0 0 7 7610360 0 2 46 0
2.5781183 -1.149895 0.78854895 19 7610360 16 3 45 2931
0 -0 0 3 7610360 0 4 79 0
1.6292382 -0.8799293 0.48049608 45 7610360 16 5 42 1913
0 -0 0 9 7610360 0 6 88 0
2.5330331 -1.1328616 0.66330791 30 7610360 25 7 84 2853
0 -0 0 3 7610360 0 8 84 0
1.8350465 -0.99017352 0.45867828 12 7610360 5 9 45 2135
0 -0 0 0 7610360 0 10 51 0
2.2458358 -1.0067697 0.49268401 209 7610360 132 11 59 2510
0 -0 0 3 7610360 0 12 99 0
0 -0 0 5 7610360 0 13 47 0
1.8552204 -0.91529107 0.355248 55 7610360 24 14 105 2099
1.9894619 -0.89242548 0.35397676 130 7610360 64 15 68 2209
0 -0 0 8 7610360 0 16 44 0
2.1368191 -1.1546931 0.35043535 16 7610360 10 17 90 2454
1.9956605 -0.98592144 0.29968983 159 7610360 80 18 72 2246
2.0699847 -0.93006545 0.28374603 102 7610360 53 19 103 2287
1.5090517 -0.88829195 0.20462088 83 7610360 26 20 62 1763
2.0082822 -1.085642 0.24454014 114 7610360 60 21 103 2296
1.7744217 -0.87766272 0.19302136 113 7610360 45 22 78 1989
1.9376395 -0.8718617 0.18734953 77 7610360 35 23 132 2133
1.4292667 -0.84169662 0.13281412 64 7610360 18 24 52 1664
1.7767118 -0.96106029 0.14242032 107 7610360 44 25 84 2025
1.8555524 -0.91787213 0.12614498 95 7610360 41 26 139 2074
1.8819737 -0.84815758 0.10626898 140 7610360 60 27 83 2067
1.5542846 -0.91634309 0.07843022 148 7610360 48 28 51 1806
1.639141 -0.88738507 0.063168228 106 7610360 37 29 34 1865
1.8745788 -0.92948389 0.051611297 192 7610360 84 30 46 2093
1.7627228 -0.79519165 0.028892923 243 7610360 91 31 73 1934
1.6435279 -0.9690733 0.013320246 152 7610360 55 32 76 1908
1.5491911 -0.83942312 -0.0044591371 52 7610360 16 33 69 1762
1.7369491 -0.86150652 -0.023147335 62 7610360 23 34 101 1939
1.731024 -0.78223753 -0.040752061 206 7610360 74 35 77 1900
0 -0 -0 10 7610360 0 36 128 0
0 -0 -0 5 7610360 0 37 66 0
0 -0 -0 0 7610360 0 38 91 0
0 -0 -0 4 7610360 0 39 70 0
0 -0 -0 4 7610360 0 40 109 0
0 -0 -0 8 7610360 0 41 88 0
1.0921794 -0.54265863 -0.10412462 51 7610360 8 42 134 1224
1.5337106 -0.69404024 -0.15975419 27 7610360 8 43 60 1691
1.0880189 -0.64391083 -0.13051692 53 7610360 9 44 109 1271
1.0510265 -0.57165581 -0.13479331 75 7610360 11 45 63 1204
1.1162144 -0.55532956 -0.15234986 55 7610360 9 46 104 1256
1.0864525 -0.49196529 -0.15748097 49 7610360 7 47 109 1203
1.0187627 -0.60407662 -0.16622366 51 7610360 7 48 87 1196
1.0335599 -0.56274027 -0.17657104 52 7610360 7 49 57 1190
1.0243989 -0.51031959 -0.1829257 50 7610360 7 50 61 1159
1.1018494 -0.49930814 -0.20530093 72 7610360 11 51 78 1227
0.9673934 -0.5747816 -0.20056202 51 7610360 7 52 90 1143
0.97768033 -0.53295732 -0.20925263 69 7610360 9 53 93 1133
0.99118918 -0.49416441 -0.21905863 55 7610360 7 54 86 1129
1.1717352 -0.53095251 -0.26780978 61 7610360 10 55 54 1314
1.0414516 -0.61957091 -0.26288882 43 7610360 7 56 124 1240
1.0435109 -0.56955212 -0.26954895 49 7610360 7 57 70 1219
1.0057145 -0.50164723 -0.26629597 58 7610360 8 58 66 1155
1.1944765 -0.54138303 -0.3245481 59 7610360 11 59 76 1351
0.9083941 -0.54185277 -0.27144015 87 7610360 10 60 43 1092
1.0401752 -0.56886297 -0.31616417 64 7610360 10 61 33 1227
1.0364197 -0.51721138 -0.32113966 52 7610360 8 62 69 1202
1.1912794 -0.53933257 -0.37721986 67 7610360 12 63 64 1361
0 -0 0 3 7707940 0 0 63 0
0 -0 0 7 7707940 0 1 96 0
0 -0 0 7 7707940 0 2 45 0
2.4341741 -1.1036493 0.74657905 12 7707940 9 3 43 2775
0 -0 0 3 7707940 0 4 79 0
1.674738 -0.91782093 0.49556652 94 7707940 36 5 31 1973
0 -0 0 4 7707940 0 6 86 0
2.5154095 -1.1435524 0.66051793 34 7707940 28 7 58 2841
0 -0 0 3 7707940 0 8 82 0
0 -0 0 4 7707940 0 9 41 0
0 -0 0 5 7707940 0 10 43 0
2.2182014 -1.0107728 0.48797306 217 7707940 134 11 43 2486
0 -0 0 4 7707940 0 12 111 0
0 -0 0 6 7707940 0 13 54 0
1.7861254 -0.894871 0.34306228 65 7707940 27 14 81 2027
1.9623938 -0.89478749 0.35013095 110 7707940 53 15 71 2185
0 -0 0 4 7707940 0 16 55 0
2.1088655 -1.1563617 0.34700808 12 7707940 7 17 87 2430
2.0320935 -1.0194799 0.30609462 204 7707940 107 18 82 2294
1.9775896 -0.90317595 0.27183539 107 7707940 51 19 57 2191
1.4524019 -0.8669889 0.19765703 81 7707940 24 20 81 1703
1.9492769 -1.0692523 0.23814973 77 7707940 39 21 107 2236
1.8650575 -0.93678004 0.20350215 130 7707940 57 22 77 2097
1.9648653 -0.89864981 0.19051155 96 7707940 45 23 146 2169
1.4446149 -0.86271673 0.13472973 35 7707940 10 24 61 1688
1.6448592 -0.90282786 0.13229264 136 7707940 48 25 72 1881
1.7321494 -0.87009871 0.11811647 103 7707940 39 26 117 1942
1.8985249 -0.86967105 0.10750287 72 7707940 32 27 91 2091
1.5795025 -0.94431847 0.079993613 203 7707940 69 28 47 1842
1.6126422 -0.88587725 0.06235534 75 7707940 25 29 34 1841
1.8688403 -0.94096857 0.051611297 195 7707940 86 30 72 2093
1.8014376 -0.82599652 0.029610017 228 7707940 90 31 69 1982
1.5963546 -0.95450711 0.012985145 166 7707940 58 32 71 1860
1.5440114 -0.84891295 -0.0044591371 44 7707940 14 33 57 1762
1.7744969 -0.89373803 -0.023720348 32 7707940 13 34 89 1987
1.7807029 -0.81788135 -0.042038966 220 7707940 85 35 70 1960
0 -0 -0 9 7707940 0 36 120 0
1.2446247 -0.68549579 -0.055579465 16 7707940 3 37 72 1422
0 -0 -0 8 7707940 0 38 79 0
0 -0 -0 3 7707940 0 39 79 0
0 -0 -0 7 7707940 0 40 104 0
0.9203642 -0.50744891 -0.079632916 12 7707940 1 41 103 1054
1.1208535 -0.56550729 -0.10718711 50 7707940 8 42 154 1260
1.58369 -0.72839719 -0.16542257 33 7707940 10 43 54 1751
1.0021683 -0.60143608 -0.12065884 60 7707940 8 44 113 1175
1.1101401 -0.6126644 -0.14285403 96 7707940 16 45 64 1276
1.0596275 -0.53531295 -0.14507201 73 7707940 10 46 120 1196
1.1482562 -0.52846509 -0.16690627 50 7707940 8 47 122 1275
0.97429961 -0.58582193 -0.15955245 46 7707940 6 48 87 1148
1.06125 -0.58628708 -0.18191269 38 7707940 6 49 52 1226
1.0106747 -0.51124692 -0.18103173 74 7707940 10 50 51 1147
1.1417484 -0.52585649 -0.21333225 63 7707940 10 51 60 1275
1.0346825 -0.62338328 -0.2153015 64 7707940 10 52 103 1227
0.93311131 -0.51611358 -0.20038755 72 7707940 9 53 86 1085
1.114172 -0.56404036 -0.24699879 42 7707940 7 54 64 1273
1.0937595 -0.50373101 -0.25068954 58 7707940 9 55 65 1230
0.96733928 -0.58354646 -0.24508022 70 7707940 9 56 112 1156
1.080948 -0.59862292 -0.28016284 66 7707940 11 57 52 1267
1.0651184 -0.53946435 -0.28289625 66 7707940 10 58 57 1227
1.0959121 -0.50483835 -0.29860348 70 7707940 11 59 74 1243
0.98461735 -0.59554088 -0.29530302 56 7707940 8 60 46 1188
1.0062495 -0.55835736 -0.30688795 91 7707940 13 61 37 1191
1.0229115 -0.51833409 -0.31793362 62 7707940 9 62 65 1190
1.1041542 -0.50807458 -0.35061216 57 7707940 9 63 53 1265
0 -0 0 4 7806450 0 0 66 0
0 -0 0 8 7806450 0 1 79 0
0 -0 0 6 7806450 0 2 56 0
0 -0 0 6 7806450 0 3 45 0
0 -0 0 4 7806450 0 4 80 0
1.56756 -0.87163287 0.46542561 60 7806450 20 5 41 1853
0 -0 0 4 7806450 0 6 91 0
2.58251 -1.1932324 0.68004757 17 7806450 15 7 66 2925
0 -0 0 3 7806450 0 8 85 0
0 -0 0 0 7806450 0 9 40 0
0 -0 0 9 7806450 0 10 54 0
2.2760208 -1.0540322 0.50210583 151 7806450 98 11 53 2558
0 -0 0 0 7806450 0 12 112 0
0 -0 0 3 7806450 0 13 46 0
1.7700596 -0.90045106 0.34103131 26 7806450 11 14 91 2015
1.9676135 -0.9117918 0.35205382 125 7806450 60 15 71 2197
1.5456114 -0.93550253 0.27839687 21 7806450 7 16 57 1828
2.1951406 -1.2212477 0.36243069 11 7806450 7 17 92 2538
2.057591 -1.0481235 0.31089821 244 7806450 133 18 89 2330
1.8856056 -0.87518901 0.25992474 99 7806450 44 19 77 2095
1.3960723 -0.84502524 0.1906932 81 7806450 22 20 80 1643
1.9218278 -1.0695878 0.23559357 47 7806450 23 21 99 2212
1.955031 -0.99704087 0.21398295 187 7806450 91 22 87 2205
2.0026739 -0.93084258 0.19472755 214 7806450 105 23 128 2217
1.4085983 -0.85297662 0.13185634 41 7806450 11 24 81 1652
1.5765407 -0.87795991 0.12722883 130 7806450 43 25 81 1809
1.737448 -0.88615268 0.11884633 100 7806450 38 26 115 1954
1.9257467 -0.89647686 0.10935371 140 7806450 63 27 91 2127
1.5429226 -0.93534756 0.07843022 241 7806450 79 28 47 1806
1.5024172 -0.83736849 0.058290895 63 7806450 19 29 29 1721
1.8630315 -0.95241785 0.051611297 215 7806450 94 30 56 2093
1.7854596 -0.83196658 0.029430743 206 7806450 80 31 75 1970
1.5802066 -0.95806295 0.012901369 156 7806450 53 32 88 1848
1.8112464 -1.0103639 -0.0052487236 103 7806450 44 33 53 2074
1.747613 -0.89368296 -0.02343384 131 7806450 51 34 68 1963
1.7104231 -0.79834676 -0.04049468 185 7806450 66 35 95 1888
0 -0 -0 5 7806450 0 36 131 0
0 -0 -0 7 7806450 0 37 51 0
0 -0 -0 9 7806450 0 38 75 0
0 -0 -0 0 7806450 0 39 79 0
0 -0 -0 0 7806450 0 40 91 0
1.2200768 -0.68249285 -0.10592538 12 7806450 2 41 98 1402
1.0854379 -0.5560205 -0.10412462 49 7806450 7 42 135 1224
1.5900135 -0.74315923 -0.16655627 44 7806450 14 43 65 1763
1.1514144 -0.70064908 -0.13914275 50 7806450 9 44 94 1355
1.0647415 -0.59616184 -0.13748021 85 7806450 13 45 51 1228
0.96093589 -0.49287909 -0.13197187 51 7806450 6 46 95 1088
1.037228 -0.48510066 -0.15119745 81 7806450 11 47 128 1155
1.011273 -0.61653292 -0.16622366 61 7806450 9 48 83 1196
1.0886886 -0.61019427 -0.18725434 47 7806450 8 49 64 1262
1.0496817 -0.5390926 -0.1886076 50 7806450 7 50 59 1195
1.0742086 -0.50276172 -0.20128526 58 7806450 8 51 65 1203
0.96026713 -0.58660972 -0.20056202 62 7806450 8 52 96 1143
0.97106653 -0.54491484 -0.20925263 51 7806450 7 53 92 1133
1.0269303 -0.52781582 -0.22837202 49 7806450 7 54 76 1177
1.1225696 -0.52537221 -0.25802678 58 7806450 9 55 73 1266
0.98374897 -0.60170913 -0.25016841 120 7806450 17 56 117 1180
0.96502286 -0.54218805 -0.25097463 69 7806450 9 57 63 1135
1.051404 -0.54064983 -0.28012952 56 7806450 8 58 64 1215
1.0716941 -0.50167608 -0.29283801 71 7806450 11 59 76 1219
0.93140197 -0.57118881 -0.28038871 61 7806450 8 60 38 1128
0.98259687 -0.55314535 -0.30070379 98 7806450 13 61 33 1167
1.0814087 -0.55634135 -0.33716995 67 7806450 11 62 66 1262
1.0905715 -0.50995606 -0.34728616 71 7806450 11 63 56 1253
0 -0 0 4 7903970 0 0 90 0
1.5436708 -0.86990476 0.53183347 53 7903970 18 1 85 1850
0 -0 0 5 7903970 0 2 49 0
2.5146484 -1.1775495 0.77563512 9 7903970 7 3 41 2883
0 -0 0 4 7903970 0 4 82 0
0 -0 0 9 7903970 0 5 49 0
0 -0 0 4 7903970 0 6 112 0
2.6173985 -1.2288969 0.69120729 19 7903970 17 7 75 2973
0 -0 0 6 7903970 0 8 98 0
0 -0 0 0 7903970 0 9 42 0
1.7366562 -0.89649183 0.41028902 67 7903970 27 10 61 1997
2.3120971 -1.0880181 0.51152772 67 7903970 45 11 46 2606
0 -0 0 4 7903970 0 12 108 0
0 -0 0 0 7903970 0 13 58 0
0 -0 0 9 7903970 0 14 92 0
2.0798614 -0.97935426 0.3732059 180 7903970 98 15 66 2329
1.4589752 -0.89534229 0.26377648 78 7903970 23 16 26 1732
3.1805618 -1.7951221 0.5269382 21 7903970 29 17 96 3690
2.1250668 -1.0989697 0.32210654 75 7903970 44 18 75 2414
1.8371216 -0.86642563 0.25396943 61 7903970 26 19 68 2047
1.3400687 -0.82240409 0.18372935 65 7903970 16 20 73 1583
1.9048387 -1.0754935 0.23431547 36 7903970 18 21 97 2200
1.9700887 -1.0200005 0.21631201 197 7903970 98 22 101 2229
2.0077333 -0.94821805 0.19578157 254 7903970 126 23 142 2229
1.4950817 -0.9179312 0.1404765 105 7903970 32 24 56 1760
1.5607018 -0.88172883 0.12638484 111 7903970 36 25 72 1797
1.7319779 -0.89679676 0.11884633 106 7903970 40 26 109 1954
1.9310431 -0.91340047 0.10997066 225 7903970 103 27 114 2139
1.5065134 -0.92596394 0.076866828 215 7903970 67 28 47 1770
1.486811 -0.8406685 0.057884451 38 7903970 11 29 45 1709
1.8571525 -0.96383125 0.051611297 169 7903970 74 30 43 2093
1.7477874 -0.82750291 0.028892923 153 7903970 57 31 85 1934
1.6049665 -0.98659301 0.013152695 156 7903970 56 32 71 1884
1.7945691 -1.0155483 -0.0052183545 97 7903970 41 33 83 2062
1.7314469 -0.89886069 -0.023290588 159 7903970 61 34 94 1951
1.7596922 -0.83453089 -0.041781586 206 7903970 78 35 91 1948
0 -0 -0 5 7903970 0 36 156 0
0 -0 -0 6 7903970 0 37 50 0
0 -0 -0 0 7903970 0 38 88 0
0 -0 -0 0 7903970 0 39 66 0
0 -0 -0 0 7903970 0 40 86 0
1.1430182 -0.64862734 -0.099578924 21 7903970 4 41 111 1318
1.1032215 -0.57370287 -0.10616627 39 7903970 6 42 119 1248
1.7472932 -0.82977158 -0.18356143 44 7903970 17 43 65 1943
1.1572524 -0.71396834 -0.14037502 61 7903970 11 44 116 1367
1.1129069 -0.63213086 -0.14419749 95 7903970 16 45 59 1288
1.0952386 -0.57028025 -0.1508943 53 7903970 8 46 97 1244
1.0234866 -0.48634979 -0.14962655 71 7903970 9 47 141 1143
1.0276878 -0.63522249 -0.16955924 59 7903970 9 48 79 1220
1.0023942 -0.56993818 -0.17300993 39 7903970 5 49 58 1166
0.99381751 -0.51813293 -0.17913777 60 7903970 8 50 48 1135
1.1779467 -0.5601508 -0.22136359 41 7903970 7 51 59 1323
1.0470418 -0.64847416 -0.21951276 49 7903970 8 52 78 1251
0.96770471 -0.55086291 -0.20925263 59 7903970 8 53 77 1133
1.0341091 -0.53955239 -0.23070036 53 7903970 8 54 80 1189
1.1193248 -0.53225029 -0.25802678 55 7903970 9 55 56 1266
0.93020594 -0.57683218 -0.23744796 109 7903970 14 56 96 1120
0.98201287 -0.55968881 -0.25628155 56 7903970 8 57 73 1159
1.0066618 -0.52547747 -0.26906267 70 7903970 10 58 72 1167
1.131712 -0.53826165 -0.31013441 63 7903970 11 59 65 1291
1.0660745 -0.66281325 -0.32214874 33 7903970 6 60 28 1296
0.99932182 -0.57066357 -0.30688795 70 7903970 10 61 32 1191
1.026724 -0.53620082 -0.32113966 63 7903970 9 62 65 1202
1.0770077 -0.51169026 -0.3439602 55 7903970 8 63 53 1241
0 -0 0 2 8001150 0 0 68 0
1.4684566 -0.83943242 0.50768536 74 8001150 23 1 81 1766
0 -0 0 4 8001150 0 2 46 0
0 -0 0 9 8001150 0 3 53 0
0 -0 0 9 8001150 0 4 78 0
0 -0 0 5 8001150 0 5 47 0
0 -0 0 9 8001150 0 6 75 0
2.4728663 -1.1796093 0.6549381 10 8001150 8 7 60 2817
3.0255239 -1.882939 0.82121557 10 8001150 14 8 90 3657
0 -0 0 4 8001150 0 9 43 0
1.647904 -0.86352324 0.39056557 59 8001150 21 10 46 1901
2.3372247 -1.1174102 0.51859409 50 8001150 35 11 41 2642
0 -0 0 9 8001150 0 12 119 0
0 -0 0 2 8001150 0 13 60 0
2.4083076 -1.262574 0.46695054 10 8001150 8 14 85 2759
2.1486094 -1.0278796 0.38666633 231 8001150 135 15 65 2413
1.3024021 -0.81029946 0.23636322 89 8001150 21 16 41 1552
0 -0 0 9 8001150 0 17 83 0
2.0866938 -1.0954051 0.31730294 31 8001150 18 18 83 2378
1.8317708 -0.87768173 0.25396943 83 8001150 35 19 94 2047
1.3957174 -0.86839002 0.19208597 30 8001150 8 20 88 1655
1.629004 -0.93298185 0.20108528 58 8001150 21 21 94 1888
1.9320763 -1.0154008 0.21281841 158 8001150 76 22 79 2193
1.9264367 -0.92432225 0.18840355 156 8001150 72 23 142 2145
1.4894211 -0.92708755 0.1404765 191 8001150 59 24 45 1760
1.4617909 -0.83772194 0.1187891 72 8001150 21 25 71 1689
1.7264427 -0.9074071 0.11884633 120 8001150 46 26 131 1954
1.8929973 -0.90965998 0.10811982 207 8001150 92 27 98 2103
1.5516781 -0.96689165 0.079472482 252 8001150 84 28 29 1830
1.6168697 -0.92734432 0.063168228 32 8001150 11 29 25 1865
1.8299761 -0.9640258 0.051019475 96 8001150 41 30 41 2069
1.7643027 -0.84861332 0.029251469 58 8001150 22 31 88 1958
1.5377789 -0.95834243 0.012650044 151 8001150 50 32 74 1812
1.7362682 -0.99667031 -0.0050665112 103 8001150 41 33 80 2002
1.6834371 -0.88709235 -0.022717575 120 8001150 44 34 99 1903
1.7113056 -0.82448339 -0.040752061 170 8001150 61 35 82 1900
0 -0 -0 10 8001150 0 36 135 0
0 -0 -0 7 8001150 0 37 55 0
0 -0 -0 0 8001150 0 38 63 0
0 -0 -0 0 8001150 0 39 83 0
0 -0 -0 7 8001150 0 40 94 0
1.118276 -0.64368993 -0.097765654 16 8001150 3 41 109 1294
1.1102545 -0.5860427 -0.10718711 22 8001150 3 42 159 1260
1.7744479 -0.85604954 -0.18696247 82 8001150 32 43 55 1979
1.0718889 -0.67041826 -0.13051692 50 8001150 8 44 108 1271
1.0986749 -0.63299465 -0.14285403 92 8001150 15 45 42 1276
1.0390635 -0.54916066 -0.14361642 52 8001150 7 46 107 1184
0.98834193 -0.47710499 -0.1449139 55 8001150 7 47 123 1107
0.96335149 -0.60365635 -0.15955245 66 8001150 9 48 92 1148
0.96803802 -0.55829179 -0.1676683 50 8001150 6 49 61 1130
1.0848811 -0.57410288 -0.19618346 60 8001150 9 50 64 1243
1.1105698 -0.53649086 -0.20931658 50 8001150 8 51 78 1251
0.95299619 -0.59834951 -0.20056202 53 8001150 7 52 92 1143
1.0255864 -0.59217328 -0.22255023 53 8001150 8 53 97 1205
1.0411822 -0.55139685 -0.23302872 64 8001150 9 54 76 1201
1.0737237 -0.51866817 -0.24824379 82 8001150 12 55 61 1218
0.98621935 -0.6199773 -0.25271249 90 8001150 13 56 120 1192
1.0900097 -0.6301325 -0.28546977 50 8001150 8 57 74 1291
1.0137364 -0.5371111 -0.27182937 60 8001150 8 58 59 1179
1.107411 -0.53506029 -0.30436894 61 8001150 10 59 86 1267
1.0324879 -0.65074927 -0.31320018 32 8001150 5 60 57 1260
0.9857682 -0.57097304 -0.30379584 70 8001150 10 61 37 1179
0.95189476 -0.50457942 -0.29869729 58 8001150 7 62 62 1118
1.1153826 -0.53833568 -0.35726407 55 8001150 9 63 69 1289
0 -0 0 4 8100310 0 0 74 0
1.5328795 -0.88878244 0.53183347 33 8100310 11 1 84 1850
0 -0 0 0 8100310 0 2 38 0
2.3022976 -1.1127603 0.71429461 11 8100310 8 3 35 2655
3.0198028 -1.9059939 0.96466577 24 8100310 33 4 63 3699
0 -0 0 3 8100310 0 5 42 0
1.6744964 -0.88943434 0.47231832 22 8100310 8 6 87 1954
0 -0 0 0 8100310 0 7 69 0
0 -0 0 5 8100310 0 8 84 0
0 -0 0 8 8100310 0 9 30 0
1.7773676 -0.94530922 0.42261621 15 8100310 7 10 61 2057
2.2985713 -1.1163092 0.51152772 35 8100310 24 11 40 2606
1.4212968 -0.89637923 0.3223986 20 8100310 6 12 87 1711
0 -0 0 7 8100310 0 13 48 0
0 -0 0 8 8100310 0 14 98 0
2.0144186 -0.97891778 0.36359134 139 8100310 71 15 56 2269
1.2873743 -0.81194878 0.23453568 94 8100310 22 16 34 1540
0 -0 0 4 8100310 0 17 79 0
2.2058837 -1.1752946 0.33651727 33 8100310 21 18 90 2522
1.8691767 -0.90974855 0.25992474 103 8100310 45 19 74 2095
1.3500381 -0.85150385 0.1865149 33 8100310 9 20 70 1607
