# .PCD v0.7 - Point Cloud Data file format
VERSION 0.7
FIELDS x y z intensity t reflectivity ring noise range
SIZE 4 4 4 4 4 2 1 2 4
TYPE F F F F U U U U U
COUNT 1 1 1 1 1 1 1 1 1
WIDTH 781
HEIGHT 1
VIEWPOINT 0 0 0 1 0 0 0
POINTS 781
DATA ascii
11.853147 -3.4669027 -2.4426298 77 4780080 1214 54 46 12589
11.965286 -3.0235863 -2.569262 227 4780080 3601 55 47 12606
12.982865 -4.8679328 -3.007957 195 4780080 3927 56 103 14188
1.5275434 -0.5090512 -0.36507407 16 4780080 4 57 52 1651
13.148055 -3.8483882 -3.2460439 25 4780080 487 58 47 14079
13.377913 -3.3817945 -3.4148419 147 4780080 2980 59 58 14215
13.163217 -4.9531198 -3.6092591 295 4780080 6227 60 74 14520
17.421978 -5.8220654 -4.898612 107 4780080 3884 61 62 19011
17.003279 -4.9803419 -4.9122081 93 4780080 3127 62 56 18386
13.151665 -3.3187406 -3.9127204 34 4780080 670 63 44 14117
1.8673402 -0.70509231 0.6230303 278 4879650 121 0 48 2091
1.920084 -0.64260483 0.60772753 179 4879650 80 1 55 2114
11.360718 -3.3333287 3.4283071 311 4879650 4718 2 49 12326
11.510039 -2.9112318 3.3164253 362 4879650 5508 3 64 12327
1.7913002 -0.67534453 0.51714849 305 4879650 120 4 4 1983
10.984742 -3.6816533 3.0063031 293 4879650 4202 5 76 11969
11.170024 -3.2820361 2.9001408 313 4879650 4508 6 97 11998
11.297814 -2.8697252 2.7864511 424 4879650 6096 7 73 11985
1.9012626 -0.71638501 0.46820739 213 4879650 92 8 51 2085
10.790476 -3.6119349 2.5030732 328 4879650 4455 9 98 11651
10.932609 -3.2187045 2.3924966 360 4879650 4876 10 55 11645
11.084517 -2.8258457 2.289901 288 4879650 3914 11 45 11666
1.8261882 -0.68776983 0.37440446 305 4879650 120 12 31 1987
1.7846555 -0.59814632 0.34175301 533 4879650 195 13 1 1913
1.8369052 -0.54119241 0.32884556 565 4879650 213 14 87 1943
1.9405864 -0.49523097 0.32513303 203 4879650 84 15 208 2029
2.1346896 -0.80399853 0.35149893 236 4879650 125 16 56 2308
10.399055 -3.4879789 1.5825284 458 4879650 5628 17 85 11082
10.575321 -3.1219401 1.4845722 425 4879650 5264 18 80 11126
10.688802 -2.7347012 1.3795242 483 4879650 5974 19 90 11119
10.071074 -3.7933185 1.2575537 495 4879650 5814 20 91 10835
10.218301 -3.4291372 1.1545362 515 4879650 6055 21 86 10840
10.385063 -3.071095 1.0559404 486 4879650 5759 22 75 10881
10.499262 -2.6922612 0.95571977 523 4879650 6193 23 110 10881
9.8910503 -3.7276802 0.84637082 524 4879650 5897 24 70 10604
10.039536 -3.3720703 0.74670446 530 4879650 5977 25 80 10617
10.197611 -3.0160484 0.64799833 537 4879650 6097 26 97 10654
10.321336 -2.6531653 0.54861939 660 4879650 7517 27 88 10671
9.7526217 -3.6809542 0.45312345 572 4879650 6223 28 53 10434
9.8945675 -3.3272226 0.35377595 501 4879650 5462 29 36 10445
10.056269 -2.9845545 0.25874692 569 4879650 6262 30 31 10493
10.122752 -2.6060736 0.15617715 735 4879650 8038 31 58 10454
9.5986166 -3.6234016 0.071627729 547 4879650 5763 32 62 10260
9.7445164 -3.280741 -0.026020912 573 4879650 6062 33 68 10282
9.8761187 -2.9324017 -0.12299483 553 4879650 5873 34 93 10303
10.00564 -2.5828142 -0.22169121 753 4879650 8048 35 75 10336
9.4479284 -3.5717943 -0.2999537 655 4879650 6688 36 114 10105
9.5604897 -3.2265885 -0.39468455 613 4879650 6255 37 72 10098
9.7480679 -2.8988249 -0.49508089 657 4879650 6807 38 159 10182
9.8335381 -2.5382056 -0.59073925 775 4879650 8026 39 58 10173
9.2997799 -3.524137 -0.66003126 744 4879650 7395 40 70 9967
9.4294128 -3.1871183 -0.7541706 716 4879650 7137 41 82 9982
9.6031017 -2.8586347 -0.85545522 688 4879650 6954 42 142 10056
9.6910048 -2.5070086 -0.94992805 796 4879650 8052 43 67 10055
9.1841764 -3.4839962 -1.0140476 640 4879650 6243 44 100 9875
9.2771177 -3.1397927 -1.1034243 733 4879650 7125 45 61 9856
9.4360151 -2.8142762 -1.2032728 655 4879650 6447 46 102 9920
9.5849018 -2.4820595 -1.307367 153 4879650 1529 47 80 9987
9.8041372 -3.7285752 -1.4721079 413 4879650 4629 48 48 10592
10.01597 -3.3947251 -1.5867653 366 4879650 4181 49 51 10694
10.224807 -3.0553627 -1.7056755 362 4879650 4224 50 41 10807
10.527459 -2.7292767 -1.8457004 49 4879650 600 51 82 11031
11.250989 -4.2902889 -2.1461716 286 4879650 4285 52 67 12231
11.529556 -3.9142337 -2.2881119 334 4879650 5133 53 65 12389
11.797816 -3.5294449 -2.4356449 120 4879650 1883 54 57 12553
11.969254 -3.1028433 -2.5741537 231 4879650 3678 55 50 12630
13.149946 -5.0228238 -3.0537505 239 4879650 4958 56 118 14404
13.545938 -4.606698 -3.2440956 208 4879650 4466 57 56 14671
13.113008 -3.925642 -3.2432773 117 4879650 2309 58 37 14067
13.345636 -3.460892 -3.4119592 134 4879650 2708 59 86 14203
16.193228 -6.2069602 -4.4504251 59 4879650 1902 60 76 17904
16.628704 -5.6706309 -4.6852589 88 4879650 2926 61 58 18183
17.016706 -5.0978522 -4.9250321 151 4879650 5137 62 94 18434
13.544044 -3.5062907 -4.0357814 21 4879650 438 63 38 14561
1.820213 -0.70008832 0.60872829 320 4978360 133 0 13 2043
1.8399684 -0.62837255 0.58357948 304 4978360 125 1 33 2030
11.306931 -3.3930352 3.4182944 324 4978360 4887 2 55 12290
11.514334 -2.9876068 3.3228822 396 4978360 6049 3 58 12351
1.8195666 -0.69878274 0.52653694 207 4978360 84 4 14 2019
1.894917 -0.64806163 0.51967919 78 4978360 33 5 33 2069
11.10507 -3.3371081 2.8885384 353 4978360 5043 6 103 11950
11.279993 -2.9389935 2.7864511 411 4978360 5909 7 74 11985
1.9077482 -0.73222762 0.47090214 226 4978360 100 8 74 2097
10.76811 -3.678076 2.5030732 342 4978360 4641 9 133 11651
10.890162 -3.2789533 2.3875656 319 4978360 4313 10 79 11621
11.066969 -2.893806 2.289901 248 4978360 3368 11 56 11666
1.755915 -0.67363489 0.36083773 475 4978360 174 12 5 1915
1.7586083 -0.60144407 0.33746544 635 4978360 227 13 1 1889
1.8448739 -0.55586517 0.33087653 335 4978360 128 14 317 1955
10.864005 -2.8435709 1.8230845 399 4978360 5164 15 119 11377
10.235188 -3.9268067 1.6892661 283 4978360 3485 16 204 11092
10.36622 -3.5478747 1.5808147 479 4978360 5873 17 92 11070
10.510426 -3.1730218 1.4781674 448 4978360 5501 18 85 11078
10.648787 -2.7941906 1.3765466 501 4978360 6173 19 62 11095
10.036481 -3.8507726 1.256161 515 4978360 6037 20 74 10823
10.208356 -3.4956365 1.1558143 487 4978360 5740 21 67 10852
10.354591 -3.1313016 1.0547758 462 4978360 5462 22 80 10869
10.505666 -2.762713 0.95782775 492 4978360 5853 23 101 10905
9.9014931 -3.8011615 0.84924424 547 4978360 6197 24 73 10640
10.041304 -3.4413702 0.7483924 545 4978360 6172 25 100 10641
10.155983 -3.0716279 0.64653862 503 4978360 5684 26 105 10630
10.293274 -2.7133911 0.54800242 545 4978360 6194 27 85 10659
9.7298527 -3.7407258 0.45312345 603 4978360 6570 28 60 10434
9.8739662 -3.387872 0.35377595 562 4978360 6129 29 25 10445
10.014808 -3.0392354 0.25815511 556 4978360 6091 30 35 10469
10.118173 -2.6711993 0.15635642 731 4978360 8013 31 61 10466
9.5538025 -3.6736159 0.07146018 544 4978360 5702 32 85 10236
9.7015047 -3.3326733 -0.025960175 603 4978360 6340 33 57 10258
9.8809032 -2.999917 -0.12328134 543 4978360 5796 34 63 10327
9.9780054 -2.6410892 -0.22143382 758 4978360 8083 35 72 10324
9.4146404 -3.6253879 -0.2995975 634 4978360 6460 36 99 10093
9.5291739 -3.2812858 -0.39421552 623 4978360 6342 37 73 10086
9.7071638 -2.9516101 -0.49391398 673 4978360 6941 38 147 10158
9.7830362 -2.5892997 -0.58864874 806 4978360 8287 39 67 10137
9.2779808 -3.5811331 -0.66003126 766 4978360 7612 40 83 9967
9.3870564 -3.2371142 -0.7523573 680 4978360 6745 41 90 9958
9.5167494 -2.896615 -0.84933019 720 4978360 7177 42 109 9984
9.6407986 -2.5572357 -0.946527 872 4978360 8749 43 50 10019
9.1403589 -3.5316796 -1.0115832 678 4978360 6582 44 88 9851
9.28022 -3.2044406 -1.1061112 740 4978360 7228 45 68 9880
9.407177 -2.8686473 -1.2018173 678 4978360 6658 46 95 9908
9.4890041 -2.519454 -1.2963709 860 4978360 8435 47 105 9903
9.8475618 -3.8144157 -1.4821146 368 4978360 4188 48 79 10664
10.073462 -3.4832656 -1.5992292 381 4978360 4420 49 56 10778
10.296528 -3.1457417 -1.7208273 258 4978360 3062 50 45 10903
10.601986 -2.8181345 -1.8617631 23 4978360 281 51 38 11127
11.279514 -4.3806276 -2.1566997 302 4978360 4566 52 84 12291
11.52761 -3.9926238 -2.2925446 338 4978360 5215 53 66 12413
0 -0 -0 8 4978360 0 54 66 0
11.938635 -3.173209 -2.571708 79 4978360 1259 55 106 12618
13.239101 -5.1501842 -3.0817354 209 4978360 4419 56 99 14536
13.528473 -4.6935635 -3.2467489 153 4978360 3308 57 65 14683
13.066343 -3.9991932 -3.2377439 139 4978360 2736 58 32 14043
18.51384 -4.9225841 -4.7409005 333 4978360 12978 59 89 19735
10.221291 -3.9899836 -2.8158185 251 4978360 3216 60 47 11328
16.495037 -5.7382693 -4.6574302 199 4978360 6518 61 58 18075
17.902822 -5.4832454 -5.1911345 320 4978360 12088 62 94 19430
18.236174 -4.8405781 -5.4426646 77 4978360 2983 63 73 19637
1.847881 -0.7237767 0.6194548 256 5075420 111 0 29 2079
1.8360782 -0.63965058 0.58357948 287 5075420 118 1 50 2030
11.318957 -3.472491 3.4283071 313 5075420 4748 2 57 12326
11.473447 -3.0522585 3.3164253 398 5075420 6041 3 51 12327
1.8152447 -0.70993423 0.52653694 231 5075420 94 4 26 2019
1.879938 -0.65585041 0.51666516 216 5075420 91 5 23 2057
11.084385 -3.4051847 2.8885384 378 5075420 5398 6 112 11950
11.239196 -3.0021269 2.7808714 396 5075420 5670 7 81 11961
1.9032195 -0.74391955 0.47090214 228 5075420 100 8 40 2097
1.9579741 -0.68223149 0.45610026 79 5075420 36 9 105 2123
10.892287 -3.352622 2.3924966 230 5075420 3121 10 102 11645
1.9112715 -0.51231134 0.39611009 85 5075420 35 11 105 2018
1.7297945 -0.67581898 0.35631546 647 5075420 231 12 1 1891
1.7437369 -0.60833418 0.33532169 812 5075420 286 13 266 1877
10.702891 -3.296576 1.9231458 372 5075420 4797 14 165 11363
10.823472 -2.9040384 1.8192387 476 5075420 6140 15 66 11353
10.188807 -3.9809024 1.685611 509 5075420 6240 16 72 11068
10.321829 -3.6035841 1.5773875 500 5075420 6104 17 85 11046
10.468031 -3.2304392 1.4749651 490 5075420 5992 18 72 11054
10.631441 -2.8594778 1.3765466 467 5075420 5753 19 77 11095
10.034867 -3.920958 1.2589464 526 5075420 6193 20 77 10847
10.186715 -3.5582078 1.1558143 513 5075420 6046 21 71 10852
10.312362 -3.1877229 1.0524467 499 5075420 5875 22 58 10845
10.442349 -2.8146784 0.95361173 539 5075420 6353 23 119 10857
9.8668423 -3.8574889 0.84828639 522 5075420 5901 24 67 10628
9.9747992 -3.4871163 0.74501652 535 5075420 6008 25 70 10593
10.159832 -3.1409616 0.64799833 521 5075420 5915 26 100 10654
10.322709 -2.7890017 0.55047023 522 5075420 5987 27 81 10707
9.6955528 -3.7959859 0.4526023 621 5075420 6740 28 56 10422
9.8643122 -3.4523554 0.35418239 526 5075420 5748 29 38 10457
9.9730558 -3.0935197 0.25756329 534 5075420 5823 30 36 10445
10.113174 -2.736367 0.1565357 599 5075420 6572 31 49 10478
9.3523045 -3.6621625 0.070119783 504 5075420 5087 32 90 10044
9.6808729 -3.3921378 -0.025960175 607 5075420 6392 33 65 10258
9.8393898 -3.053376 -0.12299483 492 5075420 5226 34 87 10303
9.9268761 -2.6928403 -0.22066167 753 5075420 7972 35 88 10288
9.3475513 -3.6655707 -0.29817265 660 5075420 6659 36 121 10045
9.4522943 -3.3198264 -0.39187038 659 5075420 6630 37 60 10026
9.6774244 -3.0075593 -0.49333048 685 5075420 7048 38 149 10146
9.7785263 -2.6524146 -0.58934557 784 5075420 8079 39 80 10149
9.2446899 -3.6336145 -0.65923661 748 5075420 7416 40 81 9955
9.3895922 -3.3025916 -0.7541706 682 5075420 6798 41 86 9982
9.5216303 -2.9620576 -0.85137188 730 5075420 7311 42 114 10008
9.6249256 -2.6163423 -0.946527 880 5075420 8837 43 74 10019
9.0851927 -3.5745862 -1.0078864 697 5075420 6716 44 100 9815
9.2378893 -3.2534008 -1.1034243 720 5075420 6999 45 64 9856
9.378026 -2.9227705 -1.2003617 698 5075420 6839 46 84 9896
9.4618874 -2.5745065 -1.2947999 847 5075420 8286 47 120 9891
9.8571358 -3.8878481 -1.487118 404 5075420 4630 48 72 10700
10.06309 -3.5489566 -1.6010097 411 5075420 4779 49 57 10790
10.310965 -3.2194557 -1.7265092 384 5075420 4601 50 58 10939
10.333366 -2.8147287 -1.8175908 23 5075420 266 51 50 10863
11.351296 -4.4888544 -2.1756504 338 5075420 5198 52 100 12399
11.558495 -4.082921 -2.3036258 322 5075420 5015 53 77 12473
11.821032 -3.6950293 -2.449615 259 5075420 4122 54 44 12625
14.741399 -4.0151663 -3.1807001 456 5075420 11096 55 48 15606
13.30538 -5.2701888 -3.1046324 182 5075420 3909 56 82 14644
12.947785 -4.5813003 -3.1140752 135 5075420 2686 57 64 14083
13.052703 -4.082777 -3.2405105 160 5075420 3154 58 40 14055
18.348421 -4.9993434 -4.7063079 107 5075420 4092 59 44 19591
10.164212 -4.0397463 -2.8068702 149 5075420 1895 60 44 11292
16.481373 -5.8471265 -4.6636143 97 5075420 3166 61 39 18099
17.405336 -5.4479136 -5.0564804 225 5075420 8070 62 82 18926
13.032722 -3.545126 -3.896091 59 5075420 1174 63 65 14057
1.8327651 -0.7308585 0.61587936 303 5172950 129 0 33 2067
1.8212885 -0.64705676 0.58012968 310 5172950 126 1 30 2018
11.253444 -3.528085 3.4149568 350 5172950 5270 2 48 12278
11.376449 -3.1013227 3.2938263 402 5172950 6019 3 54 12243
1.8108544 -0.72105902 0.52653694 219 5172950 89 4 36 2019
1.8211615 -0.64790672 0.50159472 267 5172950 106 5 1 1997
11.018844 -3.4591825 2.8769357 378 5172950 5361 6 177 11902
11.175534 -3.0587087 2.7697115 400 5172950 5682 7 75 11913
1.8768896 -0.7469359 0.46551272 210 5172950 90 8 42 2073
1.9427077 -0.69030845 0.45352221 250 5172950 111 9 34 2111
1.8643545 -0.58639133 0.41028902 108 5172950 43 10 104 1997
1.805974 -0.49598387 0.37491092 255 5172950 93 11 18 1910
1.7584667 -0.69948786 0.36309883 625 5172950 232 12 1 1927
1.7177235 -0.61110699 0.33103412 788 5172950 271 13 108 1853
10.648619 -3.3515337 1.9170529 401 5172950 5145 14 106 11327
10.782607 -2.9641161 1.8153929 381 5172950 4895 15 63 11329
10.153168 -4.0389609 1.6837834 504 5172950 6167 16 62 11056
10.310713 -3.6708333 1.5791011 494 5172950 6044 17 82 11058
10.43667 -3.2910326 1.4733639 491 5172950 5990 18 80 11042
10.602216 -2.921494 1.3750577 457 5172950 5618 19 77 11083
9.955246 -3.9604285 1.2519827 502 5172950 5845 20 78 10787
10.15345 -3.6166418 1.1545362 507 5172950 5961 21 77 10840
10.269831 -3.2437439 1.0501176 511 5172950 5989 22 67 10821
10.401837 -2.872335 0.95150369 512 5172950 6010 23 101 10833
9.8429871 -3.9179583 0.84828639 531 5172950 6003 24 69 10628
9.9532156 -3.548255 0.74501652 608 5172950 6826 25 75 10593
10.128946 -3.1996341 0.64726847 526 5172950 5957 26 111 10642
10.259202 -2.8395011 0.54800242 565 5172950 6421 27 96 10659
9.638669 -3.8420877 0.4510389 602 5172950 6499 28 60 10386
9.8203526 -3.5047543 0.3533695 524 5172950 5700 29 41 10433
9.9653225 -3.1582792 0.2578592 499 5172950 5453 30 34 10457
10.084631 -2.7951639 0.15635642 593 5172950 6490 31 55 10466
9.3296576 -3.7194784 0.070119783 519 5172950 5239 32 72 10044
9.6485767 -3.447437 -0.025929807 599 5172950 6294 33 62 10246
9.8204689 -3.1136918 -0.12299483 543 5172950 5770 34 59 10303
9.9217253 -2.7569118 -0.22091906 620 5172950 6581 35 77 10300
9.3137445 -3.7184103 -0.29781649 650 5172950 6544 36 105 10033
9.4430351 -3.3818049 -0.39233941 658 5172950 6635 37 65 10038
9.6245165 -3.0560002 -0.49158004 633 5172950 6467 38 148 10110
9.7505245 -2.7091575 -0.58864874 751 5172950 7722 39 70 10137
9.2222204 -3.6902704 -0.65923661 753 5172950 7464 40 98 9955
9.3353615 -3.3480244 -0.75145066 715 5172950 7077 41 68 9946
9.4804869 -3.0131822 -0.84933019 725 5172950 7226 42 113 9984
9.5856752 -2.6689422 -0.9442597 839 5172950 8386 43 69 9995
9.0852499 -3.6391416 -1.0103509 719 5172950 6963 44 89 9839
9.2177525 -3.3100221 -1.1034243 730 5172950 7095 45 69 9856
9.3372164 -2.9730301 -1.1974505 686 5172950 6688 46 98 9872
9.4344521 -2.6293211 -1.2932291 847 5172950 8267 47 106 9879
9.8882332 -3.9703968 -1.4954569 364 5172950 4218 48 77 10760
10.119295 -3.6387444 -1.6134735 363 5172950 4287 49 48 10874
10.302306 -3.286263 -1.7284031 410 5172950 4912 50 48 10951
10.521022 -2.9353077 -1.8537318 24 5172950 292 51 27 11079
11.367377 -4.576067 -2.184073 293 5172950 4544 52 83 12447
11.599801 -4.1777434 -2.3169234 328 5172950 5168 53 71 12545
11.899063 -3.799721 -2.4705701 266 5172950 4305 54 54 12733
14.671221 -4.0929146 -3.1709168 549 5172950 13279 55 45 15558
13.33805 -5.3780427 -3.1198967 206 5172950 4461 56 115 14716
12.820354 -4.6249185 -3.0901937 181 5172950 3543 57 69 13975
13.060774 -4.1734529 -3.2488108 70 5172950 1382 58 47 14091
17.935925 -5.0053744 -4.6082945 122 5172950 4474 59 48 19183
10.290083 -4.1630659 -2.8486302 87 5172950 1136 60 55 11460
16.924938 -6.1216683 -4.7996655 104 5172950 3597 61 39 18627
17.195351 -5.4982581 -5.0051837 221 5172950 7769 62 72 18734
17.742231 -4.9433112 -5.3129516 34 5172950 1267 63 59 19169
1.8176322 -0.73778212 0.61230379 322 5269760 136 0 16 2055
1.8172839 -0.65821981 0.58012968 317 5269760 129 1 35 2018
11.231584 -3.5970683 3.4149568 319 5269760 4815 2 67 12278
11.368336 -3.1741767 3.2970545 374 5269760 5610 3 54 12255
1.806396 -0.73215663 0.52653694 228 5269760 93 4 34 2019
1.828071 -0.66302931 0.50460875 324 5269760 131 5 9 2009
11.019587 -3.5338392 2.8827369 379 5269760 5389 6 127 11926
11.156556 -3.1272228 2.7697115 433 5269760 6151 7 66 11913
1.9156232 -0.77599967 0.47629157 182 5269760 82 8 52 2121
1.850283 -0.67028171 0.43289781 240 5269760 97 9 36 2015
1.7712725 -0.56908131 0.39056557 291 5269760 105 10 40 1901
1.8142238 -0.51024145 0.37726638 256 5269760 95 11 14 1922
1.8961481 -0.76776379 0.39249349 404 5269760 175 12 32 2083
2.0247264 -0.73435491 0.39105976 247 5269760 118 13 37 2189
10.616594 -3.4131894 1.9150219 396 5269760 5071 14 104 11315
10.730011 -3.020592 1.8096241 424 5269760 5413 15 58 11293
10.15018 -4.1100864 1.6874385 494 5269760 6059 16 56 11080
10.265666 -3.7259252 1.5756738 524 5269760 6383 17 90 11034
10.393641 -3.3477166 1.4701616 524 5269760 6355 18 57 11018
10.58409 -2.9864929 1.3750577 438 5269760 5383 19 90 11083
9.9307585 -4.0214381 1.2519827 514 5269760 5985 20 78 10787
10.119853 -3.6748013 1.1532581 526 5269760 6170 21 86 10828
10.238368 -3.3030307 1.0489532 521 5269760 6082 22 54 10809
10.384018 -2.9361053 0.95150369 532 5269760 6243 23 120 10833
9.8076754 -3.973788 0.8473286 533 5269760 6011 24 72 10616
9.9312563 -3.6092598 0.74501652 549 5269760 6164 25 75 10593
10.097724 -3.2580459 0.64653862 513 5269760 5797 26 112 10630
10.230056 -2.8991294 0.54738545 556 5269760 6305 27 87 10647
9.614913 -3.9011571 0.4510389 609 5269760 6564 28 57 10386
9.7873926 -3.5608447 0.35296306 539 5269760 5851 29 28 10421
9.9229288 -3.211977 0.25726739 553 5269760 6016 30 36 10433
10.055747 -2.8537135 0.15617715 566 5269760 6190 31 68 10454
9.2955408 -3.7721419 0.070036009 479 5269760 4825 32 69 10032
9.6159668 -3.5024679 -0.025899436 607 5269760 6362 33 66 10234
9.7669325 -3.1628003 -0.12256507 572 5269760 6034 34 70 10267
9.904623 -2.8177385 -0.22091906 596 5269760 6327 35 66 10300
9.2907534 -3.7754884 -0.29781649 688 5269760 6927 36 91 10033
9.4108429 -3.4355707 -0.39187038 652 5269760 6550 37 48 10026
9.5485773 -3.0965109 -0.48866263 700 5269760 7067 38 151 10050
9.7567635 -2.7754903 -0.59004241 627 5269760 6478 39 66 10161
9.1772251 -3.7377546 -0.65764731 735 5269760 7251 40 83 9931
9.325881 -3.4093506 -0.7523573 720 5269760 7142 41 85 9958
9.4504471 -3.0676053 -0.84830934 744 5269760 7399 42 101 9972
9.5576296 -2.7244337 -0.94312602 822 5269760 8196 43 71 9983
9.0627499 -3.6948192 -1.0103509 695 5269760 6731 44 88 9839
9.1860714 -3.3624201 -1.1020808 709 5269760 6875 45 62 9844
9.2848148 -3.0192158 -1.1930838 703 5269760 6803 46 97 9836
9.4181414 -2.6871605 -1.2932291 841 5269760 8206 47 130 9879
9.9076872 -4.0489774 -1.5021281 422 5269760 4932 48 86 10808
10.096778 -3.7007668 -1.6134735 307 5269760 3624 49 56 10874
10.338283 -3.3677664 -1.7378731 374 5269760 4530 50 42 11011
10.582444 -3.0225525 -1.8677865 161 5269760 2002 51 40 11163
11.371881 -4.6591668 -2.1903899 266 5269760 4150 52 77 12483
11.629303 -4.2691607 -2.3280048 351 5269760 5584 53 67 12605
11.875525 -3.8726609 -2.4705701 318 5269760 5163 54 62 12733
12.194504 -3.482758 -2.6401889 64 5269760 1080 55 75 12954
12.740639 -5.228272 -2.9876044 139 5269760 2760 56 118 14092
12.791735 -4.7034955 -3.0901937 166 5269760 3235 57 43 13975
1.5235621 -0.49716392 -0.37973112 28 5269760 8 58 66 1647
17.848871 -5.0993338 -4.5938811 465 5269760 17015 59 83 19123
10.242849 -4.2172756 -2.8426645 163 5269760 2126 60 49 11436
17.594198 -6.4860897 -5.0006504 96 5269760 3633 61 63 19407
12.64333 -4.128417 -3.6874957 53 5269760 1001 62 53 13802
17.51199 -4.9951549 -5.2530847 218 5269760 7825 63 19 18953
1.7918966 -0.74017453 0.60515285 290 5366680 120 0 27 2031
1.813211 -0.66935807 0.58012968 322 5366680 131 1 13 2018
11.198345 -3.6623335 3.4116192 320 5366680 4807 2 55 12266
11.326422 -3.237519 3.2905977 387 5366680 5783 3 53 12231
1.8447076 -0.76089633 0.53905493 241 5366680 103 4 46 2067
1.8130735 -0.67020637 0.50159472 281 5366680 112 5 3 1997
10.964499 -3.5905163 2.8740351 378 5366680 5345 6 106 11890
11.103503 -3.1859627 2.7613418 410 5366680 5789 7 70 11877
1.9000149 -0.7832824 0.47359687 172 5366680 76 8 43 2109
1.7581806 -0.64914787 0.41227338 265 5366680 98 9 1 1919
1.7789062 -0.58359981 0.393031 275 5366680 101 10 30 1913
1.8562883 -0.53438425 0.38668823 121 5366680 47 11 29 1970
2.0003633 -0.82428354 0.41510469 293 5366680 142 12 77 2203
2.0201824 -0.7467646 0.39105976 269 5366680 129 13 35 2189
10.584214 -3.4745784 1.9129909 440 5366680 5623 14 93 11303
10.711275 -3.0863731 1.8096241 451 5366680 5757 15 66 11293
10.157666 -4.1858454 1.692921 238 5366680 2938 16 140 11116
10.25375 -3.7929647 1.5773875 511 5366680 6239 17 78 11046
10.372904 -3.4114277 1.4701616 491 5366680 5965 18 74 11018
10.565566 -3.0513794 1.3750577 448 5366680 5508 19 67 11083
9.9279356 -4.0913792 1.2547683 352 5366680 4115 20 109 10811
10.063544 -3.7244029 1.149424 491 5366680 5724 21 66 10792
10.217909 -3.3657899 1.0489532 549 5366680 6418 22 81 10809
10.342842 -2.9931195 0.94939572 511 5366680 5972 23 104 10809
6.3770833 -2.6294775 0.55232805 475 5366680 2275 24 231 6920
9.9089231 -3.6701291 0.74501652 591 5366680 6635 25 77 10593
10.05479 -3.3124478 0.6450789 546 5366680 6143 26 100 10606
10.200564 -2.9585068 0.54676849 567 5366680 6416 27 76 10635
9.612957 -3.9692307 0.45208117 597 5366680 6475 28 61 10410
9.7428694 -3.6124928 0.35215017 561 5366680 6061 29 38 10397
9.9030342 -3.2728026 0.25726739 540 5366680 5874 30 46 10433
10.038048 -2.9153607 0.15617715 592 5366680 6474 31 67 10454
9.2722206 -3.8291073 0.070036009 510 5366680 5135 32 86 10032
9.583045 -3.5572283 -0.025869068 591 5366680 6171 33 50 10222
9.7815199 -3.2339697 -0.12299483 543 5366680 5768 34 76 10303
9.864109 -2.871752 -0.2204043 659 5366680 6962 35 78 10276
8.7907867 -3.6353214 -0.28249967 295 5366680 2676 36 297 9517
9.4008236 -3.4974308 -0.39233941 669 5366680 6746 37 58 10038
9.5407763 -3.1588089 -0.4892461 631 5366680 6385 38 155 10062
9.7395496 -2.8353045 -0.59004241 621 5366680 6414 39 98 10161
9.1651793 -3.798579 -0.65844196 741 5366680 7328 40 88 9943
9.2935734 -3.4623315 -0.75145066 711 5366680 7037 41 76 9946
9.4087486 -3.1180122 -0.84626776 734 5366680 7263 42 120 9948
9.5636692 -2.7897174 -0.94539338 671 5366680 6715 43 56 10007
9.0178576 -3.7412093 -1.0078864 730 5366680 7034 44 98 9815
9.1540937 -3.4145539 -1.1007373 686 5366680 6627 45 57 9832
9.27742 -3.0798824 -1.1945394 735 5366680 7131 46 87 9848
9.3900557 -2.7415643 -1.2916582 788 5366680 7672 47 114 9867
9.9484921 -4.1370711 -1.5121348 388 5366680 4597 48 77 10880
10.140582 -3.7875631 -1.6241567 262 5366680 3134 49 45 10946
10.328668 -3.4348769 -1.7397671 355 5366680 4309 50 44 11023
10.552344 -3.0841095 -1.8657788 500 5366680 6212 51 52 11151
11.386695 -4.7470388 -2.1988122 311 5366680 4887 52 87 12531
11.669166 -4.3652291 -2.3413024 397 5366680 6386 53 69 12677
11.952063 -3.9789197 -2.4915252 335 5366680 5528 54 86 12841
12.161628 -3.5542209 -2.637743 72 5366680 1214 55 59 12942
12.58928 -5.2566442 -2.9596195 226 5366680 4404 56 114 13960
12.762633 -4.7818956 -3.0901937 213 5366680 4167 57 70 13975
1.575874 -0.52495486 -0.3935647 31 5366680 9 58 46 1707
13.590973 -3.9732327 -3.5042067 118 5366680 2517 59 81 14587
10.152455 -4.2530985 -2.8247671 317 5366680 4098 60 79 11364
12.713064 -4.7754722 -3.6215868 36 5366680 704 61 40 14055
1.5047697 -0.5015896 -0.43976364 54 5366680 15 62 118 1646
17.547419 -5.1218963 -5.2730403 141 5366680 5091 63 41 19025
1.8190019 -0.76446992 0.61587936 275 5465030 117 0 20 2067
1.8413424 -0.69261032 0.5904789 273 5465030 115 1 37 2054
1.947951 -0.65032011 0.59465522 86 5465030 39 2 46 2138
11.328527 -3.3134446 3.2970545 384 5465030 5771 3 88 12255
1.7972753 -0.75426877 0.52653694 229 5465030 93 4 36 2019
1.8415365 -0.69360071 0.51063693 252 5465030 104 5 9 2033
10.942261 -3.6577256 2.8740351 324 5465030 4578 6 136 11890
11.11734 -3.2638955 2.7697115 411 5465030 5839 7 63 11913
1.8196895 -0.76326454 0.45473382 174 5465030 71 8 57 2025
1.688349 -0.63516361 0.39680508 327 5465030 112 9 1 1847
1.8421088 -0.61687946 0.40782359 157 5465030 62 10 36 1985
1.8642615 -0.54908866 0.38904369 109 5465030 43 11 11 1982
1.9843998 -0.83198535 0.41284361 284 5465030 137 12 75 2191
2.0487099 -0.77163094 0.39749107 246 5465030 122 13 40 2225
10.540267 -3.5319409 1.908929 408 5465030 5191 14 106 11279
10.692136 -3.1520383 1.8096241 429 5465030 5476 15 70 11293
8.0099115 -3.3584237 1.3383763 120 5465030 929 16 84 8788
10.208056 -3.8474314 1.5739602 520 5465030 6320 17 88 11022
10.329227 -3.4674408 1.4669591 498 5465030 6023 18 74 10994
10.500968 -3.1026554 1.3691025 432 5465030 5266 19 62 11035
0 -0 0 7 5465030 0 20 83 0
10.051667 -3.7902913 1.150702 509 5465030 5946 21 72 10804
10.174423 -3.42081 1.0466241 535 5465030 6228 22 67 10785
10.324282 -3.0565257 0.94939572 486 5465030 5681 23 91 10809
6.3608289 -2.6685572 0.55232805 427 5465030 2047 24 65 6920
9.8862171 -3.73086 0.74501652 576 5465030 6468 25 68 10593
10.022923 -3.3702629 0.64434904 535 5465030 6003 26 124 10594
10.17073 -3.0176318 0.54615158 527 5465030 5950 27 77 10623
9.5994749 -4.0327835 0.4526023 452 5465030 4914 28 302 10422
9.731739 -3.6764443 0.35255662 536 5465030 5802 29 52 10409
9.8827658 -3.3335047 0.25726739 549 5465030 5971 30 56 10433
9.985465 -2.9666467 0.15563932 583 5465030 6331 31 81 10418
9.259614 -3.8905766 0.070119783 483 5465030 4876 32 75 10044
9.5834856 -3.6244516 -0.025929807 592 5465030 6210 33 56 10246
9.7160149 -3.2785811 -0.12242182 535 5465030 5630 34 79 10255
9.8348045 -2.9287989 -0.22014692 614 5465030 6473 35 61 10264
8.2818518 -3.4845171 -0.26682669 360 5465030 2910 36 95 8989
9.3679752 -3.5507975 -0.39187038 636 5465030 6389 37 52 10026
9.5666351 -3.2326384 -0.49158004 457 5465030 4669 38 139 10110
9.6990061 -2.8881738 -0.58864874 639 5465030 6570 39 84 10137
9.0975676 -3.8361351 -0.6552633 610 5465030 5972 40 122 9895
9.2721539 -3.5192907 -0.75145066 720 5465030 7124 41 99 9946
9.3894396 -3.1756845 -0.84626776 733 5465030 7253 42 118 9948
9.5234766 -2.8415153 -0.94312602 742 5465030 7399 43 65 9983
8.9947319 -3.7964714 -1.0078864 735 5465030 7083 44 88 9815
9.1218233 -3.4664221 -1.099394 698 5465030 6727 45 46 9820
9.2470655 -3.1329274 -1.1930838 764 5465030 7393 46 107 9836
9.3958559 -2.8059373 -1.2947999 630 5465030 6164 47 108 9891
9.9557533 -4.2119265 -1.5171382 388 5465030 4627 48 79 10916
10.139334 -3.8581543 -1.6277179 283 5465030 3401 49 45 10970
10.374722 -3.5210371 -1.7511308 301 5465030 3699 50 57 11095
10.623902 -3.1759076 -1.8818414 441 5465030 5584 51 68 11247
11.389981 -4.8306551 -2.2051294 207 5465030 3274 52 79 12567
11.708283 -4.4619465 -2.3546 269 5465030 4378 53 73 12749
11.972009 -4.0673285 -2.5008385 330 5465030 5489 54 66 12889
12.117079 -3.6220469 -2.6328516 10 5465030 161 55 42 12918
12.556789 -5.3337913 -2.9596195 409 5465030 7971 56 112 13960
13.257864 -5.0604324 -3.2175608 162 5465030 3435 57 86 14551
13.446066 -4.5709991 -3.3650124 28 5465030 586 58 55 14595
13.577498 -4.0598874 -3.5070894 153 5465030 3251 59 54 14599
16.64883 -7.094975 -4.644311 186 5465030 6480 60 44 18684
12.553575 -4.8036633 -3.584482 68 5465030 1325 61 62 13911
1.5454547 -0.52570939 -0.45258787 52 5465030 15 62 78 1694
17.670332 -5.2756476 -5.3196039 51 5465030 1868 63 33 19193
1.7826786 -0.76210815 0.60515285 281 5561880 116 0 23 2031
1.8048604 -0.69155854 0.58012968 332 5561880 135 1 19 2018
1.8457278 -0.62880659 0.56461656 268 5561880 110 2 43 2030
11.263694 -3.369643 3.2841408 404 5561880 6027 3 67 12207
1.8139223 -0.77437937 0.53279591 241 5561880 100 4 35 2043
1.8697797 -0.71736914 0.51967919 192 5561880 82 5 20 2069
10.919612 -3.7247972 2.8740351 84 5561880 1190 6 95 11890
11.052392 -3.3186233 2.7585518 392 5561880 5524 7 71 11865
1.7181734 -0.73311341 0.43048134 251 5561880 92 8 4 1917
1.8157444 -0.69583797 0.42774168 177 5561880 70 9 4 1991
1.8382891 -0.62817079 0.40782359 162 5561880 64 10 34 1985
1.8721238 -0.56391084 0.39139915 100 5561880 40 11 17 1994
2.0117781 -0.85801572 0.41962692 256 5561880 127 12 89 2227
2.0659835 -0.79264569 0.40177861 269 5561880 136 13 50 2249
10.529588 -3.6003749 1.91096 418 5561880 5329 14 114 11291
10.661253 -3.2141654 1.8077011 465 5561880 5922 15 73 11281
7.9891539 -3.4075084 1.3383763 82 5561880 630 16 43 8788
10.162081 -3.9014804 1.5705329 501 5561880 6066 17 60 10998
10.319008 -3.5346084 1.4685603 474 5561880 5745 18 79 11006
10.470334 -3.1635857 1.3676137 454 5561880 5522 19 63 11023
1.7970605 -0.76651359 0.22829795 29 5561880 11 20 70 1967
10.017082 -3.8476176 1.149424 496 5561880 5779 21 91 10792
10.141945 -3.4792991 1.0454595 517 5561880 5995 22 56 10773
10.305333 -3.1198168 0.94939572 505 5561880 5902 23 101 10809
6.3553367 -2.7122312 0.55328578 422 5561880 2026 24 53 6932
9.8296194 -3.7785652 0.74248457 540 5561880 6022 25 76 10557
9.9567366 -3.4161503 0.64142954 535 5561880 5951 26 101 10546
10.152022 -3.0799816 0.54615158 541 5561880 6107 27 85 10623
6.2121568 -2.6547165 0.29365733 582 5561880 2664 28 60 6762
9.7089977 -3.736088 0.35255662 550 5561880 5956 29 36 10409
9.8507824 -3.3901777 0.25697148 566 5561880 6143 30 40 10421
9.9900351 -3.0348358 0.15599787 561 5561880 6119 31 96 10442
9.2686701 -3.9614675 0.070371106 233 5561880 2372 32 66 10080
9.5386705 -3.6745591 -0.025869068 589 5561880 6160 33 60 10222
9.6843691 -3.3342295 -0.12227856 540 5561880 5670 34 73 10243
9.8166485 -2.989089 -0.22014692 624 5561880 6578 35 69 10264
8.2933969 -3.5494263 -0.26789531 356 5561880 2899 36 118 9025
9.3571978 -3.6125302 -0.39233941 525 5561880 5295 37 66 10038
9.5239573 -3.2834642 -0.49041307 665 5561880 6762 38 145 10086
9.6811018 -2.9476314 -0.58864874 665 5561880 6829 39 55 10137
8.6226873 -3.6983721 -0.62268227 338 5561880 2992 40 70 9403
9.2392244 -3.5718026 -0.75054401 689 5561880 6802 41 85 9934
9.3810787 -3.2371371 -0.84728849 748 5561880 7419 42 128 9960
9.5172892 -2.9033825 -0.9442597 768 5561880 7676 43 68 9995
8.9493313 -3.8421726 -1.0054219 735 5561880 7049 44 89 9791
9.1003819 -3.5223272 -1.099394 703 5561880 6783 45 68 9820
9.2164106 -3.1857159 -1.1916282 742 5561880 7163 46 102 9824
9.4012184 -2.8704848 -1.2979417 637 5561880 6261 47 122 9915
9.9952173 -4.3011184 -1.5271451 368 5561880 4448 48 72 10988
10.215056 -3.9588907 -1.6437428 310 5561880 3800 49 44 11078
10.375318 -3.5923829 -1.7549187 354 5561880 4370 50 57 11119
10.604216 -3.241035 -1.8818414 310 5561880 3915 51 55 11247
11.47945 -4.9519248 -2.2282913 303 5561880 4892 52 72 12699
11.724664 -4.5507727 -2.3634651 372 5561880 6098 53 71 12797
11.991317 -4.1561313 -2.5101519 279 5561880 4661 54 56 12937
18.464949 -5.6432095 -4.0195928 20 5561880 761 55 50 19722
12.620714 -5.4525976 -2.9825163 287 5561880 5687 56 191 14068
13.804674 -5.3664203 -3.3581948 394 5561880 9096 57 72 15187
13.395702 -4.6457648 -3.3594792 171 5561880 3640 58 64 14571
13.518912 -4.1329045 -3.4984412 170 5561880 3597 59 45 14563
16.647642 -7.2154865 -4.6562424 322 5561880 11304 60 100 18732
10.417197 -4.0596232 -2.9815283 94 5561880 1261 61 95 11571
17.710718 -6.1460652 -5.197547 231 5561880 8755 62 77 19454
17.90229 -5.4647603 -5.3994269 186 5561880 7050 63 28 19481
1.7884736 -0.77759945 0.60872829 275 5659580 115 0 32 2043
1.7791687 -0.6942637 0.57323021 285 5659580 113 1 39 1994
1.8091716 -0.62876803 0.55460364 398 5659580 158 2 33 1994
11.242805 -3.4386923 3.2841408 398 5659580 5936 3 79 12207
1.7985104 -0.78088111 0.52966648 272 5659580 112 4 30 2031
1.8653429 -0.72882837 0.51967919 201 5659580 86 5 12 2069
1.9117079 -0.66522676 0.50422519 194 5659580 84 6 57 2086
11.020664 -3.3829522 2.7557619 410 5659580 5760 7 113 11853
1.6921887 -0.73433208 0.42509192 207 5659580 74 8 1 1893
1.8441941 -0.71974903 0.43547586 109 5659580 45 9 19 2027
1.8011314 -0.62784165 0.40042731 342 5659580 130 10 33 1949
1.8686285 -0.57538736 0.39139915 118 5659580 47 11 27 1994
2.0280993 -0.87972319 0.42414922 285 5659580 145 12 84 2251
2.0720785 -0.80960429 0.40392241 237 5659580 121 13 49 2261
10.46263 -3.6493354 1.9028363 443 5659580 5600 14 107 11243
10.618692 -3.2725444 1.8038554 462 5659580 5860 15 61 11257
7.9245744 -3.4375858 1.3310661 49 5659580 378 16 65 8740
10.149012 -3.9680853 1.5722466 529 5659580 6416 17 80 11010
10.285898 -3.5939353 1.4669591 468 5659580 5661 18 66 10994
10.416595 -3.2172294 1.3631471 468 5659580 5654 19 71 10987
1.8360609 -0.79649937 0.23386902 78 5659580 32 20 67 2015
9.9599495 -3.8959692 1.1455897 541 5659580 6263 21 79 10756
10.097858 -3.5335736 1.0431305 530 5659580 6119 22 55 10749
10.263158 -3.1759229 0.94728774 500 5659580 5816 23 119 10785
6.3385749 -2.7511756 0.55328578 428 5659580 2059 24 69 6932
9.8062496 -3.8388076 0.74248457 579 5659580 6457 25 76 10557
9.9355888 -3.4771793 0.64142954 577 5659580 6419 26 94 10546
10.087148 -3.1280172 0.54368383 520 5659580 5818 27 85 10575
6.1957507 -2.6927836 0.29365733 446 5659580 2041 28 69 6762
9.6747246 -3.7912152 0.35215017 546 5659580 5898 29 48 10397
9.8071566 -3.4426103 0.25637966 572 5659580 6179 30 50 10397
9.9597673 -3.0925183 0.1558186 575 5659580 6259 31 79 10430
6.0857568 -2.6453574 0.046327643 662 5659580 2916 32 102 6636
9.3707199 -3.6760483 -0.025474278 529 5659580 5364 33 70 10066
9.6750498 -3.3975646 -0.12242182 556 5659580 5851 34 74 10255
9.7981234 -3.0492666 -0.22014692 582 5659580 6135 35 75 10264
8.2604647 -3.5954599 -0.26753911 368 5659580 2991 36 86 9013
9.3794928 -3.6874256 -0.39421552 559 5659580 5690 37 75 10086
9.5036306 -3.3418403 -0.49041307 697 5659580 7086 38 160 10086
9.6285181 -2.9962995 -0.58655828 687 5659580 7012 39 94 10101
8.5339813 -3.7224865 -0.61791432 264 5659580 2301 40 82 9331
9.183733 -3.6152773 -0.74782413 731 5659580 7165 41 69 9898
9.349762 -3.2906682 -0.84626776 709 5659580 7016 42 117 9948
9.4650803 -2.9510572 -0.94085866 750 5659580 7443 43 62 9959
8.9365273 -3.9017885 -1.0066541 742 5659580 7134 44 85 9803
9.0896921 -3.5824723 -1.1007373 711 5659580 6878 45 60 9832
9.1854563 -3.2382464 -1.1901727 764 5659580 7358 46 91 9812
9.3607149 -2.9210277 -1.2947999 641 5659580 6270 47 121 9891
9.8924303 -4.3290176 -1.5154705 393 5659580 4675 48 89 10904
10.201612 -4.0258508 -1.6455233 346 5659580 4250 49 53 11090
10.408947 -3.6757054 -1.7643887 331 5659580 4133 50 34 11179
10.651886 -3.3272042 -1.8938884 293 5659580 3759 51 71 11319
10.31289 -4.5239563 -2.0071993 71 5659580 933 52 83 11439
11.729424 -4.635632 -2.3701138 295 5659580 4865 53 69 12833
12.032184 -4.25317 -2.524122 275 5659580 4648 54 39 13009
12.262354 -3.8300126 -2.6744294 12 5659580 202 55 34 13122
12.823228 -5.633709 -3.038486 79 5659580 1613 56 168 14332
13.727962 -5.433795 -3.3475811 151 5659580 3464 57 99 15139
13.300894 -4.7045097 -3.3428788 206 5659580 4320 58 56 14499
13.526655 -4.2261987 -3.5070894 116 5659580 2474 59 106 14599
12.2635 -5.4049172 -3.4392362 206 5659580 3945 60 110 13836
10.284318 -4.0807023 -2.9506075 323 5659580 4231 61 34 11451
17.618168 -6.2353301 -5.1815166 169 5659580 6371 62 72 19394
17.912449 -5.5882392 -5.4127307 34 5659580 1279 63 54 19529
1.8046224 -0.79782224 0.61587936 280 5757350 119 0 33 2067
1.8282819 -0.72638607 0.5904789 276 5757350 116 1 50 2054
1.8378724 -0.65140915 0.56461656 286 5757350 118 2 37 2030
11.199432 -3.5007157 3.277684 403 5757350 5975 3 56 12183
1.8042829 -0.79658067 0.53279591 271 5757350 113 4 27 2043
1.8500432 -0.7359668 0.51666516 257 5757350 109 5 9 2057
1.8527217 -0.65747315 0.48972204 227 5757350 93 6 78 2026
10.9997 -3.45051 2.7557619 372 5757350 5226 7 121 11853
1.7946336 -0.79190892 0.45203909 122 5757350 49 8 54 2013
1.7961773 -0.71373969 0.42516363 113 5757350 44 9 16 1979
1.7972451 -0.63888133 0.40042731 387 5757350 147 10 32 1949
1.8762869 -0.59037381 0.3937546 164 5757350 66 11 15 2006
2.0226631 -0.89215082 0.42414922 299 5757350 152 12 74 2251
2.0231888 -0.80484593 0.3953473 302 5757350 148 13 30 2213
10.462327 -3.721391 1.906898 345 5757350 4382 14 207 11267
10.609711 -3.3411958 1.8057783 467 5757350 5933 15 89 11269
7.7731175 -3.4287078 1.3091356 399 5757350 2951 16 78 8596
10.113439 -4.0258913 1.5705329 513 5757350 6206 17 110 10998
10.263653 -3.6569808 1.4669591 506 5757350 6121 18 65 10994
10.408013 -3.2846675 1.3646359 489 5757350 5918 19 96 10999
1.8202339 -0.80293977 0.23247623 50 5757350 20 20 111 2003
9.9469423 -3.9614234 1.1468678 514 5757350 5962 21 93 10768
10.087235 -3.5994804 1.0442951 511 5757350 5922 22 74 10761
10.254875 -3.2424405 0.94834173 532 5757350 6205 23 91 10797
6.3325181 -2.7948465 0.55424356 414 5757350 1998 24 81 6944
9.7936296 -3.903337 0.74332857 561 5757350 6267 25 105 10569
9.9140663 -3.5380776 0.64142954 559 5757350 6216 26 116 10546
10.079189 -3.1934717 0.54430073 546 5757350 6122 27 92 10587
6.1900773 -2.7355955 0.29417846 488 5757350 2237 28 55 6774
9.6401405 -3.8460627 0.3517437 532 5757350 5732 29 53 10385
9.7858486 -3.5027211 0.25637966 576 5757350 6232 30 59 10397
9.9177303 -3.1463156 0.15546004 559 5757350 6057 31 73 10406
6.1352634 -2.7117555 0.046830297 446 5757350 2008 32 83 6708
9.2922678 -3.7112224 -0.025322434 533 5757350 5340 33 74 10006
9.6314278 -3.4487758 -0.12213532 556 5757350 5823 34 86 10231
9.7792292 -3.1093295 -0.22014692 644 5757350 6789 35 63 10264
6.3077941 -2.7916987 -0.20484716 363 5757350 1727 36 146 6901
9.3344259 -3.7359965 -0.39327747 674 5757350 6827 37 81 10062
9.4603815 -3.3919997 -0.4892461 655 5757350 6636 38 174 10062
9.609952 -3.0553226 -0.58655828 679 5757350 6933 39 66 10101
8.6094885 -3.8184705 -0.62506622 207 5757350 1845 40 106 9439
9.1946974 -3.6849132 -0.75054401 720 5757350 7107 41 93 9934
9.3293953 -3.3479753 -0.84626776 718 5757350 7105 42 119 9948
9.4467945 -3.0090783 -0.94085866 744 5757350 7383 43 66 9959
8.9233274 -3.9613919 -1.0078864 761 5757350 7331 44 117 9815
9.0564728 -3.6337378 -1.099394 704 5757350 6793 45 63 9820
9.1766224 -3.2985756 -1.1916282 753 5757350 7269 46 105 9824
9.3992891 -2.9964762 -1.3026543 451 5757350 4464 47 131 9951
9.8439665 -4.3799734 -1.5121348 65 5757350 774 48 71 10880
10.18773 -4.0927949 -1.6473039 327 5757350 4025 49 48 11102
10.430793 -3.7555606 -1.7719644 327 5757350 4117 50 40 11227
10.676353 -3.4068868 -1.9019197 349 5757350 4515 51 68 11367
9.7023134 -4.3272958 -1.893495 226 5757350 2635 52 85 10791
11.777348 -4.7383289 -2.3856277 281 5757350 4693 53 81 12917
12.083383 -4.354857 -2.5404205 242 5757350 4153 54 84 13093
12.361736 -3.9444649 -2.7013326 97 5757350 1695 55 57 13254
13.462996 -6.0136023 -3.1987634 154 5757350 3502 56 133 15088
13.064777 -5.2642446 -3.1936796 161 5757350 3367 57 70 14443
13.271777 -4.7860341 -3.3428788 248 5757350 5217 58 97 14499
17.717342 -5.6550703 -4.602529 95 5757350 3480 59 138 19159
12.283141 -5.5038276 -3.4541504 124 5757350 2402 60 73 13896
10.248334 -4.1393867 -2.9475155 245 5757350 3199 61 57 11439
17.579576 -6.3433156 -5.1815166 143 5757350 5360 62 56 19394
17.822897 -5.6805363 -5.396101 177 5757350 6726 63 62 19469
1.7787967 -0.79948819 0.60872829 322 5854210 134 0 33 2043
1.8024803 -0.7289722 0.58357948 325 5854210 134 1 46 2030
1.866362 -0.67442566 0.57462943 296 5854210 126 2 35 2066
11.177741 -3.5693684 3.277684 386 5854210 5736 3 66 12183
1.7570856 -0.7886613 0.52027798 249 5854210 99 4 19 1995
1.8562585 -0.7516641 0.51967919 205 5854210 88 5 34 2069
1.8486526 -0.66882885 0.48972204 235 5854210 97 6 74 2026
10.967206 -3.5143764 2.7529719 409 5854210 5738 7 85 11841
1.7470646 -0.78376049 0.44126025 82 5854210 32 8 42 1965
1.791764 -0.72474736 0.42516363 105 5854210 41 9 13 1979
1.8043325 -0.65389842 0.40289274 156 5854210 60 10 25 1961
1.8838313 -0.6054759 0.39611009 135 5854210 55 11 16 2018
1.9956441 -0.89490056 0.41962692 288 5854210 143 12 78 2227
2.0400996 -0.82610786 0.39963484 277 5854210 138 13 50 2237
2.0782232 -0.75360906 0.37961945 198 5854210 100 14 78 2243
10.566458 -3.3989785 1.8019325 444 5854210 5617 15 86 11245
7.7194676 -3.4617791 1.3036529 611 5854210 4477 16 120 8560
10.077538 -4.0834098 1.5688193 422 5854210 5093 17 119 10986
10.218664 -3.7117679 1.4637567 527 5854210 6345 18 86 10970
10.37633 -3.3448148 1.3631471 495 5854210 5979 19 80 10987
6.3720341 -2.8576589 0.81604618 490 5854210 2423 20 103 7031
6.4835014 -2.6282949 0.74938351 473 5854210 2342 21 215 7036
10.06496 -3.6613069 1.0442951 532 5854210 6166 22 62 10761
10.200661 -3.2942812 0.9451797 542 5854210 6278 23 100 10761
6.3152499 -2.8336496 0.55424356 423 5854210 2042 24 71 6944
9.7584028 -3.9588561 0.74248457 556 5854210 6200 25 74 10557
9.89217 -3.5988424 0.64142954 552 5854210 6140 26 101 10546
10.048003 -3.2515666 0.54368383 539 5854210 6031 27 72 10575
6.1841111 -2.7784388 0.29469958 467 5854210 2153 28 58 6786
9.6052485 -3.9006286 0.35133725 550 5854210 5913 29 57 10373
9.7416325 -3.5544758 0.25578785 582 5854210 6259 30 37 10373
9.8982382 -3.2071104 0.15546004 543 5854210 5883 31 79 10406
6.0966182 -2.7395132 0.046662748 439 5854210 1963 32 72 6684
9.3137875 -3.7862453 -0.025443908 235 5854210 2380 33 62 10054
9.6100855 -3.5078082 -0.12213532 559 5854210 5856 34 70 10231
9.7371445 -3.1618645 -0.21963216 669 5854210 7019 35 62 10240
6.3124223 -2.8401933 -0.20555955 407 5854210 1952 36 116 6925
9.2891169 -3.7841535 -0.39233941 674 5854210 6796 37 69 10038
9.4506483 -3.4540982 -0.4898296 693 5854210 7030 38 146 10074
9.5568409 -3.1031313 -0.58446777 682 5854210 6914 39 66 10065
6.9485826 -3.1329899 -0.50586724 366 5854210 2138 40 77 7639
9.1497555 -3.732223 -0.74873078 693 5854210 6807 41 101 9910
9.3086767 -3.4051564 -0.84626776 701 5854210 6937 42 115 9948
9.4167929 -3.0632906 -0.93972498 727 5854210 7196 43 79 9947
8.8879728 -4.0111594 -1.0066541 721 5854210 6930 44 101 9803
9.0229664 -3.6847305 -1.0980505 708 5854210 6815 45 64 9808
9.1562099 -3.3548203 -1.1916282 581 5854210 5608 46 111 9824
9.4146624 -3.0651417 -1.307367 458 5854210 4568 47 118 9987
9.827734 -4.4451895 -1.5138026 58 5854210 693 48 69 10892
10.228332 -4.1821766 -1.6579872 324 5854210 4040 49 45 11174
10.474298 -3.8439872 -1.7833283 330 5854210 4207 50 50 11299
10.666497 -3.4759974 -1.9039276 387 5854210 5017 51 65 11379
9.6755781 -4.3867464 -1.893495 139 5854210 1621 52 94 10791
11.846278 -4.8507252 -2.4055741 257 5854210 4367 53 65 13025
12.133785 -4.4573321 -2.5567191 266 5854210 4626 54 64 13177
12.437831 -4.0529995 -2.7233443 262 5854210 4670 55 50 13362
12.945333 -5.8779168 -3.0842795 192 5854210 4058 56 145 14548
13.03223 -5.3443093 -3.1936796 351 5854210 7329 57 73 14443
13.220241 -4.8593211 -3.3373454 88 5854210 1835 58 47 14475
14.692035 -4.7889738 -3.8241904 181 5854210 4596 59 74 15919
17.009169 -7.7471328 -4.7964368 100 5854210 3737 60 73 19296
10.233467 -4.2065997 -2.9506075 280 5854210 3665 61 56 11451
17.496912 -6.4350963 -5.1686921 49 5854210 1842 62 90 19346
17.656139 -5.7469649 -5.3561893 72 5854210 2678 63 32 19325
1.7530193 -0.80086768 0.60157734 320 5952570 130 0 11 2019
1.8086019 -0.74439269 0.58702916 296 5952570 123 1 34 2042
1.818924 -0.66992992 0.56127894 260 5952570 106 2 38 2018
11.122665 -3.6271367 3.2679985 420 5952570 6204 3 64 12147
1.8154511 -0.82827926 0.53905493 230 5952570 98 4 57 2067
1.8301332 -0.75418866 0.51365107 216 5952570 90 5 12 2045
1.8554391 -0.68418801 0.49262267 223 5952570 93 6 73 2038
10.934343 -3.5779738 2.7501819 405 5952570 5671 7 81 11829
1.7528621 -0.79931718 0.44395494 76 5952570 30 8 45 1977
1.7764459 -0.73126662 0.42258561 77 5952570 30 9 24 1967
1.8443524 -0.68123364 0.41275445 118 5952570 48 10 36 2009
1.8800807 -0.61702347 0.39611009 186 5952570 76 11 13 2018
2.0222862 -0.92179275 0.42641032 274 5952570 140 12 83 2263
2.0459089 -0.84310871 0.40177861 276 5952570 139 13 44 2249
2.051373 -0.75814676 0.37555754 278 5952570 137 14 76 2219
10.522896 -3.4563563 1.7980866 499 5952570 6286 15 84 11221
7.6657062 -3.4943218 1.2981702 621 5952570 4514 16 89 8524
7.9770517 -3.2894204 1.244945 112 5952570 853 17 88 8718
10.184544 -3.7702696 1.4621555 527 5952570 6332 18 73 10958
10.355611 -3.4084196 1.3631471 506 5952570 6114 19 63 10987
6.3218446 -2.8818717 0.81186789 592 5952570 2898 20 87 6995
6.4121022 -2.6452758 0.74299306 607 5952570 2956 21 68 6976
10.031106 -3.7188437 1.0431305 514 5952570 5945 22 59 10749
10.168903 -3.353066 0.94412565 518 5952570 5986 23 105 10749
6.2324452 -2.8425634 0.54849684 413 5952570 1953 24 63 6872
9.7339277 -4.0186582 0.74248457 367 5952570 4090 25 351 10557
9.8474398 -3.6511438 0.63996983 563 5952570 6234 26 96 10522
10.016483 -3.3093991 0.54306686 577 5952570 6441 27 79 10563
6.1778517 -2.821312 0.29522073 502 5952570 2322 28 62 6798
9.5700493 -3.9549112 0.35093081 558 5952570 5985 29 53 10361
9.708395 -3.6100013 0.25549194 588 5952570 6308 30 44 10361
9.8669815 -3.2640162 0.15528077 629 5952570 6798 31 88 10394
6.068779 -2.7718842 0.04657897 428 5952570 1907 32 67 6672
9.2460251 -3.8249733 -0.025322434 408 5952570 4089 33 70 10006
9.5658884 -3.5583417 -0.12184881 543 5952570 5662 34 64 10207
9.7061729 -3.2177756 -0.21937478 654 5952570 6846 35 66 10228
6.3057847 -2.8838608 -0.20591576 395 5952570 1900 36 123 6937
9.2546463 -3.8364873 -0.39187038 422 5952570 4240 37 141 10026
9.4292765 -3.5120213 -0.4898296 648 5952570 6573 38 147 10074
9.5376205 -3.1617126 -0.58446777 696 5952570 7056 39 58 10065
6.9401131 -3.1805551 -0.50666189 405 5952570 2372 40 82 7651
9.1045799 -3.7791202 -0.74691755 705 5952570 6893 41 84 9886
9.2652006 -3.4538565 -0.84422606 697 5952570 6865 42 105 9924
9.375144 -3.113483 -0.93745756 769 5952570 7576 43 67 9923
8.8523436 -4.0606427 -1.0054219 727 5952570 6971 44 98 9791
9.0001869 -3.740025 -1.0980505 612 5952570 5892 45 60 9808
9.2358837 -3.4484365 -1.2047284 413 5952570 4077 46 84 9932
9.4182577 -3.1303561 -1.3105087 429 5952570 4299 47 118 10011
9.7570858 -4.4855533 -1.5071316 318 5952570 3744 48 74 10844
10.268217 -4.2722096 -1.6686705 350 5952570 4420 49 55 11246
10.450515 -3.9081838 -1.7833283 441 5952570 5624 50 53 11299
10.689872 -3.556319 -1.9119591 362 5952570 4723 51 37 11427
9.6484795 -4.446032 -1.893495 80 5952570 937 52 60 10791
11.838065 -4.9323931 -2.4100068 282 5952570 4809 53 69 13049
12.13928 -4.5440803 -2.5637038 275 5952570 4808 54 71 13213
12.423876 -4.1329489 -2.72579 299 5952570 5355 55 70 13374
12.791893 -5.9031849 -3.0562947 410 5952570 8522 56 108 14416
12.999193 -5.4241734 -3.1936796 374 5952570 7806 57 88 14443
14.447684 -5.4113441 -3.6555171 146 5952570 3678 58 77 15855
14.662374 -4.8790326 -3.8241904 198 5952570 5026 59 78 15919
17.035149 -7.8855319 -4.817317 161 5952570 6053 60 97 19380
10.100494 -4.2245717 -2.919687 363 5952570 4656 61 42 11331
12.800909 -4.7973509 -3.7900894 27 5952570 552 62 64 14186
17.347006 -5.7642975 -5.2730403 54 5952570 1965 63 83 19025
1.7792416 -0.82608044 0.61230379 282 6050200 119 0 29 2055
1.7827976 -0.74659681 0.58012968 272 6050200 111 1 37 2018
1.8687369 -0.70132804 0.57796711 211 6050200 91 2 32 2078
