# .PCD v0.7 - Point Cloud Data file format
VERSION 0.7
FIELDS x y z intensity t reflectivity ring noise range
SIZE 4 4 4 4 4 2 1 2 4
TYPE F F F F U U U U U
COUNT 1 1 1 1 1 1 1 1 1
WIDTH 771
HEIGHT 1
VIEWPOINT 0 0 0 1 0 0 0
POINTS 771
DATA ascii
-1.8336241 -1.9301567 0.33287737 413 37925820 298 19 73 2683
-2.2575626 -1.9065181 0.34529048 428 37925820 379 20 77 2975
-2.086683 -1.8966851 0.30205396 431 37925820 347 21 67 2836
-1.9879295 -1.9430702 0.27104509 402 37925820 314 22 59 2793
-1.8514185 -1.9467775 0.23688778 420 37925820 306 23 128 2697
-2.2637544 -1.9110025 0.2372137 436 37925820 385 24 84 2972
-2.1153331 -1.9217155 0.20149839 414 37925820 340 25 76 2865
-1.9944408 -1.9492984 0.16993687 433 37925820 338 26 92 2794
-1.8614336 -1.9549839 0.13896711 401 37925820 293 27 81 2703
-2.2865949 -1.9283711 0.1300222 497 37925820 445 28 54 2994
-2.1703579 -1.9703215 0.099341772 372 37925820 320 29 51 2933
-2.0215549 -1.9720771 0.069661684 390 37925820 311 30 46 2825
-1.8719953 -1.9646341 0.040545706 445 37925820 328 31 95 2714
-2.3392539 -1.9725708 0.021362659 416 37925820 390 32 85 3060
-2.1493595 -1.9498218 -0.0073441635 415 37925820 350 33 70 2902
-2.0580592 -2.0071971 -0.034321088 367 37925820 304 34 69 2875
-1.8909854 -1.9819995 -0.058768764 446 37925820 335 35 79 2740
-2.3308344 -1.9635228 -0.090505578 434 37925820 403 36 124 3049
-2.1817369 -1.9762799 -0.11514564 452 37925820 393 37 78 2946
-2.0473115 -1.9950426 -0.13915946 435 37925820 356 38 155 2862
-1.8916398 -1.9827547 -0.1594003 435 37925820 328 39 74 2745
-2.3511908 -1.9775163 -0.20389649 509 37925820 483 40 89 3079
-2.2076323 -1.9979138 -0.22560142 456 37925820 407 41 85 2986
-2.0557096 -2.0021074 -0.2449991 455 37925820 377 42 106 2880
-1.9300624 -2.0208378 -0.26518628 451 37925820 355 43 51 2807
-2.3750536 -1.9961714 -0.32028505 490 37925820 477 44 98 3119
-2.214108 -2.0021582 -0.33631155 449 37925820 406 45 64 3004
-2.0803025 -2.0239377 -0.35467434 402 37925820 344 46 87 2924
-1.9335004 -2.0234473 -0.36955011 434 37925820 346 47 108 2823
-2.4003053 -2.0139658 -0.43974215 468 37925820 469 48 83 3164
-2.1852419 -1.9743228 -0.44187275 242 37925820 215 49 58 2978
-2.0868502 -2.028182 -0.46512684 134 37925820 116 50 49 2947
-1.9642303 -2.0544579 -0.48238188 437 37925820 363 51 56 2883
-1.9585558 -1.6403494 -0.4553442 88 37925820 59 52 105 2595
-1.9034675 -1.7179961 -0.4818536 107 37925820 73 53 71 2609
-1.8415874 -1.7886897 -0.50777364 101 37925820 69 54 62 2617
-1.7657669 -1.8469424 -0.53195095 101 37925820 69 55 39 2610
-1.8289261 -1.5300435 -0.51729739 129 37925820 77 56 85 2440
-1.7608072 -1.5875642 -0.53755003 131 37925820 78 57 64 2431
-1.6860034 -1.6369457 -0.55680066 120 37925820 70 58 51 2415
-1.6308829 -1.7055596 -0.58399445 121 37925820 72 59 67 2431
-1.7312129 -1.4448606 -0.57867461 183 37925820 99 60 37 2328
-1.682652 -1.514545 -0.60372669 225 37925820 123 61 29 2343
-1.6195307 -1.5718032 -0.62571472 207 37925820 113 62 53 2342
-1.6042608 -1.679126 -0.66990477 131 37925820 76 63 29 2417
-1.1729826 -0.97668976 0.47643495 155 38022130 40 0 13 1599
-1.1807784 -1.0618583 0.47663778 153 38022130 42 1 37 1658
-1.1350754 -1.1006035 0.45781222 105 38022130 28 2 28 1646
-1.6077083 -1.6808797 0.64972562 227 38022130 132 3 35 2415
-1.9599746 -1.6336632 0.68927056 178 38022130 125 4 60 2643
-1.7488877 -1.5713718 0.61010194 419 38022130 247 5 58 2429
-1.7046043 -1.6515664 0.59124392 220 38022130 132 6 67 2446
-1.1043489 -1.1522734 0.38152409 339 38022130 91 7 111 1641
-1.9645907 -1.63815 0.58946979 134 38022130 92 8 89 2625
-1.8293729 -1.6449574 0.54117596 183 38022130 116 9 52 2519
-1.6744115 -1.6205577 0.48918286 234 38022130 132 10 44 2381
-1.68007 -1.7499192 0.48561761 512 38022130 313 11 45 2474
-2.2406521 -1.8689371 0.55981666 441 38022130 389 12 100 2971
-2.1114833 -1.8971633 0.51539856 419 38022130 348 13 52 2885
-1.7587917 -1.70157 0.42023855 203 38022130 125 14 67 2483
-1.8058838 -1.880044 0.42320171 451 38022130 315 15 62 2641
-2.2799857 -1.901678 0.45749688 447 38022130 403 16 39 3004
-2.1251814 -1.9085997 0.41212568 421 38022130 350 17 57 2886
-1.9939877 -1.9270265 0.37334469 408 38022130 320 18 67 2798
-1.8619405 -1.9360341 0.33585504 394 38022130 289 19 76 2707
-2.2966778 -1.9155325 0.3494688 435 38022130 395 20 91 3011
-2.124917 -1.9077592 0.30588821 419 38022130 346 21 70 2872
-2.0169985 -1.9474273 0.27337414 419 38022130 333 22 77 2817
-1.8550383 -1.9267696 0.23583379 418 38022130 301 23 127 2685
-2.2938123 -1.912396 0.23912929 411 38022130 369 24 66 2996
-2.1538124 -1.9326835 0.20403029 414 38022130 349 25 84 2901
-2.0063639 -1.9370241 0.16993687 402 38022130 314 26 106 2794
-1.8900282 -1.9607824 0.14020102 409 38022130 304 27 87 2727
-2.2983842 -1.9143045 0.1300222 478 38022130 428 28 54 2994
-2.1556196 -1.9329473 0.09812244 402 38022130 337 29 38 2897
-2.0595324 -1.9846083 0.070549406 408 38022130 334 30 29 2861
-1.9090054 -1.9790179 0.041083526 445 38022130 337 31 78 2750
-2.3328719 -1.942822 0.021195108 422 38022130 389 32 81 3036
-2.2059681 -1.9766368 -0.0074960068 432 38022130 379 33 73 2962
-2.0530534 -1.9778813 -0.03403458 381 38022130 310 34 63 2851
-1.9114457 -1.9789885 -0.059026141 447 38022130 339 35 77 2752
-2.3797214 -1.9798698 -0.091930389 440 38022130 422 36 110 3097
-2.2116942 -1.9788464 -0.11608369 450 38022130 397 37 63 2970
-2.0767848 -1.9990672 -0.14032641 451 38022130 375 38 141 2886
-1.9287376 -1.9969611 -0.1614908 430 38022130 333 39 72 2781
-2.3724909 -1.970703 -0.20469114 476 38022130 455 40 90 3091
-2.2198498 -1.9843304 -0.22560142 459 38022130 409 41 82 2986
-2.0938051 -2.0143242 -0.24806158 489 38022130 416 42 133 2916
-1.9424257 -2.0089571 -0.26518628 452 38022130 357 43 60 2807
-2.4148111 -2.0044322 -0.32398182 482 38022130 480 44 86 3155
-2.253032 -2.0123656 -0.3403419 455 38022130 421 45 72 3040
-2.1270354 -2.0441496 -0.36049664 362 38022130 320 46 108 2972
-1.9624227 -2.0286467 -0.37269187 441 38022130 357 47 105 2847
-2.4126174 -1.9991999 -0.43974215 480 38022130 481 48 62 3164
-2.241586 -2.0003846 -0.45077547 156 38022130 144 49 42 3038
-2.1505439 -2.0645773 -0.47649065 123 38022130 112 50 31 3019
-1.9767992 -2.0423667 -0.48238188 395 38022130 328 51 54 2883
-1.9776872 -1.6358308 -0.45744985 95 38022130 65 52 77 2607
-1.9051698 -1.6984363 -0.47963732 92 38022130 62 53 88 2597
-1.793066 -1.7203071 -0.49147522 102 38022130 65 54 40 2533
-1.752555 -1.810748 -0.52461374 71 38022130 47 55 51 2574
-1.8382798 -1.5187926 -0.51729739 121 38022130 72 56 91 2440
-1.7530357 -1.5611639 -0.53224307 121 38022130 70 57 77 2407
-1.6875883 -1.6184875 -0.55403394 133 38022130 77 58 27 2403
-1.6332153 -1.6871511 -0.58111167 136 38022130 79 59 53 2419
-1.7221072 -1.4194252 -0.5727089 187 38022130 99 60 26 2304
-1.6745825 -1.4887838 -0.59754246 205 38022130 110 61 36 2319
-1.6291445 -1.5618365 -0.62571472 227 38022130 124 62 48 2342
-1.6065177 -1.6609634 -0.66657883 144 38022130 83 63 40 2405
-1.214344 -0.99857652 0.49073693 117 38119410 32 0 41 1647
-1.1700855 -1.0393276 0.4697383 129 38119410 34 1 46 1634
-1.1418072 -1.093618 0.45781222 120 38119410 32 2 37 1646
-1.5617137 -1.6128621 0.6271264 150 38119410 81 3 51 2331
-1.9610175 -1.6142436 0.68614101 173 38119410 120 4 66 2631
-1.784559 -1.5837409 0.6191442 282 38119410 171 5 48 2465
-1.6305832 -1.5605655 0.56223768 321 38119410 174 6 66 2326
-1.2739428 -1.313004 0.43732285 73 38119410 26 7 76 1881
-2.0016854 -1.6483648 0.59755391 156 38119410 111 8 77 2661
-1.8481944 -1.6414843 0.54375398 168 38119410 107 9 47 2531
-1.6843237 -1.6102532 0.48918286 301 38119410 170 10 46 2381
-1.7071776 -1.7564529 0.49032852 608 38119410 379 11 55 2498
-2.2702699 -1.8701396 0.56433886 429 38119410 385 12 88 2995
-2.1319151 -1.8920087 0.5175423 416 38119410 349 13 48 2897
-1.7777495 -1.6989175 0.42226952 158 38119410 98 14 84 2495
-1.8504164 -1.9028956 0.43089339 413 38119410 299 15 67 2689
-2.2824569 -1.8801118 0.45566931 426 38119410 381 16 39 2992
-2.1457376 -1.9034055 0.41383931 418 38119410 351 17 83 2898
-2.0229788 -1.9311793 0.37654707 427 38119410 340 18 65 2822
-1.8737848 -1.9245729 0.33585504 414 38119410 304 19 77 2707
-2.3267877 -1.9165599 0.35225433 407 38119410 375 20 68 3035
-2.1633644 -1.9184346 0.30972248 422 38119410 357 21 81 2908
-2.0375528 -1.9432575 0.27453867 421 38119410 337 22 59 2829
-1.9001992 -1.9495919 0.24004981 424 38119410 317 23 100 2733
-2.3332064 -1.9210953 0.24200267 446 38119410 410 24 69 3032
-2.1745887 -1.9273713 0.20487426 412 38119410 350 25 81 2913
-2.0355475 -1.9412094 0.1713966 410 38119410 326 26 94 2818
-1.9103934 -1.9577254 0.14081796 415 38119410 311 27 93 2739
-2.3471222 -1.9306293 0.13210671 507 38119410 470 28 66 3042
-2.2033515 -1.9514914 0.099748217 379 38119410 328 29 43 2945
-2.0629818 -1.963663 0.070253506 384 38119410 311 30 39 2849
-1.9378786 -1.984436 0.04144207 463 38119410 356 31 57 2774
-2.3818197 -1.9589608 0.021530207 417 38119410 397 32 78 3084
-2.209069 -1.9551109 -0.0074656382 434 38119410 378 33 71 2950
-2.065151 -1.9652468 -0.03403458 380 38119410 309 34 82 2851
-1.9487154 -1.9929569 -0.059798285 446 38119410 347 35 61 2788
-2.4103601 -1.9804602 -0.092642799 428 38119410 417 36 110 3121
-2.2237947 -1.9652385 -0.11608369 442 38119410 390 37 69 2970
-2.106384 -2.0028045 -0.14149337 452 38119410 382 38 151 2910
-1.9744554 -2.0193517 -0.16427813 446 38119410 357 39 64 2829
-2.403053 -1.9712969 -0.20628047 502 38119410 487 40 80 3115
-2.2409534 -1.978592 -0.22650807 438 38119410 394 41 90 2998
-2.1061254 -2.0014391 -0.24806158 471 38119410 401 42 182 2916
-1.9547158 -1.9970007 -0.26518628 406 38119410 320 43 44 2807
-2.4270647 -1.9895775 -0.32398182 464 38119410 462 44 104 3155
-2.2653372 -1.9985033 -0.3403419 437 38119410 404 45 61 3040
-2.1136215 -2.0064576 -0.35612994 464 38119410 400 46 99 2936
-1.9748333 -2.0165675 -0.37269187 441 38119410 358 47 93 2847
-2.4432323 -1.9994109 -0.44307777 484 38119410 492 48 90 3188
-2.3161356 -2.0415215 -0.46323934 160 38119410 156 49 47 3122
-2.102984 -1.9942669 -0.4632329 68 38119410 58 50 39 2935
-1.9810137 -2.0217485 -0.48037401 135 38119410 112 51 58 2871
-2.0151353 -1.6460863 -0.46376675 86 38119410 60 52 85 2643
-1.9332578 -1.702302 -0.48406982 94 38119410 65 53 86 2621
-1.8463099 -1.7497607 -0.50311697 109 38119410 73 54 54 2593
-1.7554104 -1.7915689 -0.52216792 88 38119410 58 55 39 2562
-1.8566508 -1.5148984 -0.51984149 116 38119410 70 56 91 2452
-1.8153055 -1.5967542 -0.54816389 136 38119410 83 57 50 2479
-1.6890105 -1.6000715 -0.55126721 125 38119410 71 58 44 2391
-1.6761492 -1.7103765 -0.59264261 139 38119410 84 59 57 2467
-1.7758566 -1.4455202 -0.58762318 195 38119410 109 60 34 2364
-1.6923985 -1.4861314 -0.60063457 231 38119410 125 61 28 2331
-1.6219044 -1.5359085 -0.61930263 222 38119410 119 62 37 2318
-1.616679 -1.6510748 -0.66657883 205 38119410 118 63 33 2405
-1.1759876 -0.95500076 0.47285947 114 38215950 29 0 29 1587
-1.2196393 -1.0700281 0.48698699 80 38215950 23 1 56 1694
-1.190361 -1.1261998 0.47450042 83 38215950 24 2 30 1706
-1.2722319 -1.2978685 0.50767374 86 38215950 31 3 23 1887
-1.9708853 -1.6021806 0.68614101 182 38215950 126 4 58 2631
-1.8728549 -1.6416693 0.64627099 148 38215950 98 5 49 2573
-1.6993586 -1.606526 0.582542 201 38215950 117 6 74 2410
-1.658185 -1.6881768 0.56566006 69 38215950 41 7 55 2433
-2.0480506 -1.6655633 0.60833281 80 38215950 59 8 69 2709
-1.8582315 -1.6301131 0.54375398 225 38215950 144 9 69 2531
-1.7368647 -1.6402045 0.50151002 187 38215950 111 10 51 2441
-1.7344282 -1.7627193 0.49503943 342 38215950 217 11 37 2522
-2.3091283 -1.8784856 0.57112229 417 38215950 383 12 86 3031
-2.1612418 -1.8944576 0.52182984 441 38215950 377 13 64 2921
-1.7451391 -1.6473848 0.41211477 267 38215950 158 14 83 2435
-1.8786769 -1.9083879 0.43473923 441 38215950 325 15 68 2713
-2.3307514 -1.8960086 0.46297953 450 38215950 416 16 49 3040
-2.1752427 -1.9058576 0.41726655 410 38215950 350 17 98 2922
-2.0347903 -1.9187301 0.37654707 409 38215950 326 18 74 2822
-1.9022757 -1.9300004 0.33883271 406 38215950 303 19 85 2731
-2.3477497 -1.9097682 0.35364708 415 38215950 386 20 93 3047
-2.1750951 -1.9051243 0.30972248 410 38215950 347 21 86 2908
-2.0581312 -1.9389083 0.27570319 405 38215950 327 22 57 2841
-1.9205216 -1.9464047 0.24110383 406 38215950 306 23 121 2745
-2.3635118 -1.9218359 0.24391827 425 38215950 397 24 48 3056
-2.2043872 -1.9297612 0.20656221 437 38215950 377 25 69 2937
-2.0474203 -1.9286829 0.1713966 447 38215950 355 26 99 2818
-1.9392143 -1.9630179 0.14205186 407 38215950 311 27 85 2763
-2.3589242 -1.9161912 0.13210671 457 38215950 423 28 69 3042
-2.2243109 -1.9458317 0.10015467 415 38215950 363 29 23 2957
-2.1012115 -1.9756203 0.071141228 410 38215950 341 30 43 2885
-1.9500184 -1.9725081 0.04144207 475 38215950 366 31 61 2774
-2.4124236 -1.9594401 0.021697758 431 38215950 417 32 91 3108
-2.2481277 -1.9652126 -0.0075567439 439 38215950 392 33 66 2986
-2.1121423 -1.9854116 -0.034607593 402 38215950 338 34 91 2899
-1.9777874 -1.9980149 -0.060313046 447 38215950 354 35 65 2812
-2.4317808 -1.973191 -0.092999004 429 38215950 421 36 131 3133
-2.262912 -1.9752119 -0.11749076 437 38215950 395 37 75 3006
-2.1186335 -1.9898423 -0.14149337 462 38215950 391 38 149 2910
-1.9699533 -1.9901704 -0.16288446 446 38215950 351 39 59 2805
-2.4337108 -1.9715891 -0.20786978 492 38215950 485 40 89 3139
-2.2710881 -1.9805334 -0.22832133 473 38215950 432 41 101 3022
-2.1183662 -1.9884784 -0.24806158 464 38215950 394 42 142 2916
-2.0005672 -2.0189123 -0.26972097 316 38215950 257 43 46 2855
-2.4485044 -1.9821583 -0.32521409 471 38215950 473 44 99 3167
-2.3135185 -2.0159011 -0.3457157 445 38215950 425 45 69 3088
-2.1519599 -2.0178938 -0.36049664 457 38215950 404 46 99 2972
-2.020673 -2.0382061 -0.37897542 455 38215950 381 47 108 2895
-2.4924247 -2.0142596 -0.44974893 481 38215950 504 48 77 3236
-2.3196681 -2.0194795 -0.46145877 122 38215950 118 49 66 3110
-2.0719404 -1.9408215 -0.45376307 81 38215950 67 50 51 2875
-2.0017133 -2.0179546 -0.48238188 73 38215950 60 51 45 2883
-1.9608325 -1.5817685 -0.44902727 78 38215950 51 52 83 2559
-1.8991721 -1.6517109 -0.47298852 93 38215950 61 53 71 2561
-1.8398235 -1.7223089 -0.49846023 89 38215950 59 54 75 2569
-1.7498235 -1.7640826 -0.51727647 80 38215950 51 55 55 2538
-1.8476478 -1.4887619 -0.51475328 141 38215950 83 56 104 2428
-1.7808962 -1.5472093 -0.53489655 137 38215950 80 57 63 2419
-1.6987965 -1.5896779 -0.55126721 147 38215950 84 58 49 2391
-1.6455922 -1.6587124 -0.57822889 151 38215950 88 59 63 2407
-1.7756333 -1.4273143 -0.58464026 208 38215950 115 60 32 2352
-1.6927261 -1.4681221 -0.59754246 237 38215950 127 61 35 2319
-1.605963 -1.5022291 -0.60968447 237 38215950 123 62 45 2282
-1.5943114 -1.6083696 -0.65327495 225 38215950 125 63 31 2357
-1.208634 -0.96926641 0.48358592 113 38313690 30 0 18 1623
-1.2261819 -1.0625244 0.48698699 95 38313690 27 1 63 1694
-1.1635631 -1.0873941 0.46114987 90 38313690 25 2 28 1658
-1.1987616 -1.2080003 0.47538927 87 38313690 27 3 40 1767
-1.989713 -1.5973096 0.68927056 187 38313690 131 4 70 2643
-1.8565484 -1.6073385 0.63722873 142 38313690 91 5 45 2537
-1.7347153 -1.6199104 0.59124392 203 38313690 122 6 89 2446
-1.6520535 -1.6614184 0.56008017 204 38313690 118 7 43 2409
-2.3317511 -1.8726287 0.68917441 312 38313690 294 8 73 3069
-1.8327686 -1.5879824 0.53344178 244 38313690 151 9 58 2483
-1.7640716 -1.6455379 0.50644088 176 38313690 107 10 56 2465
-1.7369075 -1.7437075 0.49268401 219 38313690 138 11 40 2510
-2.3297985 -1.8716626 0.57338339 445 38313690 412 12 86 3043
-2.1817517 -1.8888888 0.52397364 413 38313690 356 13 64 2933
-1.7465645 -1.6285802 0.4100838 183 38313690 107 14 96 2423
-1.88199 -1.8884349 0.43281633 421 38313690 307 15 58 2701
-2.323849 -1.8668163 0.45932439 422 38313690 384 16 36 3016
-2.1958771 -1.9002466 0.41898015 413 38313690 356 17 81 2934
-2.0378227 -1.8981031 0.37494591 425 38313690 335 18 53 2810
-1.9224925 -1.9267207 0.34032151 390 38313690 294 19 86 2743
-2.3780079 -1.9102554 0.35643262 391 38313690 369 20 67 3071
-2.2318623 -1.9307741 0.31611288 428 38313690 377 21 88 2968
-2.0874763 -1.9425159 0.27803227 447 38313690 367 22 68 2865
-1.9324284 -1.9345839 0.24110383 430 38313690 324 23 126 2745
-2.4032402 -1.9297656 0.24679166 431 38313690 413 24 66 3092
-2.2252414 -1.9240283 0.20740618 429 38313690 373 25 77 2949
-2.0855224 -1.9405619 0.17358619 416 38313690 339 26 111 2854
-1.9596969 -1.9595559 0.1426688 437 38313690 337 27 93 2775
-2.4080439 -1.931688 0.13419124 492 38313690 469 28 53 3090
-2.2725079 -1.9635108 0.10178044 385 38313690 347 29 32 3005
-2.1220841 -1.9708539 0.071437135 370 38313690 310 30 31 2897
-1.9705724 -1.9689866 0.041621342 445 38313690 346 31 68 2786
-2.4337618 -1.9521091 0.021781532 410 38313690 399 32 81 3120
-2.2873926 -1.9749078 -0.0076478501 445 38313690 407 33 77 3022
-2.1330781 -1.980579 -0.034750849 381 38313690 323 34 84 2911
-1.9900097 -1.9858419 -0.060313046 444 38313690 351 35 52 2812
-2.4812841 -1.9882344 -0.094423823 410 38313690 415 36 125 3181
-2.2931528 -1.9769487 -0.11842882 433 38313690 397 37 42 3030
-2.1483767 -1.9931089 -0.14266032 434 38313690 374 38 175 2934
-1.9906075 -1.9865078 -0.1635813 440 38313690 350 39 64 2817
-2.4925117 -1.9940186 -0.21184309 501 38313690 513 40 98 3199
-2.3013303 -1.982179 -0.23013462 462 38313690 429 41 80 3046
-2.1480627 -1.9917016 -0.25010324 480 38313690 415 42 122 2940
-2.0044568 -1.9981651 -0.26858732 480 38313690 388 43 67 2843
-2.4979146 -1.9969113 -0.33014312 477 38313690 493 44 130 3215
-2.3258443 -2.0016675 -0.3457157 458 38313690 436 45 57 3088
-2.1643012 -2.0046515 -0.36049664 472 38313690 417 46 97 2972
-2.0247135 -2.0173721 -0.37740451 484 38313690 402 47 114 2883
-2.5326018 -2.0211661 -0.45475233 473 38313690 507 48 78 3272
-2.35901 -2.0284197 -0.46680042 90 38313690 89 49 54 3146
-2.1186006 -1.9602622 -0.46133891 89 38313690 76 50 42 2923
-1.9721417 -1.9638939 -0.4723427 65 38313690 51 51 47 2823
-1.9705011 -1.5697074 -0.44902727 79 38313690 52 52 84 2559
-1.945056 -1.6707653 -0.4818536 100 38313690 68 53 82 2609
-1.8417137 -1.7029954 -0.49613193 117 38313690 77 54 63 2557
-1.743966 -1.736733 -0.51238495 89 38313690 56 55 52 2514
-1.8200411 -1.4481896 -0.50457692 119 38313690 67 56 100 2380
-1.7903562 -1.5362527 -0.53489655 145 38313690 85 57 57 2419
-1.7170935 -1.5871502 -0.55403394 117 38313690 67 58 43 2403
-1.6557389 -1.648584 -0.57822889 121 38313690 70 59 64 2407
-1.7843578 -1.4163923 -0.58464026 237 38313690 131 60 31 2352
-1.7281196 -1.4803374 -0.60681868 242 38313690 134 61 29 2355
-1.6576169 -1.5315846 -0.62571472 235 38313690 129 62 52 2342
-1.587816 -1.5822797 -0.64662302 286 38313690 155 63 43 2333
-1.2594591 -0.99738973 0.50146341 81 38412950 23 0 34 1683
-1.19775 -1.0250874 0.47318804 70 38412950 19 1 43 1646
-1.2464395 -1.1505992 0.49118859 52 38412950 16 2 23 1766
-1.1815777 -1.1761613 0.4657039 86 38412950 26 3 32 1731
-2.026711 -1.606661 0.698659 246 38412950 177 4 77 2679
-1.8663759 -1.5959167 0.63722873 65 38412950 42 5 28 2537
-1.7617404 -1.6250255 0.59704512 281 38412950 172 6 68 2470
-1.6539365 -1.6430249 0.55729026 249 38412950 143 7 53 2397
-2.3706837 -1.8800842 0.69725853 394 38412950 380 8 91 3105
-1.8870002 -1.614807 0.54633206 192 38412950 124 9 54 2543
-1.8086821 -1.6665142 0.51630259 183 38412950 115 10 55 2513
-1.6807344 -1.6667343 0.47384027 223 38412950 130 11 35 2414
-2.3504715 -1.8646562 0.57564449 349 38412950 326 12 98 3055
-2.2112479 -1.8908129 0.52826118 428 38412950 374 13 54 2957
-2.0609982 -1.8982661 0.48116726 173 38412950 140 14 96 2843
-1.9356048 -1.9185439 0.44243088 429 38412950 327 15 64 2761
-2.3817174 -1.8893763 0.46846217 454 38412950 429 16 42 3076
-2.2165239 -1.8944539 0.42069376 425 38412950 369 17 76 2946
-2.0756869 -1.9097202 0.37974948 437 38412950 354 18 62 2846
-1.9596646 -1.94002 0.34478801 433 38412950 335 19 78 2779
-2.3990221 -1.9030355 0.3578254 398 38412950 379 20 89 3083
-2.2436671 -1.9170433 0.31611288 401 38412950 354 21 67 2968
-2.0905628 -1.9215883 0.27686775 427 38412950 348 22 75 2853
-1.9442624 -1.9226904 0.24110383 435 38412950 328 23 126 2745
-2.4244084 -1.9224153 0.24774943 412 38412950 397 24 66 3104
-2.2552106 -1.9258852 0.20909412 428 38412950 378 25 92 2973
-2.1326652 -1.9601505 0.17650566 394 38412950 332 26 129 2902
-1.9631575 -1.939073 0.14205186 440 38412950 336 27 74 2763
-2.4574411 -1.9466529 0.13627577 465 38412950 458 28 81 3138
-2.2753901 -1.9417447 0.10137399 369 38412950 330 29 51 2993
-2.1429772 -1.9659057 0.071733043 385 38412950 326 30 43 2909
-1.9911565 -1.9652871 0.041800618 457 38412950 358 31 78 2798
-2.4551005 -1.9445896 0.021865308 403 38412950 396 32 81 3132
-2.2903366 -1.9530493 -0.007617482 418 38412950 378 33 53 3010
-2.1717196 -1.9917845 -0.035180606 381 38412950 331 34 90 2947
-2.0192454 -1.9904385 -0.060827814 459 38412950 369 35 77 2836
-2.4840305 -1.9655292 -0.094067618 438 38412950 440 36 132 3169
-2.3234992 -1.9783882 -0.11936687 433 38412950 403 37 56 3054
-2.1694024 -1.9879868 -0.14324379 418 38412950 362 38 171 2946
-2.0112906 -1.9826663 -0.16427813 423 38412950 339 39 73 2829
-2.4953041 -1.9712648 -0.21104842 488 38412950 496 40 94 3187
-2.3316777 -1.9835274 -0.23194788 455 38412950 429 41 95 3070
-2.1778779 -1.9946349 -0.2521449 479 38412950 420 42 145 2964
-2.0251915 -1.9942102 -0.26972097 490 38412950 399 43 57 2855
-2.5382273 -2.0037351 -0.33383992 524 38412950 554 44 82 3251
-2.3471684 -1.9950818 -0.34705916 436 38412950 419 45 69 3100
-2.2117138 -2.0234954 -0.36631894 464 38412950 424 46 89 3020
-2.0455327 -2.0132561 -0.37897542 425 38412950 356 47 105 2895
-2.5542896 -2.0129437 -0.45642012 463 38412950 500 48 82 3284
-2.3714118 -2.0139067 -0.46680042 63 38412950 62 49 38 3146
-2.1305885 -1.9472258 -0.46133891 75 38412950 64 50 50 2923
-1.9251151 -1.8936803 -0.45828786 46 38412950 34 51 50 2739
-2.0079515 -1.5794991 -0.4553442 86 38412950 58 52 76 2595
-1.9372845 -1.6435399 -0.47742102 76 38412950 51 53 73 2585
-1.8868965 -1.7234187 -0.5054453 123 38412950 83 54 52 2605
-1.7545896 -1.7259995 -0.51238495 92 38412950 58 55 51 2514
-1.8842206 -1.480467 -0.51984149 129 38412950 78 56 102 2452
-1.7997487 -1.5252384 -0.53489655 141 38412950 83 57 66 2419
-1.7267997 -1.5765845 -0.55403394 165 38412950 95 58 30 2403
-1.690738 -1.6628981 -0.58687711 162 38412950 96 59 54 2443
-1.756423 -1.3767351 -0.5727089 249 38412950 132 60 37 2304
-1.7106147 -1.4472392 -0.59754246 219 38412950 118 61 35 2319
-1.6499007 -1.5057943 -0.61930263 245 38412950 131 62 42 2318
-1.5974947 -1.5725073 -0.64662302 349 38412950 190 63 32 2333
-1.2475082 -0.97553051 0.49431241 66 38510180 18 0 47 1659
-1.2566838 -1.0622363 0.49388641 91 38510180 27 1 63 1718
-1.1683021 -1.0652673 0.45781222 36 38510180 10 2 58 1646
-1.2052543 -1.1850955 0.47216082 92 38510180 28 3 21 1755
-2.0638978 -1.6156176 0.70804751 266 38510180 196 4 64 2715
-1.9293778 -1.6294011 0.65531325 156 38510180 106 5 44 2609
-1.7200341 -1.567132 0.5796414 296 38510180 170 6 73 2398
-1.6556566 -1.6246713 0.55450034 260 38510180 148 7 60 2385
-2.4190009 -1.8943411 0.70803738 207 38510180 206 8 93 3153
-1.9505789 -1.6485895 0.56180036 124 38510180 84 9 57 2615
-1.8101883 -1.6474804 0.51383722 165 38510180 103 10 52 2501
-1.707741 -1.6728581 0.47855124 237 38510180 141 11 34 2438
-2.4175329 -1.8938042 0.58921123 297 38510180 291 12 78 3127
-2.2318285 -1.8848273 0.53040493 433 38510180 381 13 45 2969
-2.0901034 -1.9015019 0.48522913 402 38510180 331 14 80 2867
-1.9473404 -1.9066312 0.44243088 420 38510180 320 15 58 2761
-2.4119387 -1.889354 0.47211727 393 38510180 377 16 48 3100
-2.2553337 -1.9038013 0.42583463 416 38510180 370 17 57 2982
-2.0961668 -1.9049463 0.38135064 408 38510180 333 18 76 2858
-1.9715314 -1.9279591 0.34478801 435 38510180 336 19 80 2779
-2.4481857 -1.9176786 0.36339647 385 38510180 378 20 90 3131
-2.2645066 -1.9109354 0.31739098 404 38510180 359 21 91 2980
-2.1288416 -1.9328096 0.28036132 406 38510180 339 22 45 2889
-1.990227 -1.944136 0.24531986 432 38510180 337 23 112 2793
-2.4644129 -1.9296262 0.25062281 397 38510180 391 24 57 3140
-2.2852859 -1.9274462 0.21078208 421 38510180 378 25 65 2997
-2.1357839 -1.9389766 0.17577578 425 38510180 355 26 103 2890
-1.9835961 -1.9353598 0.1426688 422 38510180 325 27 86 2775
-2.4693394 -1.9315377 0.13627577 460 38510180 454 28 64 3138
-2.3147728 -1.9509337 0.10259333 404 38510180 370 29 43 3029
-2.1816685 -1.9768852 0.072620764 393 38510180 341 30 50 2945
-2.0117691 -1.9614087 0.041979894 442 38510180 349 31 70 2810
-2.4858902 -1.9442741 0.022032859 393 38510180 392 32 88 3156
-2.3298128 -1.9621495 -0.0077085881 427 38510180 397 33 67 3046
-2.2105782 -2.0025897 -0.035610363 373 38510180 332 34 95 2983
-2.0572071 -2.0031199 -0.061599959 441 38510180 364 35 87 2872
-2.5338511 -1.9797906 -0.095492437 416 38510180 430 36 129 3217
-2.3539488 -1.9795291 -0.12030491 439 38510180 416 37 64 3078
-2.1815596 -1.9746381 -0.14324379 429 38510180 372 38 139 2946
-2.0491667 -1.9953605 -0.16636863 448 38510180 368 39 74 2865
-2.5451164 -1.9853753 -0.21422707 488 38510180 511 40 96 3235
-2.3712888 -1.9922745 -0.23466779 446 38510180 430 41 101 3106
-2.1989422 -1.9892552 -0.25316572 457 38510180 405 42 110 2976
-2.0288265 -1.9734169 -0.26858732 465 38510180 375 43 52 2843
-2.5693028 -2.0028002 -0.33630443 482 38510180 517 44 97 3275
-2.3684988 -1.9883093 -0.34840262 427 38510180 414 45 76 3112
-2.2417629 -2.0258591 -0.36923009 479 38510180 444 46 79 3044
-2.0919671 -2.0338385 -0.38525894 297 38510180 257 47 132 2943
-2.5947282 -2.0191274 -0.46142352 439 38510180 484 48 78 3320
-2.3746316 -1.9916921 -0.46501985 58 38510180 57 49 50 3134
-2.0897219 -1.8864745 -0.4499751 89 38510180 72 50 48 2851
-1.9366983 -1.8818325 -0.45828786 55 38510180 41 51 53 2739
-2.073585 -1.6106305 -0.46797803 85 38510180 61 52 79 2667
-1.9925319 -1.6694934 -0.48850241 75 38510180 53 53 80 2645
-1.8886951 -1.7039231 -0.50311697 104 38510180 70 54 77 2593
-1.765147 -1.715201 -0.51238495 104 38510180 65 55 43 2514
-1.9025347 -1.4760664 -0.52238554 136 38510180 83 56 108 2464
-1.8090734 -1.5141666 -0.53489655 139 38510180 82 57 65 2419
-1.7451124 -1.5737795 -0.55680066 142 38510180 83 58 49 2415
-1.7092644 -1.6606096 -0.58975989 150 38510180 91 59 68 2455
-1.792413 -1.3872747 -0.58165747 248 38510180 136 60 43 2340
-1.7105651 -1.4292814 -0.59445047 226 38510180 120 61 45 2307
-1.65052 -1.4878995 -0.61609656 237 38510180 126 62 37 2306
-1.5823144 -1.5385623 -0.63664514 357 38510180 188 63 49 2297
-1.2444037 -0.9608568 0.49073693 58 38607800 16 0 33 1647
-1.2455318 -1.0397744 0.48698699 69 38607800 20 1 62 1694
-1.346114 -1.212355 0.52456492 40 38607800 14 2 34 1886
-1.2125033 -1.177678 0.47216082 88 38607800 27 3 23 1755
-2.0829382 -1.6100082 0.71117699 355 38607800 264 4 73 2727
-1.9304193 -1.6100922 0.65229917 132 38607800 89 5 27 2597
-1.8161706 -1.6344409 0.60864764 176 38607800 112 6 84 2518
-1.6572138 -1.6063585 0.55171037 304 38607800 171 7 60 2373
-2.384326 -1.8436975 0.69456381 433 38607800 415 8 75 3093
-2.1406033 -1.7867932 0.61336136 167 38607800 136 9 75 2855
-1.8289967 -1.6441934 0.51630259 165 38607800 104 10 46 2513
-1.7010612 -1.6459837 0.47384027 236 38607800 137 11 28 2414
-2.4197857 -1.8717245 0.58695018 493 38607800 479 12 100 3115
-2.2796199 -1.9013478 0.53898007 428 38607800 389 13 40 3017
-2.1017315 -1.8886415 0.48522913 402 38607800 331 14 79 2867
-1.9504882 -1.8864119 0.44050798 428 38607800 323 15 46 2749
-2.4141047 -1.8672627 0.47028971 429 38607800 409 16 45 3088
-2.285218 -1.9051377 0.42926186 412 38607800 373 17 72 3006
-2.1255164 -1.9079372 0.38455305 426 38607800 354 18 58 2882
-1.9918883 -1.9240985 0.34627685 422 38607800 329 19 70 2791
-2.4787621 -1.917205 0.366182 382 38607800 381 20 83 3155
-2.3220186 -1.9351994 0.3237814 428 38607800 396 21 88 3040
-2.1495526 -1.9276847 0.28152585 398 38607800 335 22 53 2901
-1.9935164 -1.9235873 0.24426584 438 38607800 339 23 94 2781
-2.4762065 -1.9144685 0.25062281 428 38607800 422 24 57 3140
-2.3154645 -1.9287101 0.21247001 423 38607800 386 25 71 3021
-2.1387236 -1.9178386 0.17504591 424 38607800 351 26 128 2878
-2.0299497 -1.9564177 0.14513658 450 38607800 359 27 80 2823
-2.5190969 -1.9456629 0.13836029 485 38607800 493 28 66 3186
-2.3451355 -1.9520391 0.10340622 383 38607800 357 29 41 3053
-2.2295129 -1.9954635 0.073804393 379 38607800 339 30 42 2993
-2.0324085 -1.957351 0.042159162 443 38607800 353 31 71 2822
-2.5452592 -1.965657 0.022451734 393 38607800 407 32 91 3216
-2.36026 -1.9631642 -0.0077693253 428 38607800 404 33 68 3070
-2.2228243 -1.988988 -0.035610363 401 38607800 357 34 107 2983
-2.043519 -1.9655093 -0.060827814 425 38607800 342 35 69 2836
-2.5744417 -1.9861864 -0.096561052 427 38607800 452 36 118 3253
-2.3568265 -1.9573874 -0.1198359 435 38607800 409 37 56 3066
-2.2293763 -1.9931699 -0.14557771 449 38607800 402 38 171 2994
-2.0786395 -1.9993589 -0.16776229 466 38607800 389 39 56 2889
-2.5762224 -1.9843343 -0.21581638 474 38607800 504 40 70 3259
-2.3926768 -1.9853278 -0.23557442 447 38607800 435 41 82 3118
-2.2289383 -1.9916587 -0.25520739 487 38607800 438 42 140 3000
-2.0925834 -2.0105925 -0.2753894 482 38607800 410 43 65 2915
-2.6099205 -2.0088394 -0.3400012 471 38607800 517 44 99 3311
-2.4173739 -2.0041823 -0.35377643 445 38607800 445 45 63 3160
-2.2719235 -2.0279295 -0.37214121 491 38607800 463 46 84 3068
-2.1215684 -2.0374451 -0.3884007 319 38607800 281 47 101 2967
-2.6164918 -2.0104086 -0.46309131 455 38607800 505 48 87 3332
-2.4873371 -2.0603564 -0.48460591 93 38607800 99 49 46 3266
-2.0924137 -1.8657306 -0.44808117 70 38607800 56 50 42 2839
-1.9226023 -1.8453364 -0.45226437 68 38607800 49 51 56 2703
-2.0084348 -1.5403606 -0.45113292 67 38607800 44 52 85 2571
-2.0118241 -1.6647546 -0.49071863 87 38607800 62 53 84 2657
-1.8288043 -1.6296486 -0.48449019 103 38607800 64 54 64 2497
-1.8095404 -1.736879 -0.52216792 89 38607800 58 55 45 2562
-1.8929367 -1.4501015 -0.51729739 129 38607800 77 56 82 2440
-1.8273505 -1.5104941 -0.53755003 136 38607800 80 57 33 2431
-1.7285784 -1.539742 -0.54850054 155 38607800 87 58 45 2379
-1.677399 -1.6097624 -0.57534623 138 38607800 79 59 58 2395
-1.791656 -1.3691928 -0.57867461 162 38607800 88 60 34 2328
-1.7193029 -1.4187586 -0.59445047 243 38607800 129 61 37 2307
-1.6768913 -1.493124 -0.6225087 248 38607800 134 62 54 2330
-1.575094 -1.5128505 -0.62999314 404 38607800 209 63 32 2273
-1.2593855 -0.96014822 0.49431241 41 38705030 11 0 50 1659
-1.2430201 -1.024801 0.48353723 53 38705030 15 1 64 1682
-1.2243469 -1.0891558 0.47450042 33 38705030 9 2 42 1706
-1.2030268 -1.154213 0.4657039 86 38705030 26 3 41 1731
-2.0651503 -1.5761122 0.70178854 330 38705030 239 4 70 2691
-1.9492278 -1.605602 0.65531325 154 38705030 105 5 38 2609
-1.7652445 -1.5691144 0.58834326 374 38705030 222 6 63 2434
-1.650179 -1.5800167 0.54613048 401 38705030 221 7 72 2349
-2.3770053 -1.8148406 0.68917441 397 38705030 374 8 69 3069
-2.2510021 -1.8556281 0.64172 406 38705030 363 9 82 2987
-1.8566145 -1.6485353 0.5212335 224 38705030 144 10 45 2537
-1.728141 -1.6517756 0.47855124 251 38705030 149 11 35 2438
-2.4405906 -1.8639948 0.58921123 399 38705030 390 12 105 3127
-2.3003569 -1.8948311 0.54112381 407 38705030 373 13 44 3029
-2.1132805 -1.87571 0.48522913 392 38705030 322 14 86 2867
-1.9791558 -1.8907731 0.44435382 441 38705030 339 15 41 2773
-2.4726446 -1.8884076 0.47942749 430 38705030 426 16 44 3148
-2.3060338 -1.8986293 0.4309755 422 38705030 385 17 60 3018
-2.1371832 -1.8948593 0.38455305 444 38705030 368 18 53 2882
-2.0208864 -1.9282804 0.34925449 420 38705030 333 19 83 2815
-2.5378418 -1.9381298 0.37314585 387 38705030 400 20 87 3215
-2.3246365 -1.9133327 0.3225033 427 38705030 392 21 79 3028
-2.1792212 -1.9302974 0.28385493 420 38705030 360 22 77 2925
-2.0312402 -1.9360611 0.24742785 445 38705030 353 23 119 2817
-2.5164306 -1.9210135 0.2534962 404 38705030 408 24 80 3176
-2.3457437 -1.9296756 0.21415795 422 38705030 392 25 61 3045
-2.1773503 -1.9285046 0.17723551 431 38705030 366 26 114 2914
-2.067955 -1.968715 0.14698742 403 38705030 329 27 95 2859
-2.5405209 -1.9374393 0.13888142 417 38705030 427 28 65 3198
-2.3663335 -1.9452287 0.10381266 360 38705030 338 29 39 3065
-2.2507026 -1.9896915 0.074100308 404 38705030 365 30 44 3005
-2.0443802 -1.9448435 0.042159162 455 38705030 363 31 69 2822
-2.5477304 -1.9427266 0.02236796 414 38705030 425 32 75 3204
-2.3722613 -1.948645 -0.0077693253 403 38705030 380 33 60 3070
-2.2259958 -1.9673655 -0.035467114 389 38705030 344 34 86 2971
-2.0729361 -1.9694605 -0.061342575 452 38705030 370 35 83 2860
-2.5865803 -1.9703525 -0.096561052 427 38705030 452 36 141 3253
-2.4151485 -1.9809107 -0.12218102 442 38705030 432 37 59 3126
-2.2685168 -2.0032542 -0.14732814 465 38705030 426 38 165 3030
-2.1082377 -2.0030701 -0.16915596 448 38705030 381 39 79 2913
-2.5978801 -1.9757379 -0.21661104 493 38705030 528 40 84 3271
-2.4233241 -1.9857776 -0.2373877 456 38705030 450 41 97 3142
-2.2321525 -1.9700329 -0.25418657 428 38705030 382 42 119 2988
-2.0962157 -1.9894907 -0.27425572 495 38705030 417 43 55 2903
-2.6507082 -2.0144546 -0.34369799 488 38705030 547 44 102 3347
-2.4388523 -1.9968661 -0.35511991 417 38705030 420 45 70 3172
-2.2843239 -2.0139513 -0.37214121 437 38705030 412 46 99 3068
-2.1512921 -2.0407643 -0.39154246 461 38705030 412 47 123 2991
-2.6477127 -2.0086811 -0.46642691 449 38705030 506 48 90 3356
-2.4907472 -2.0375416 -0.48282537 218 38705030 230 49 40 3254
-2.2016399 -1.9390057 -0.46891481 72 38705030 63 50 53 2971
-1.9424745 -1.8416448 -0.45427221 92 38705030 67 51 52 2715
-2.0649393 -1.5636674 -0.4616611 67 38705030 47 52 90 2631
-1.9032837 -1.5553632 -0.46190718 81 38705030 51 53 73 2501
-1.8476057 -1.6261741 -0.48681852 118 38705030 74 54 55 2509
-1.7434355 -1.6529953 -0.50015622 119 38705030 71 55 48 2454
-1.920505 -1.4526082 -0.52238554 137 38705030 83 56 101 2464
-1.7731235 -1.4474484 -0.51897568 146 38705030 81 57 60 2347
-1.7204602 -1.5136805 -0.54296708 136 38705030 75 58 31 2355
-1.670337 -1.5834119 -0.56958067 169 38705030 95 59 61 2371
-1.8371375 -1.3861773 -0.59060603 161 38705030 91 60 37 2376
-1.7189876 -1.4008577 -0.59135836 310 38705030 163 61 41 2295
-1.6686544 -1.467533 -0.61609656 262 38705030 139 62 48 2306
-1.5592539 -1.4793503 -0.62001526 437 38705030 218 63 50 2237
-1.2286454 -0.92484677 0.48001042 43 38801390 11 0 54 1611
-1.2671105 -1.0316682 0.4904367 56 38801390 16 1 66 1706
-1.1963712 -1.0511904 0.46114987 41 38801390 11 2 33 1658
-1.2604191 -1.1945106 0.48507461 77 38801390 25 3 23 1803
-2.1302948 -1.6052413 0.7205655 230 38801390 176 4 65 2763
-1.9770639 -1.608271 0.66134143 204 38801390 141 5 42 2633
-1.8448412 -1.6197132 0.6115483 210 38801390 135 6 97 2530
-1.7191985 -1.6259997 0.56566006 281 38801390 166 7 89 2433
-2.4067714 -1.8142993 0.69456381 347 38801390 332 8 86 3093
-2.2987006 -1.8713781 0.65203214 383 38801390 353 9 87 3035
-1.8490357 -1.6216251 0.51630259 273 38801390 172 10 53 2513
-1.7296877 -1.633063 0.47619575 207 38801390 122 11 53 2426
-2.4425726 -1.841889 0.58695018 387 38801390 376 12 88 3115
-2.3210993 -1.8881315 0.54326755 398 38801390 369 13 72 3041
-2.1425364 -1.8783008 0.48929104 398 38801390 333 14 75 2891
-2.0079494 -1.8948525 0.44819966 436 38801390 341 15 60 2797
-2.5220633 -1.9017622 0.48673767 469 38801390 479 16 49 3196
-2.3545012 -1.9144152 0.43782997 415 38801390 390 17 84 3066
-2.1666636 -1.8973801 0.38775542 429 38801390 362 18 76 2906
-2.0413451 -1.9240111 0.35074332 427 38801390 342 19 80 2827
-2.5401695 -1.9153455 0.37175307 391 38801390 402 20 73 3203
-2.3641093 -1.9216107 0.32633755 411 38801390 386 21 91 3064
-2.2000129 -1.9247537 0.28501946 410 38801390 354 22 63 2937
-2.0517848 -1.9317553 0.24848187 444 38801390 355 23 128 2829
-2.5568273 -1.9271362 0.25636959 394 38801390 407 24 71 3212
-2.3761215 -1.9303417 0.21584591 398 38801390 375 25 69 3069
-2.2252023 -1.9466544 0.18015498 412 38801390 361 26 125 2962
-2.0625353 -1.9395695 0.14575352 421 38801390 338 27 88 2835
-2.5715156 -1.9362371 0.13992368 454 38801390 472 28 59 3222
-2.3875358 -1.9382315 0.10421911 363 38801390 343 29 48 3077
-2.2628689 -1.975844 0.074100308 391 38801390 353 30 42 3005
-2.0912507 -1.9651291 0.042876258 459 38801390 378 31 56 2870
-2.5883625 -1.9487097 0.022619285 414 38801390 435 32 79 3240
-2.4028118 -1.949172 -0.0078300629 407 38801390 390 33 63 3094
-2.3013017 -2.0089066 -0.036469884 417 38801390 390 34 81 3055
-2.1199741 -1.9895439 -0.062372103 456 38801390 386 35 69 2908
-2.5986214 -1.9544444 -0.096561052 407 38801390 431 36 120 3253
-2.4179399 -1.9585069 -0.12171199 425 38801390 412 37 53 3114
-2.2988312 -2.0050538 -0.14849509 468 38801390 436 38 142 3054
-2.1292241 -1.9982946 -0.16985279 426 38801390 365 39 68 2925
-2.6195292 -1.9669501 -0.21740571 487 38801390 525 40 80 3283
-2.4447644 -1.9783981 -0.23829433 440 38801390 438 41 93 3154
-2.2802498 -1.9877261 -0.25826991 462 38801390 426 42 127 3036
-2.1170988 -1.9847618 -0.2753894 446 38801390 379 43 59 2915
-2.6725667 -2.0053163 -0.34493026 492 38801390 555 44 91 3359
-2.4788768 -2.0043569 -0.35915026 427 38801390 439 45 51 3208
-2.3146043 -2.0155416 -0.37505239 445 38801390 426 46 112 3092
-2.1637735 -2.0275257 -0.39154246 433 38801390 387 47 118 2991
-2.7075443 -2.0280182 -0.47476587 486 38801390 568 48 74 3416
-2.5216649 -2.0371351 -0.48638645 374 38801390 401 49 49 3278
-2.2403171 -1.9487913 -0.47459671 104 38801390 94 50 44 3007
-1.8932908 -1.773082 -0.44021738 67 38801390 46 51 49 2631
-2.1123421 -1.5792637 -0.47008368 78 38801390 56 52 69 2679
-2.0229242 -1.6325345 -0.48850241 81 38801390 56 53 57 2645
-1.857549 -1.6148068 -0.48681852 114 38801390 72 54 61 2509
-1.7706949 -1.6583279 -0.50504774 132 38801390 81 55 44 2478
-1.929382 -1.4407969 -0.52238554 117 38801390 71 56 97 2464
-1.863971 -1.5026457 -0.54285699 130 38801390 78 57 52 2455
-1.7385294 -1.5107546 -0.54573381 140 38801390 78 58 40 2367
-1.697027 -1.589057 -0.57534623 172 38801390 99 59 73 2395
-1.873572 -1.3957102 -0.5995546 128 38801390 74 60 38 2412
-1.7185177 -1.3830143 -0.58826625 333 38801390 173 61 41 2283
-1.6601676 -1.4421 -0.60968447 312 38801390 162 62 39 2282
-1.559889 -1.4618709 -0.61668932 508 38801390 252 63 58 2225
-1.2986553 -0.96511942 0.50503892 35 38899110 10 0 42 1695
-1.3540317 -1.0886914 0.52148432 41 38899110 14 1 77 1814
-1.3333799 -1.1571527 0.51121438 38 38899110 13 2 37 1838
-1.2339751 -1.1551602 0.47216082 88 38899110 27 3 28 1755
-2.2237566 -1.6543732 0.74873084 230 38899110 190 4 68 2871
-2.0231164 -1.6252071 0.67339784 141 38899110 101 5 31 2681
-1.8811365 -1.6312487 0.62025017 162 38899110 107 6 86 2566
-1.7120862 -1.5994852 0.56008017 315 38899110 183 7 64 2409
-2.4460003 -1.8204422 0.70264798 327 38899110 320 8 83 3129
-2.3101397 -1.8572383 0.65203214 405 38899110 373 9 91 3035
-1.8767047 -1.6256275 0.5212335 271 38899110 174 10 47 2537
-1.7568856 -1.6384693 0.48090667 203 38899110 122 11 28 2450
-2.5389047 -1.8902061 0.60730022 169 38899110 176 12 104 3223
-2.3418458 -1.8812484 0.54541135 414 38899110 386 13 50 3053
-2.1987259 -1.9038279 0.49944586 430 38899110 375 14 90 2951
-2.0282025 -1.8905727 0.45012254 447 38899110 352 15 51 2809
-2.5241718 -1.8791691 0.48491013 346 38899110 351 16 34 3184
-2.3662035 -1.8999323 0.43782997 391 38899110 368 17 69 3066
-2.2052495 -1.90739 0.39255902 411 38899110 356 18 65 2942
-2.0618274 -1.9195632 0.35223216 422 38899110 341 19 65 2839
-2.5901163 -1.9281925 0.37732416 398 38899110 421 20 74 3251
-2.3944654 -1.9220065 0.32889372 412 38899110 393 21 65 3088
-2.2298555 -1.9268363 0.28734854 391 38899110 343 22 66 2961
-2.0811057 -1.9354105 0.25058988 450 38899110 367 23 83 2853
-2.5973928 -1.9328345 0.25924298 425 38899110 449 24 63 3248
-2.397258 -1.9232163 0.21668987 395 38899110 375 25 81 3081
-2.2552314 -1.9486262 0.1816147 404 38899110 360 26 102 2986
-2.1095195 -1.9595019 0.14822131 463 38899110 385 27 83 2883
-2.6025903 -1.934727 0.14096594 487 38899110 513 28 53 3246
-2.4274557 -1.9460503 0.10543844 352 38899110 341 29 29 3113
-2.293119 -1.9775913 0.074692123 385 38899110 353 30 30 3029
-2.1120634 -1.9604234 0.043055534 459 38899110 382 31 68 2882
-2.6387932 -1.9614251 0.022954384 411 38899110 445 32 90 3288
-2.4521883 -1.964402 -0.0079515371 385 38899110 381 33 70 3142
-2.3044972 -1.986913 -0.036326632 378 38899110 350 34 74 3043
-2.1321418 -1.9764986 -0.062372103 449 38899110 380 35 71 2908
-2.6587152 -1.9742168 -0.098342068 432 38899110 474 36 113 3313
-2.4767308 -1.9810836 -0.12405712 439 38899110 443 37 70 3174
-2.2929289 -1.9752651 -0.14732814 446 38899110 409 38 164 3030
-2.1502304 -1.9933366 -0.17054962 434 38899110 375 39 69 2937
-2.6700239 -1.9793626 -0.22058435 465 38899110 516 40 89 3331
-2.475553 -1.9783001 -0.24010761 414 38899110 418 41 89 3178
-2.3286467 -2.0049019 -0.26235321 451 38899110 429 42 126 3084
-2.1730638 -2.0123186 -0.28105778 468 38899110 415 43 67 2975
-2.694412 -1.9959852 -0.3461625 468 38899110 532 44 115 3371
-2.5097654 -2.0039902 -0.36183718 427 38899110 446 45 55 3232
-2.3359585 -2.0090685 -0.37650794 462 38899110 445 46 104 3104
-2.1849043 -2.0222921 -0.39311337 467 38899110 421 47 106 3003
-2.7486014 -2.0325639 -0.47976926 459 38899110 547 48 89 3452
-2.534117 -2.0216241 -0.48638645 400 38899110 429 49 53 3278
-2.2162807 -1.9041201 -0.46702081 77 38899110 67 50 56 2959
-1.9388738 -1.7935673 -0.44824871 87 38899110 63 51 68 2679
-2.0744677 -1.531194 -0.45955551 68 38899110 47 52 62 2619
-2.0052342 -1.5980411 -0.4818536 85 38899110 58 53 90 2609
-1.8584909 -1.5957102 -0.48449019 95 38899110 60 54 60 2497
-1.7894605 -1.6554097 -0.50749344 116 38899110 72 55 58 2490
-1.9193077 -1.4150131 -0.51729739 121 38899110 72 56 92 2440
-1.8548442 -1.4766026 -0.53755003 119 38899110 70 57 54 2431
-1.7566273 -1.5076636 -0.54850054 132 38899110 75 58 37 2379
-1.6639875 -1.5390664 -0.56093252 170 38899110 92 59 47 2335
-1.8914642 -1.3910743 -0.60253745 110 38899110 64 60 31 2424
-1.7360488 -1.3796576 -0.59135836 252 38899110 133 61 32 2295
-1.6602086 -1.4243568 -0.60647845 406 38899110 209 62 45 2270
-1.5349849 -1.4209421 -0.60338545 578 38899110 274 63 67 2177
-1.3599672 -0.99778986 0.52649188 32 38995770 10 0 57 1767
-1.3066789 -1.0374817 0.50078589 79 38995770 24 1 59 1742
-1.3667097 -1.1714534 0.5212273 35 38995770 12 2 46 1874
-1.2410398 -1.1475669 0.47216082 99 38995770 30 3 26 1755
-2.4672894 -1.8121392 0.82696819 233 38995770 235 4 78 3171
-2.05125 -1.6272001 0.67942595 181 38995770 132 5 35 2705
-1.8822663 -1.6121011 0.61734951 152 38995770 99 6 75 2554
-1.7733313 -1.6364403 0.57681984 267 38995770 165 7 60 2481
-2.4665475 -1.8123233 0.70534265 373 38995770 368 8 91 3141
-2.3582077 -1.872177 0.6623444 359 38995770 342 9 79 3083
-2.1811299 -1.8660234 0.60259277 294 38995770 253 10 71 2933
-1.7755604 -1.6356307 0.48326215 219 38995770 133 11 32 2462
-2.5504549 -1.8745922 0.60730022 296 38995770 308 12 107 3223
-2.3810947 -1.8888569 0.55184269 390 38995770 372 13 55 3089
-2.1923895 -1.8749274 0.49538392 400 38995770 343 14 93 2927
-2.0484786 -1.8861156 0.45204547 468 38995770 372 15 45 2821
-2.60255 -1.9128122 0.49770299 205 38995770 219 16 40 3268
-2.3778169 -1.8853778 0.43782997 392 38995770 369 17 74 3066
-2.2169116 -1.8938229 0.39255902 434 38995770 376 18 71 2942
-2.0910959 -1.922996 0.35520983 406 38995770 333 19 71 2863
-2.6018987 -1.9122635 0.37732416 410 38995770 434 20 74 3251
-2.4249148 -1.9221016 0.3314499 384 38995770 372 21 90 3112
-2.2507207 -1.9208709 0.28851306 399 38995770 353 22 62 2973
-2.092942 -1.9226047 0.25058988 409 38995770 333 23 118 2853
-2.6188433 -1.9239429 0.26020077 394 38995770 419 24 62 3260
-2.4277792 -1.9233373 0.21837783 425 38995770 410 25 64 3105
-2.2671454 -1.9347517 0.1816147 409 38995770 365 26 109 2986
-2.1215031 -1.9465213 0.14822131 435 38995770 362 27 94 2883
-2.633743 -1.9329078 0.1420082 480 38995770 514 28 62 3270
-2.4675603 -1.9534513 0.10665777 373 38995770 369 29 47 3149
-2.3052101 -1.9634838 0.074692123 379 38995770 347 30 39 3029
-2.1240525 -1.947427 0.043055534 448 38995770 373 31 63 2882
-2.6798017 -1.9664946 0.023205711 399 38995770 441 32 101 3324
-2.4736066 -1.9567634 -0.0079819057 390 38995770 388 33 66 3154
-2.3257809 -1.9805148 -0.036469884 386 38995770 360 34 103 3055
-2.1530774 -1.9714806 -0.062629484 418 38995770 357 35 77 2920
-2.6901264 -1.9720491 -0.099054478 417 38995770 464 36 112 3337
-2.4888399 -1.9658494 -0.12405712 408 38995770 412 37 69 3174
-2.332392 -1.9844598 -0.14907858 469 38995770 441 38 145 3066
-2.1889267 -2.0043764 -0.17264012 431 38995770 381 39 63 2973
-2.6917813 -1.970014 -0.22137901 495 38995770 553 40 89 3343
-2.5158248 -1.9853106 -0.24282752 461 38995770 476 41 86 3214
-2.3500135 -1.9983214 -0.26337403 462 38995770 443 42 142 3096
-2.1765552 -1.9908841 -0.27992409 476 38995770 418 43 62 2963
-2.7451482 -2.0076001 -0.35109156 501 38995770 586 44 100 3419
-2.550106 -2.0107024 -0.36586753 433 38995770 463 45 69 3268
-2.3936331 -2.0332546 -0.38378578 437 38995770 438 46 94 3164
-2.1972718 -2.0088477 -0.39311337 454 38995770 409 47 121 3003
-2.7610214 -2.0156605 -0.47976926 480 38995770 572 48 91 3452
-2.5837619 -2.0354116 -0.49350864 417 38995770 462 49 58 3326
-2.2188871 -1.8828187 -0.46512684 64 38995770 55 50 42 2947
-1.9585763 -1.7896173 -0.45025656 71 38995770 51 51 45 2691
-2.4179993 -1.7619429 -0.53325278 180 38995770 166 52 101 3039
-1.968662 -1.5492399 -0.47077224 86 38995770 56 53 94 2549
-1.868247 -1.5842766 -0.48449019 99 38995770 62 54 66 2497
-1.8082571 -1.6523235 -0.50993919 112 38995770 70 55 46 2502
-1.9184723 -1.3963088 -0.51475328 97 38995770 57 56 111 2428
-1.8270674 -1.4362634 -0.52693611 118 38995770 67 57 44 2383
-1.7391236 -1.4742057 -0.54020041 140 38995770 77 58 48 2343
-1.6733997 -1.5288274 -0.56093252 196 38995770 107 59 54 2335
-1.9563987 -1.4204159 -0.62043458 123 38995770 76 60 40 2496
-1.7627244 -1.3832955 -0.59754246 163 38995770 87 61 45 2319
-1.6336271 -1.3842405 -0.59365422 496 38995770 245 62 70 2222
-1.5692018 -1.4348381 -0.61336333 580 38995770 284 63 61 2213
-2.4700477 -1.7890309 0.951976 53 39092480 55 0 60 3195
-1.3672897 -1.0719932 0.52148432 47 39092480 16 1 71 1814
-1.7081759 -1.4460489 0.64805746 17 39092480 9 2 44 2330
-1.2992601 -1.1866969 0.49153152 88 39092480 29 3 41 1827
-2.487741 -1.8037663 0.83009762 326 39092480 331 4 72 3183
-2.0429077 -1.600258 0.67339784 278 39092480 200 5 41 2681
-1.8921225 -1.6005213 0.61734951 117 39092480 77 6 77 2554
-1.7833389 -1.6255286 0.57681984 218 39092480 134 7 70 2481
-2.4492247 -1.7765571 0.69725853 273 39092480 263 8 86 3105
-2.4342146 -1.9082865 0.68039072 274 39092480 275 9 65 3167
-2.2284207 -1.882924 0.61245447 409 39092480 363 10 50 2981
-1.8551868 -1.6880568 0.50210583 221 39092480 144 11 41 2558
-2.5046778 -1.8173807 0.59373355 326 39092480 324 12 97 3151
-2.4669981 -1.9324579 0.56899285 209 39092480 212 13 68 3185
-2.2490289 -1.8995972 0.5055387 401 39092480 358 14 74 2987
-2.0775387 -1.8894498 0.45589128 452 39092480 366 15 60 2845
-2.5662408 -1.8619821 0.48856524 365 39092480 375 16 55 3208
-2.4267468 -1.9000399 0.44468445 390 39092480 379 17 77 3114
-2.2466695 -1.8955225 0.39576137 392 39092480 345 18 62 2966
-2.0940418 -1.9021229 0.35372099 404 39092480 329 19 65 2851
-2.6232305 -1.9032621 0.37871695 317 39092480 338 20 72 3263
-2.4648507 -1.929249 0.33528414 370 39092480 367 21 76 3148
