# .PCD v0.7 - Point Cloud Data file format
VERSION 0.7
FIELDS x y z intensity t reflectivity ring noise range
SIZE 4 4 4 4 4 2 1 2 4
TYPE F F F F U U U U U
COUNT 1 1 1 1 1 1 1 1 1
WIDTH 784
HEIGHT 1
VIEWPOINT 0 0 0 1 0 0 0
POINTS 784
DATA ascii
1.0189184 -2.160691 -0.26913878 280 17673560 162 45 40 2404
1.1140993 -2.1550024 -0.29645148 325 17673560 194 46 63 2444
1.223081 -2.1682127 -0.32870716 232 17673560 146 47 82 2511
0.88513184 -2.0728376 -0.31632528 361 17673560 187 48 39 2276
1.0122333 -2.1489446 -0.35640642 306 17673560 176 49 34 2402
1.0795618 -2.0908794 -0.37611037 302 17673560 171 50 45 2383
1.1924641 -2.1153169 -0.41210771 259 17673560 157 51 42 2463
0.86228609 -2.0243239 -0.39217508 345 17673560 172 52 49 2235
0.9659676 -2.0534194 -0.42644686 342 17673560 182 53 53 2309
1.0097651 -1.9572065 -0.43559489 246 17673560 124 54 51 2245
1.168298 -2.0723641 -0.49526468 408 17673560 241 55 37 2430
0.85063547 -2.0000701 -0.47150385 332 17673560 164 56 75 2224
0.93840384 -1.99754 -0.50040132 344 17673560 176 57 30 2263
1.0288727 -1.9951824 -0.53190023 345 17673560 183 58 32 2307
1.1301003 -2.0050168 -0.56958067 408 17673560 229 59 44 2371
0.83473486 -1.9690735 -0.54884601 387 17673560 189 60 42 2208
0.92151076 -1.9658582 -0.5789901 407 17673560 205 61 26 2247
1.012805 -1.9649498 -0.61289054 362 17673560 190 62 35 2294
1.1128035 -1.972397 -0.65327495 368 17673560 204 63 30 2357
0.86166286 -2.0390847 0.6909647 29 17772570 15 0 40 2319
1.0388954 -2.2188499 0.7353676 27 17772570 17 1 36 2558
1.0930498 -2.1230497 0.69144666 23 17772570 14 2 22 2486
1.3063424 -2.3184197 0.74335068 38 17772570 29 3 20 2763
0.91761726 -2.1684363 0.63606918 37 17772570 22 4 52 2439
0.98127156 -2.0981617 0.60105962 17 17772570 10 5 12 2393
1.1814992 -2.2970133 0.64345515 63 17772570 44 6 55 2662
1.3082349 -2.3272839 0.63819844 61 17772570 46 7 40 2745
0.9152559 -2.1616998 0.54096484 139 17772570 80 8 42 2409
1.0033348 -2.1431928 0.52055156 114 17772570 67 9 12 2423
1.1130158 -2.1667526 0.51137173 70 17772570 43 10 35 2489
1.2271676 -2.187536 0.50210583 105 17772570 69 11 20 2558
0.96336466 -2.2743304 0.47389394 125 17772570 79 12 64 2515
1.0574856 -2.2611232 0.45322916 68 17772570 44 13 37 2537
1.1501623 -2.2401252 0.43242431 91 17772570 59 14 57 2555
1.2459062 -2.2222116 0.41358715 15 17772570 10 15 15 2581
0.90353823 -2.1331947 0.35698158 374 17772570 205 16 24 2344
1.0988673 -2.3509958 0.37442604 53 17772570 36 17 37 2622
1.238094 -2.4146006 0.36533874 19 17772570 14 18 30 2738
1.0329692 -1.8450564 0.26439124 9 17772570 4 19 34 2131
0.95718217 -2.2599542 0.28679422 353 17772570 215 20 55 2471
1.0774648 -2.30615 0.27265802 381 17772570 249 21 56 2560
1.120181 -2.1871779 0.23960267 14 17772570 8 22 25 2469
1.346151 -2.4075065 0.24321182 24 17772570 19 23 62 2769
0.9590193 -2.2655029 0.19698635 27 17772570 16 24 29 2468
1.0520649 -2.2533233 0.17533523 14 17772570 8 25 39 2493
1.2166027 -2.3756478 0.16263822 329 17772570 235 26 71 2674
1.2575957 -2.2522674 0.13279766 25 17772570 16 27 43 2583
0.95462525 -2.2581964 0.1065713 40 17772570 24 28 23 2454
1.1073629 -2.3739226 0.088774219 123 17772570 84 29 24 2621
1.1975973 -2.3439784 0.064927161 265 17772570 184 30 13 2633
1.228578 -2.2021945 0.037677325 108 17772570 68 31 42 2522
0.90165925 -2.133215 0.0161686 37 17772570 20 32 56 2316
1.0686855 -2.293201 -0.0064027342 152 17772570 97 33 32 2530
1.1766671 -2.3037081 -0.030883009 252 17772570 168 34 52 2587
1.1579241 -2.0787032 -0.051047318 91 17772570 51 35 42 2380
0.94261062 -2.2331433 -0.07198295 87 17772570 51 36 84 2425
1.0341644 -2.2233806 -0.095915623 265 17772570 159 37 34 2454
1.1467035 -2.2473679 -0.12282207 265 17772570 169 38 69 2526
1.2286608 -2.2055991 -0.14685732 45 17772570 29 39 24 2529
0.91829073 -2.1803052 -0.15701155 170 17772570 96 40 59 2371
1.0276291 -2.2119546 -0.18480277 297 17772570 178 41 75 2446
1.0971082 -2.1516523 -0.20620757 303 17772570 178 42 89 2424
1.1669304 -2.0974538 -0.22777489 39 17772570 22 43 35 2411
0.8884539 -2.1115234 -0.23649134 206 17772570 109 44 40 2303
0.99560183 -2.1452694 -0.26645187 301 17772570 170 45 27 2380
1.1008555 -2.1617978 -0.29645148 317 17772570 189 46 50 2444
1.209754 -2.1756766 -0.32870716 28 17772570 18 47 69 2511
0.86779696 -2.0672727 -0.31465748 309 17772570 158 48 46 2264
0.97906452 -2.1120486 -0.34928423 286 17772570 158 49 32 2354
1.1365429 -2.234772 -0.40073195 521 17772570 336 50 70 2539
1.1967018 -2.1536186 -0.4181312 72 17772570 45 51 27 2499
0.84528589 -2.0186794 -0.39006943 355 17772570 175 52 47 2223
0.95334983 -2.0593078 -0.42644686 351 17772570 187 53 34 2309
1.0404018 -2.0473223 -0.45422167 215 17772570 118 54 45 2341
1.1384408 -2.0486863 -0.48792744 397 17772570 227 55 36 2394
0.8338238 -1.9944321 -0.46895975 347 17772570 170 56 61 2212
0.94086242 -2.0351284 -0.50836176 347 17772570 183 57 29 2299
1.0113232 -1.991047 -0.5291335 324 17772570 170 58 25 2295
1.1121193 -2.0017307 -0.56669801 408 17772570 227 59 40 2359
0.82263714 -1.9741583 -0.54884601 376 17772570 183 60 29 2208
0.90457433 -1.9609468 -0.57589805 364 17772570 182 61 22 2235
0.99025953 -1.9505053 -0.60647845 347 17772570 179 62 25 2270
1.0894725 -1.9590349 -0.64662302 366 17772570 199 63 23 2333
0.85792303 -2.0654907 0.69811577 27 17868410 15 0 36 2343
1.0541192 -2.2878151 0.75606596 20 17868410 14 1 56 2630
1.0382968 -2.0474749 0.66474557 17 17868410 10 2 15 2390
1.3089272 -2.3567028 0.75303596 37 17868410 29 3 26 2799
0.88649797 -2.1312406 0.62355119 46 17868410 26 4 41 2391
0.96352297 -2.0935917 0.59804553 21 17868410 12 5 10 2381
1.1779076 -2.3249938 0.64925641 43 17868410 31 6 50 2686
1.3448391 -2.4271467 0.66330791 70 17868410 57 7 35 2853
0.89298868 -2.1456831 0.53557539 146 17868410 83 8 53 2385
0.97055018 -2.1067305 0.5102393 130 17868410 73 9 29 2375
1.0731905 -2.1211455 0.4990446 51 17868410 30 10 18 2429
1.2364972 -2.2362137 0.51152772 166 17868410 113 11 32 2606
0.9403317 -2.2584393 0.46937171 174 17868410 108 12 57 2491
1.0090383 -2.1924899 0.43822274 75 17868410 45 13 25 2453
1.1524074 -2.2788026 0.43851715 76 17868410 51 14 47 2591
1.2265183 -2.2194474 0.41166422 49 17868410 32 15 17 2569
0.87675661 -2.1058517 0.35149893 345 17868410 184 16 31 2308
1.064569 -2.3145325 0.36757153 68 17868410 45 17 46 2574
1.2178937 -2.411536 0.36373752 34 17868410 25 18 30 2726
0 -0 0 6 17868410 0 19 38 0
0.93413532 -2.243778 0.28400865 342 17868410 205 20 74 2447
1.0682784 -2.3235586 0.27393609 324 17868410 214 21 43 2572
1.1820463 -2.3432987 0.25590613 9 17868410 6 22 26 2637
1.3082747 -2.3738451 0.23899582 14 17868410 10 23 55 2721
0.95888627 -2.304476 0.19985974 67 17868410 42 24 24 2504
1.0732012 -2.3358767 0.18124305 37 17868410 24 25 28 2577
1.196609 -2.3723738 0.16190836 313 17868410 222 26 68 2662
1.2668649 -2.3019378 0.13526544 101 17868410 70 27 40 2631
0.95455194 -2.2972238 0.10813468 52 17868410 32 28 25 2490
1.0677601 -2.326174 0.086741999 134 17868410 88 29 23 2561
1.1777998 -2.3405666 0.064631246 278 17868410 191 30 22 2621
1.2901998 -2.3463736 0.040007886 94 17868410 67 31 31 2678
0.96221554 -2.3160093 0.017509002 30 17868410 19 32 34 2508
1.0545946 -2.2997153 -0.0064027342 152 17868410 97 33 33 2530
1.1463325 -2.2787268 -0.03045325 269 17868410 175 34 46 2551
1.2259815 -2.2329996 -0.054650657 36 17868410 23 35 40 2548
0.87832826 -2.1170161 -0.068064705 32 17868410 17 36 62 2293
1.0254928 -2.2405872 -0.096384645 263 17868410 160 37 44 2466
1.1382742 -2.2650712 -0.12340555 297 17868410 192 38 66 2538
1.2324013 -2.2445996 -0.14894782 57 17868410 37 39 34 2565
0.87741643 -2.1195197 -0.15224358 69 17868410 36 40 55 2299
1.0090626 -2.2073357 -0.18389612 282 17868410 167 41 49 2434
1.0999826 -2.1903982 -0.20927006 292 17868410 177 42 103 2460
1.1770142 -2.1464741 -0.23230961 137 17868410 83 43 12 2459
0.88916647 -2.1500268 -0.24018812 151 17868410 83 44 61 2339
0.99232668 -2.173032 -0.26913878 306 17868410 177 45 34 2404
1.0875702 -2.1685119 -0.29645148 319 17868410 191 46 60 2444
1.2078165 -2.2039239 -0.33184892 76 17868410 49 47 54 2535
0.85962832 -2.0835435 -0.31632528 246 17868410 127 48 37 2276
0.97593641 -2.1396103 -0.35284531 295 17868410 167 49 41 2378
1.0644356 -2.1251597 -0.37989831 338 17868410 196 50 61 2407
1.1152699 -2.036402 -0.39403719 31 17868410 17 51 29 2355
0.83737963 -2.0347531 -0.39217508 339 17868410 169 52 56 2235
0.94069624 -2.0651186 -0.42644686 357 17868410 190 53 39 2309
1.0647005 -2.1273575 -0.47052011 115 17868410 67 54 31 2425
1.1202056 -2.0453293 -0.48548171 387 17868410 219 55 31 2382
0.81711346 -1.9886634 -0.46641564 338 17868410 164 56 68 2200
0.91866601 -2.019558 -0.5030548 324 17868410 167 57 46 2275
1.0043113 -2.007658 -0.53190023 334 17868410 178 58 36 2307
1.099816 -2.0085168 -0.56669801 386 17868410 215 59 46 2359
0.81050843 -1.9791688 -0.54884601 360 17868410 175 60 43 2208
0.88773304 -1.955902 -0.57280594 344 17868410 170 61 39 2223
0.97310132 -1.9462017 -0.60327238 350 17868410 178 62 34 2258
1.0829735 -1.9757935 -0.64994895 343 17868410 188 63 25 2345
0.9707737 -2.3782744 0.8018052 30 17968190 22 0 34 2691
0.94515109 -2.0848796 0.68707132 34 17968190 19 1 37 2390
1.1081146 -2.2187991 0.71814775 27 17968190 18 2 19 2582
1.2389462 -2.2633097 0.72075146 39 17968190 28 3 30 2679
0.83833659 -2.0508525 0.59851527 55 17968190 29 4 47 2295
0.9458676 -2.0888834 0.5950315 26 17968190 15 5 14 2369
1.1428251 -2.2905004 0.63765389 43 17968190 30 6 44 2638
1.2907646 -2.3636491 0.64377832 77 17968190 59 7 35 2769
0.8886596 -2.1727686 0.54096484 129 17968190 75 8 46 2409
0.96244371 -2.1233206 0.51281738 125 17968190 71 9 26 2387
1.0811051 -2.1697364 0.50890636 117 17968190 72 10 27 2477
1.2227527 -2.2437584 0.51152772 139 17968190 94 11 33 2606
0.92199337 -2.2532592 0.46711054 158 17968190 97 12 57 2479
1.0442693 -2.3061969 0.45966047 100 17968190 66 13 43 2573
1.1278584 -2.2646575 0.43445528 80 17968190 52 14 42 2567
1.2468696 -2.2893443 0.42320171 83 17968190 58 15 15 2641
0.8728013 -2.1331451 0.35515401 373 17968190 203 16 29 2332
1.0552441 -2.3318417 0.36928517 143 17968190 95 17 40 2586
1.1871859 -2.3870182 0.35893396 44 17968190 32 18 32 2690
0.92491668 -1.7006875 0.2420588 11 17968190 4 19 26 1951
0.91132349 -2.2274048 0.28122315 353 17968190 208 20 61 2423
1.0490837 -2.3191986 0.27265802 94 17968190 61 21 43 2560
1.1463917 -2.3077223 0.251248 24 17968190 16 22 29 2589
1.3393272 -2.4658613 0.24742785 25 17968190 20 23 76 2817
0.93567324 -2.2881725 0.19794413 115 17968190 71 24 31 2480
0.96023607 -2.1242647 0.16436359 17 17968190 9 25 39 2337
1.1553876 -2.326035 0.15825903 345 17968190 234 26 62 2602
1.2184348 -2.2464614 0.13156377 218 17968190 142 27 51 2559
0.96763182 -2.3696315 0.11126147 91 17968190 60 28 21 2562
1.0534668 -2.3326819 0.086741999 97 17968190 64 29 12 2561
1.152763 -2.3262515 0.064039432 319 17968190 215 30 20 2597
1.2643449 -2.3331473 0.039649334 286 17968190 201 31 36 2654
0.89809263 -2.1996663 0.016587475 21 17968190 12 32 43 2376
1.050334 -2.3280191 -0.0064634713 151 17968190 98 33 32 2554
1.1216758 -2.2642136 -0.030166743 294 17968190 187 34 54 2527
1.240803 -2.2932386 -0.055937562 254 17968190 172 35 37 2608
0.94230658 -2.3111846 -0.074120179 19 17968190 12 36 72 2497
1.0166488 -2.257771 -0.096853666 172 17968190 105 37 31 2478
1.1296707 -2.2827554 -0.12398903 287 17968190 187 38 78 2550
1.2243065 -2.2626555 -0.14964466 121 17968190 80 39 38 2577
0.85537112 -2.1026814 -0.15065427 35 17968190 18 40 48 2275
0.9709599 -2.1589215 -0.17936295 281 17968190 158 41 52 2374
1.0865219 -2.1971064 -0.20927006 292 17968190 177 42 77 2460
1.214937 -2.248245 -0.24251272 69 17968190 45 43 32 2567
0.83101726 -2.0448592 -0.2278655 36 17968190 18 44 54 2219
0.95942765 -2.135571 -0.26376498 308 17968190 171 45 37 2356
1.0689695 -2.1644645 -0.29499593 320 17968190 190 46 76 2432
1.1603506 -2.1484876 -0.32242364 133 17968190 81 47 68 2463
0.842363 -2.0777662 -0.31465748 117 17968190 60 48 43 2264
0.9433558 -2.1022503 -0.34572315 294 17968190 159 49 32 2330
1.0408926 -2.1103964 -0.37611037 310 17968190 176 50 32 2383
1.1252304 -2.0848517 -0.40206856 152 17968190 88 51 26 2403
0.83816546 -2.0727096 -0.39849198 388 17968190 200 52 75 2271
0.91353846 -2.0385647 -0.41979805 328 17968190 169 53 50 2273
1.0099957 -2.049376 -0.4518933 330 17968190 179 54 52 2329
1.1132146 -2.0625024 -0.48792744 345 17968190 198 55 21 2394
0.80050558 -1.9827654 -0.4638716 343 17968190 164 56 67 2188
0.89191616 -1.9931103 -0.49509439 333 17968190 167 57 42 2239
0.9919737 -2.0137825 -0.53190023 360 17968190 191 58 36 2307
1.0764074 -1.9947248 -0.56093252 406 17968190 221 59 46 2335
0.7983492 -1.9841046 -0.54884601 391 17968190 191 60 30 2208
0.86626077 -1.9401375 -0.56662184 345 17968190 167 61 28 2199
0.97135717 -1.9728848 -0.60968447 317 17968190 165 62 25 2282
1.0653502 -1.972257 -0.64662302 343 17968190 187 63 30 2333
0.90499669 -2.2566042 0.75889921 25 18063680 16 0 45 2547
0.90425342 -2.027658 0.66637295 32 18063680 17 1 52 2318
1.1453462 -2.3289909 0.75152409 44 18063680 32 2 15 2702
1.2469847 -2.3115568 0.73366529 59 18063680 44 3 16 2727
0.8171019 -2.0344579 0.59225631 111 18063680 57 4 45 2271
0.93303263 -2.0946479 0.5950315 41 18063680 23 5 10 2369
1.1236149 -2.2870188 0.63475329 32 18063680 22 6 55 2626
1.2541139 -2.330415 0.63261861 56 18063680 41 7 29 2721
0.86223036 -2.1456296 0.53288066 132 18063680 74 8 42 2373
0.96848851 -2.1720016 0.52312958 134 18063680 79 9 20 2435
1.0729444 -2.1868722 0.51137173 97 18063680 60 10 19 2489
1.1755604 -2.1890211 0.49739492 112 18063680 72 11 22 2534
0.8553977 -2.1276608 0.43997705 468 18063680 255 12 60 2335
1.001274 -2.2478487 0.44679785 116 18063680 72 13 30 2501
1.1451857 -2.335248 0.446641 59 18063680 41 14 44 2639
1.2047914 -2.2447684 0.41358715 66 18063680 44 15 32 2581
0.86412001 -2.1494644 0.35698158 368 18063680 202 16 38 2344
0.9636324 -2.1646652 0.34186724 316 18063680 181 17 29 2394
1.1411337 -2.3301735 0.34932679 47 18063680 32 18 25 2618
1.1675705 -2.1786108 0.30905613 14 18063680 8 19 39 2491
0.91542161 -2.27719 0.28679422 347 18063680 212 20 58 2471
1.0154305 -2.281987 0.26754567 25 18063680 16 21 45 2512
1.1322103 -2.314713 0.251248 21 18063680 14 22 34 2589
1.2846862 -2.4002597 0.24004981 123 18063680 92 23 47 2733
0.96175057 -2.3937652 0.20656429 55 18063680 37 24 44 2588
1.0493191 -2.3598084 0.18208702 77 18063680 51 25 28 2589
1.135831 -2.3223207 0.15752916 244 18063680 164 26 63 2590
1.2385212 -2.3173108 0.13526544 52 18063680 36 27 36 2631
0.95753795 -2.3866508 0.1117826 171 18063680 113 28 27 2574
1.0293959 -2.3171816 0.085929111 15 18063680 10 29 16 2537
1.1542493 -2.3656251 0.064927161 256 18063680 177 30 25 2633
1.2330496 -2.3091087 0.039111514 291 18063680 199 31 41 2618
0.92478698 -2.3053689 0.017341452 119 18063680 73 32 33 2484
1.0214263 -2.3015151 -0.0063723652 136 18063680 86 33 37 2518
1.1130222 -2.2818379 -0.030309994 252 18063680 162 34 38 2539
1.21542 -2.2796357 -0.055422802 304 18063680 203 35 34 2584
0.91472685 -2.2835193 -0.073051564 23 18063680 14 36 70 2461
1.0076321 -2.2749298 -0.097322688 153 18063680 95 37 34 2490
1.1051425 -2.2680941 -0.12282207 294 18063680 188 38 88 2526
1.1991274 -2.2489831 -0.148251 297 18063680 193 39 39 2553
0.86022812 -2.1523645 -0.15383291 31 18063680 17 40 44 2323
0.97705841 -2.2086096 -0.18298951 233 18063680 137 41 67 2422
1.067786 -2.192982 -0.20824924 317 18063680 190 42 91 2448
1.1562001 -2.1713009 -0.23344329 341 18063680 208 43 34 2471
0.85386318 -2.1386049 -0.23772359 25 18063680 13 44 56 2315
0.9511258 -2.1523247 -0.26510841 322 18063680 180 45 42 2368
1.0556685 -2.1709828 -0.29499593 314 18063680 186 46 55 2432
1.1639129 -2.1870735 -0.32713628 227 18063680 142 47 73 2499
0.83399528 -2.0939355 -0.31632528 42 18063680 22 48 43 2276
0.92564684 -2.0971422 -0.34394258 285 18063680 153 49 23 2318
1.0279239 -2.1167436 -0.37611037 313 18063680 178 50 24 2383
1.1068616 -2.0812712 -0.40006071 107 18063680 61 51 32 2391
0.81670862 -2.055855 -0.39428073 327 18063680 165 52 63 2247
0.90576971 -2.0549235 -0.42201436 326 18063680 170 53 41 2285
0.99740195 -2.0555346 -0.4518933 342 18063680 185 54 37 2329
1.0784725 -2.0278046 -0.47814447 193 18063680 106 55 37 2346
0.78832453 -1.9876399 -0.4638716 354 18063680 170 56 76 2188
0.88438451 -2.0092568 -0.49774787 306 18063680 155 57 44 2251
0.96431231 -1.9883125 -0.5236001 335 18063680 173 58 41 2271
1.0532101 -1.980722 -0.55516702 397 18063680 212 59 44 2311
0.78188735 -1.9781562 -0.54586315 383 18063680 185 60 41 2196
0.85900217 -1.9560325 -0.56971389 347 18063680 170 61 22 2211
0.93905681 -1.9371853 -0.59686029 323 18063680 161 62 29 2234
1.0532286 -1.9787567 -0.64662302 346 18063680 188 63 24 2333
0.80716324 -2.048959 0.68738925 28 18162270 15 0 40 2307
0.93334538 -2.1278975 0.69742054 27 18162270 16 1 56 2426
1.0456415 -2.1596096 0.69478434 28 18162270 17 2 17 2498
1.2327777 -2.3191645 0.73366529 171 18162270 127 3 26 2727
0.82586098 -2.0933151 0.60790372 126 18162270 68 4 35 2331
0.91084045 -2.0790551 0.58900326 33 18162270 18 5 16 2345
1.1247718 -2.3253169 0.64345515 28 18162270 20 6 48 2662
1.2835324 -2.4205558 0.6549381 75 18162270 59 7 37 2817
0.86622298 -2.1943867 0.54365951 142 18162270 83 8 37 2421
0.95043606 -2.1671703 0.52055156 152 18162270 89 9 22 2423
1.0390735 -2.1511152 0.50151002 123 18162270 73 10 16 2441
1.1235837 -2.1233909 0.48090667 122 18162270 73 11 20 2450
0.82933992 -2.0999856 0.43319368 382 18162270 202 12 71 2299
0.98746252 -2.2539501 0.44679785 131 18162270 82 13 25 2501
1.0896984 -2.2570267 0.43039337 84 18162270 54 14 49 2543
1.1688458 -2.2102349 0.4058955 97 18162270 62 15 35 2533
0.8552711 -2.1657572 0.35880914 383 18162270 213 16 33 2356
0.94080502 -2.1487775 0.33844 389 18162270 218 17 50 2370
1.1371444 -2.358557 0.3525292 60 18162270 42 18 34 2642
1.1375005 -2.1541457 0.30458963 20 18162270 12 19 40 2455
0.9014318 -2.282764 0.28679422 353 18162270 215 20 57 2471
1.0109769 -2.3100362 0.27010185 49 18162270 31 21 40 2536
1.159441 -2.407702 0.26056427 15 18162270 11 22 33 2685
1.2197504 -2.3129365 0.23056377 343 18162270 237 23 63 2625
0.94265342 -2.3884947 0.20560651 255 18162270 169 24 29 2576
1.0108379 -2.3113656 0.17786714 93 18162270 59 25 30 2529
1.1371493 -2.3616219 0.15971877 33 18162270 23 26 61 2626
1.2521989 -2.3778853 0.13835017 182 18162270 131 27 40 2691
0.93847996 -2.3813274 0.11126147 249 18162270 163 28 38 2562
0.97674501 -2.2355347 0.082677558 17 18162270 10 29 13 2441
1.134518 -2.3618495 0.064631246 156 18162270 107 30 20 2621
1.2132713 -2.3060126 0.038932241 164 18162270 111 31 30 2606
0.93701899 -2.3779852 0.017844103 150 18162270 98 32 44 2556
0.99768454 -2.2857435 -0.006311628 150 18162270 93 33 39 2494
1.1041944 -2.2994411 -0.03045325 275 18162270 179 34 61 2551
1.1958301 -2.2764294 -0.055165417 292 18162270 193 35 46 2572
0.88752264 -2.2556038 -0.07198295 161 18162270 95 36 82 2425
0.95055634 -2.182132 -0.093101472 142 18162270 80 37 42 2382
1.0808372 -2.2532189 -0.12165511 266 18162270 167 38 74 2502
1.1741626 -2.2350876 -0.14685732 311 18162270 199 39 39 2529
0.88638389 -2.2579126 -0.16098486 45 18162270 26 40 42 2431
0.97780931 -2.2474799 -0.18570942 195 18162270 118 41 62 2458
1.0491418 -2.1887107 -0.20722841 287 18162270 170 42 92 2436
1.1428554 -2.1783543 -0.23344329 343 18162270 209 43 44 2471
0.85815674 -2.1882541 -0.24265264 23 18162270 13 44 50 2363
0.93314868 -2.1471839 -0.26376498 265 18162270 147 45 28 2356
1.0320415 -2.1559317 -0.29208478 296 18162270 171 46 51 2408
1.1338979 -2.162565 -0.32242364 317 18162270 192 47 76 2463
0.78216743 -1.9994119 -0.30131513 34 18162270 16 48 42 2168
0.91748691 -2.1136684 -0.34572315 184 18162270 100 49 21 2330
1.0046949 -2.1016295 -0.37232247 244 18162270 136 50 26 2359
1.0940703 -2.0880237 -0.40006071 259 18162270 148 51 29 2391
0.79119635 -2.0278103 -0.3879638 319 18162270 156 52 59 2211
0.88845336 -2.0496218 -0.41979805 311 18162270 160 53 48 2273
0.97969681 -2.0509937 -0.44956499 333 18162270 179 54 53 2317
1.0496516 -2.0031657 -0.47080719 129 18162270 69 55 26 2310
0.77611375 -1.9924396 -0.4638716 352 18162270 169 56 62 2188
0.87203932 -2.0146453 -0.49774787 317 18162270 160 57 55 2251
0.97221756 -2.0363412 -0.53466696 349 18162270 187 58 57 2319
1.0572537 -2.0181022 -0.56381524 391 18162270 215 59 35 2347
0.7613225 -1.9612454 -0.53989744 421 18162270 199 60 39 2172
0.83779013 -1.939977 -0.56352973 343 18162270 164 61 31 2187
0.93711323 -1.9637835 -0.60327238 326 18162270 166 62 27 2258
1.0464221 -1.9953928 -0.64994895 361 18162270 198 63 26 2345
0.79457587 -2.0538731 0.68738925 27 18260160 14 0 32 2307
0.94303143 -2.1863523 0.71466917 28 18260160 17 1 40 2486
1.022452 -2.1451747 0.6881091 18 18260160 11 2 24 2474
1.170266 -2.2345393 0.70460922 39 18260160 27 3 22 2619
0.80044508 -2.0659363 0.59851527 100 18260160 53 4 60 2295
0.91185343 -2.1166072 0.59804553 90 18260160 51 5 18 2381
1.0554175 -2.2165296 0.6115483 44 18260160 28 6 42 2530
1.1875917 -2.2732174 0.61308903 71 18260160 49 7 44 2637
0.86119568 -2.2214665 0.54904902 124 18260160 74 8 53 2445
0.92319727 -2.1406763 0.51281738 142 18260160 81 9 13 2387
1.0157685 -2.1362379 0.49657914 122 18260160 71 10 23 2417
1.1322911 -2.1719806 0.49032852 117 18260160 73 11 22 2498
0.80365443 -2.072072 0.42641032 390 18260160 200 12 79 2263
0.98295689 -2.2816536 0.45108536 124 18260160 79 13 32 2525
1.0859824 -2.2850339 0.43445528 60 18260160 39 14 51 2567
1.2154652 -2.3329167 0.42704758 74 18260160 52 15 28 2665
0.83767772 -2.1599066 0.35698158 364 18260160 200 16 30 2344
0.92760265 -2.1545098 0.33844 345 18260160 194 17 34 2370
1.1277503 -2.3762338 0.35413039 95 18260160 67 18 31 2654
1.146243 -2.2033379 0.31054494 26 18260160 16 19 41 2503
0.89171755 -2.2993646 0.28818697 330 18260160 204 20 78 2483
0.96376735 -2.2394764 0.26115525 52 18260160 31 21 41 2452
1.0781412 -2.2744713 0.24542533 54 18260160 34 22 23 2529
1.1945134 -2.2991621 0.22845575 68 18260160 46 23 66 2601
0.91933429 -2.3719273 0.2036909 368 18260160 240 24 31 2552
0.9493466 -2.2075591 0.16942744 65 18260160 37 25 46 2409
1.0969869 -2.3144372 0.15606944 24 18260160 16 26 60 2566
1.2265474 -2.3642483 0.13711628 309 18260160 219 27 50 2667
0.89356059 -2.3087776 0.10761356 370 18260160 227 28 38 2478
0.99614882 -2.31862 0.085522667 13 18260160 8 29 20 2525
1.1046212 -2.3362308 0.063743524 115 18260160 77 30 22 2585
1.2211851 -2.3560245 0.039649334 312 18260160 219 31 52 2654
0.89209628 -2.3053527 0.017257676 144 18260160 88 32 42 2472
0.99310631 -2.3138764 -0.0063723652 125 18260160 79 33 38 2518
1.0951922 -2.3170214 -0.030596504 269 18260160 177 34 42 2563
1.1763258 -2.2730691 -0.054908041 296 18260160 194 35 43 2560
0.87366581 -2.2610071 -0.07198295 142 18260160 83 36 57 2425
0.96075487 -2.2430348 -0.095446594 130 18260160 77 37 34 2442
1.051639 -2.2272933 -0.11990468 274 18260160 167 38 61 2466
1.1549202 -2.2316108 -0.1461605 311 18260160 197 39 39 2517
0.84667128 -2.1962755 -0.1562169 200 18260160 111 40 54 2359
0.92635053 -2.1654267 -0.17845632 144 18260160 80 41 55 2362
1.0356923 -2.195107 -0.20722841 299 18260160 178 42 87 2436
1.1404378 -2.2065511 -0.23571065 331 18260160 206 43 45 2495
0.84900337 -2.2046175 -0.24388488 124 18260160 70 44 58 2375
0.91058481 -2.1309383 -0.26107806 238 18260160 129 45 22 2332
1.0187936 -2.1622236 -0.29208478 291 18260160 169 46 72 2408
1.0933088 -2.1166322 -0.31456923 303 18260160 175 47 62 2403
0.82954353 -2.1594787 -0.32466426 39 18260160 21 48 32 2336
0.85791665 -2.0101118 -0.32791764 61 18260160 30 49 39 2210
0.96655512 -2.0541446 -0.3628526 87 18260160 46 50 29 2299
1.0703849 -2.0736716 -0.39604506 90 18260160 50 51 35 2367
0.76183283 -1.988499 -0.37954125 319 18260160 149 52 49 2163
0.87123644 -2.0441854 -0.41758183 330 18260160 169 53 42 2261
0.96208495 -2.046313 -0.44723663 332 18260160 176 54 48 2305
1.0103966 -1.9573718 -0.45857841 169 18260160 85 55 34 2250
0.75968426 -1.9862108 -0.46132749 338 18260160 160 56 85 2176
0.8550784 -2.0091898 -0.49509439 329 18260160 165 57 44 2239
0.95970452 -2.0422683 -0.53466696 347 18260160 186 58 37 2319
1.0341666 -2.0038488 -0.5580498 396 18260160 213 59 40 2323
0.74099487 -1.9441572 -0.53393167 381 18260160 176 60 35 2148
0.834934 -1.9664265 -0.56971389 350 18260160 171 61 31 2211
0.91521388 -1.9485631 -0.59686029 340 18260160 170 62 32 2234
1.0235748 -1.9812888 -0.64329708 325 18260160 175 63 25 2321
0.83076745 -2.187212 0.73029524 27 18355390 16 0 33 2451
0.85780329 -2.0227964 0.65947354 31 18355390 16 1 57 2294
1.12676 -2.4018548 0.76821226 41 18355390 31 2 12 2762
1.1035419 -2.1389661 0.67232472 20 18355390 12 3 27 2499
0.80834854 -2.1249475 0.61416268 118 18355390 65 4 47 2355
0.88525867 -2.090076 0.58900326 110 18355390 60 5 18 2345
1.0417973 -2.2229638 0.6115483 48 18355390 30 6 49 2530
1.2003247 -2.3323491 0.62703866 52 18355390 38 7 26 2697
0.83506954 -2.193923 0.54096484 120 18355390 69 8 49 2409
0.91461998 -2.1570907 0.51539546 139 18355390 80 9 30 2399
1.0175756 -2.1743407 0.50397545 118 18355390 71 10 30 2453
1.1350684 -2.2102883 0.49739492 135 18355390 87 11 23 2534
0.79092526 -2.0769641 0.42641032 391 18355390 200 12 72 2263
0.93670452 -2.2115383 0.436079 150 18355390 89 13 26 2441
1.0318531 -2.2059519 0.41820762 35 18355390 21 14 37 2471
1.2011278 -2.3403308 0.42704758 65 18355390 46 15 21 2665
0.82440901 -2.1650059 0.35698158 383 18355390 210 16 34 2344
0.91436541 -2.1601608 0.33844 330 18355390 185 17 52 2370
1.0829502 -2.3184578 0.34452322 87 18355390 58 18 19 2582
1.1435629 -2.2315235 0.31352261 17 18355390 11 19 27 2527
0.86910963 -2.2825153 0.28540143 364 18355390 220 20 66 2459
0.96860516 -2.2893023 0.26626757 80 18355390 50 21 39 2500
1.099511 -2.3568079 0.25357708 13 18355390 9 22 35 2613
1.104142 -2.1574736 0.21369967 17 18355390 10 23 67 2433
0.89625442 -2.3551643 0.20177531 330 18355390 211 24 32 2528
0.94044483 -2.2243679 0.1702714 65 18355390 38 25 41 2421
1.0827651 -2.3211246 0.15606944 17 18355390 11 26 49 2566
1.2229244 -2.3930728 0.13835017 289 18355390 209 27 56 2691
0.86660194 -2.2805963 0.10605016 364 18355390 217 28 38 2442
1.028568 -2.435169 0.089587115 23 18355390 16 29 6 2645
1.0902655 -2.3429646 0.063743524 96 18355390 64 30 18 2585
1.1848816 -2.3207276 0.038932241 349 18355390 237 31 33 2606
0.89071959 -2.3444352 0.017509002 133 18355390 83 32 53 2508
0.91824389 -2.176198 -0.0059775724 23 18355390 13 33 34 2362
1.0708325 -2.3019383 -0.030309994 152 18355390 98 34 41 2539
1.1678048 -2.2909327 -0.055165417 300 18355390 199 35 71 2572
0.86828518 -2.2887547 -0.07269536 145 18355390 87 36 66 2449
0.93766695 -2.2267857 -0.094508544 100 18355390 58 37 36 2418
1.0379528 -2.2337039 -0.11990468 259 18355390 158 38 74 2466
1.1248832 -2.2066362 -0.14407001 288 18355390 177 39 33 2481
0.8331793 -2.2014291 -0.1562169 190 18355390 105 40 52 2359
0.89913023 -2.13798 -0.17573641 133 18355390 72 41 40 2326
1.0171684 -2.1905758 -0.20620757 314 18355390 185 42 90 2424
1.1160376 -2.192215 -0.23344329 323 18355390 197 43 31 2471
0.8227964 -2.17629 -0.24018812 193 18355390 106 44 62 2339
0.89749247 -2.1364853 -0.26107806 184 18355390 100 45 32 2332
0.98045307 -2.1144032 -0.28480691 308 18355390 170 46 47 2348
1.0964851 -2.1551106 -0.31928188 326 18355390 194 47 62 2439
0.79111832 -2.0978129 -0.31465748 82 18355390 42 48 40 2264
0.87770593 -2.0919392 -0.3403815 42 18355390 22 49 29 2294
0.95891213 -2.0707893 -0.36474657 48 18355390 25 50 32 2311
1.0040216 -1.9747404 -0.37596673 62 18355390 31 51 30 2247
0.74545854 -1.9820784 -0.37743559 197 18355390 91 52 51 2151
0.86779183 -2.0712476 -0.42201436 320 18355390 167 53 53 2285
0.94951093 -2.0521779 -0.44723663 353 18355390 188 54 62 2305
1.0356399 -2.03684 -0.47569868 121 18355390 66 55 33 2334
0.75160503 -2.0018137 -0.4638716 367 18355390 176 56 62 2188
0.8337009 -1.9928063 -0.48978746 323 18355390 158 57 35 2215
0.93245178 -2.0163236 -0.52636677 351 18355390 183 58 41 2283
1.0112945 -1.9893886 -0.5522843 369 18355390 195 59 41 2299
0.73312473 -1.9595538 -0.53691459 405 18355390 189 60 28 2160
0.8139205 -1.950112 -0.56352973 375 18355390 179 61 27 2187
0.9032405 -1.9541421 -0.59686029 323 18355390 161 62 37 2234
0.99048203 -1.9464283 -0.62999314 337 18355390 174 63 26 2273
0.75730699 -2.0312693 0.67666274 34 18453900 17 0 30 2271
0.97361904 -2.3356726 0.7595157 30 18453900 21 1 56 2642
1.0250381 -2.220351 0.70813483 47 18453900 30 2 25 2546
1.0903966 -2.1456971 0.67232472 36 18453900 22 3 19 2499
0.81150472 -2.1732788 0.62668073 72 18453900 41 4 49 2403
0.87241757 -2.0954685 0.58900326 140 18453900 77 5 24 2345
0.98912543 -2.1447237 0.58834326 32 18453900 19 6 63 2434
1.1648834 -2.2980299 0.61587894 54 18453900 38 7 37 2649
0.81340694 -2.1770976 0.53557539 115 18453900 65 8 42 2385
0.91940188 -2.2059331 0.5257076 131 18453900 78 9 21 2447
1.0091275 -2.1912107 0.50644088 147 18453900 89 10 23 2465
1.1161741 -2.2067115 0.49503943 88 18453900 56 11 17 2522
0.76991367 -2.0597003 0.42188808 359 18453900 180 12 80 2239
0.90496486 -2.1736441 0.42750388 318 18453900 182 13 36 2393
1.0628049 -2.3089321 0.43648624 25 18453900 16 14 48 2579
1.1600266 -2.2948012 0.41743296 106 18453900 72 15 21 2605
0.81110924 -2.1700237 0.35698158 396 18453900 218 16 26 2344
0.91021866 -2.1876621 0.34186724 366 18453900 210 17 51 2394
1.0687041 -2.3250589 0.34452322 117 18453900 78 18 18 2582
1.1674062 -2.3129082 0.32394439 89 18453900 61 19 28 2611
0.85926086 -2.2989697 0.28679422 379 18453900 232 20 61 2471
0.95454007 -2.2952025 0.26626757 257 18453900 160 21 46 2500
1.1049608 -2.4069269 0.25823519 10 18453900 7 22 33 2661
1.1177853 -2.2175791 0.21896969 13 18453900 8 23 62 2493
0.88597226 -2.371825 0.20273311 350 18453900 226 24 48 2540
0.96352828 -2.3185267 0.17702319 43 18453900 27 25 48 2517
1.0285273 -2.240639 0.15023051 16 18453900 10 26 78 2470
1.1866664 -2.3577125 0.13588239 304 18453900 212 27 57 2643
0.85259211 -2.2858708 0.10605016 365 18453900 218 28 41 2442
0.97221941 -2.3417463 0.085929111 30 18453900 19 29 10 2537
1.0858576 -2.3714249 0.064335346 90 18453900 61 30 15 2609
1.1544483 -2.2957952 0.038394421 316 18453900 209 31 34 2570
0.85116017 -2.2823966 0.017006351 313 18453900 185 32 54 2436
0.89108223 -2.1485379 -0.0058864662 41 18453900 22 33 40 2326
1.0317169 -2.2539134 -0.029593728 124 18453900 76 34 45 2479
1.153726 -2.2980552 -0.055165417 307 18453900 203 35 26 2572
0.85422528 -2.2940392 -0.07269536 143 18453900 86 36 73 2449
0.91022938 -2.1992588 -0.093101472 30 18453900 17 37 34 2382
1.0391797 -2.2727318 -0.12165511 249 18453900 156 38 66 2502
1.1166974 -2.2242029 -0.14476684 288 18453900 179 39 44 2493
0.81548631 -2.1952758 -0.15542224 299 18453900 165 40 33 2347
0.88142395 -2.1323984 -0.17482977 71 18453900 38 41 44 2314
0.97886389 -2.1424003 -0.20110342 299 18453900 167 42 83 2364
1.0865022 -2.1669841 -0.23004226 318 18453900 188 43 26 2435
0.81358004 -2.1924884 -0.24142037 188 18453900 104 44 64 2351
0.87981564 -2.1309302 -0.2597346 128 18453900 69 45 37 2320
0.96746087 -2.1203794 -0.28480691 297 18453900 164 46 68 2348
1.0779113 -2.1511617 -0.31771097 311 18453900 183 47 77 2427
0.81948048 -2.2140744 -0.33133543 119 18453900 67 48 40 2384
0.85128123 -2.0643723 -0.33503985 48 18453900 24 49 26 2258
0.93636173 -2.0550683 -0.36095867 51 18453900 27 50 20 2287
1.0077772 -2.0125997 -0.38199019 49 18453900 25 51 26 2283
0.72510105 -1.9644494 -0.37322432 171 18453900 77 52 43 2127
0.84608555 -2.054723 -0.41758183 336 18453900 172 53 43 2261
0.93690109 -2.0579653 -0.44723663 322 18453900 171 54 60 2305
1.012602 -2.0221469 -0.47080719 125 18453900 67 55 22 2310
0.7230891 -1.9623718 -0.45369524 333 18453900 153 56 72 2140
0.82145756 -1.9978843 -0.48978746 310 18453900 152 57 43 2215
0.90071803 -1.9794945 -0.51529998 306 18453900 153 58 33 2235
0.99906874 -1.9955562 -0.5522843 363 18453900 192 59 41 2299
0.71708125 -1.953104 -0.53393167 374 18453900 173 60 23 2148
0.7931391 -1.9336146 -0.55734563 372 18453900 174 61 22 2163
0.89123309 -1.9596475 -0.59686029 336 18453900 168 62 37 2234
0.98368633 -1.962777 -0.63331914 340 18453900 177 63 28 2285
0.81960714 -2.2402725 0.7445972 27 18552340 17 0 37 2499
0.90262806 -2.2033398 0.71466917 25 18552340 15 1 54 2486
1.0638319 -2.3420391 0.74484885 29 18552340 21 2 19 2678
1.066865 -2.1316764 0.66586781 43 18552340 26 3 15 2475
0.76626813 -2.0911973 0.60164475 73 18552340 39 4 35 2307
0.86834067 -2.1222827 0.5950315 125 18552340 70 5 12 2369
0.93745446 -2.0659239 0.56513828 79 18552340 43 6 47 2338
1.150761 -2.3051343 0.61587894 59 18552340 41 7 29 2649
0.80808383 -2.2040052 0.54096484 119 18552340 69 8 42 2409
0.89696473 -2.1898425 0.52055156 147 18552340 86 9 23 2423
0.98112237 -2.1652701 0.4990446 152 18552340 90 10 26 2429
1.1078594 -2.224051 0.49739492 73 18552340 47 11 11 2534
0.76537818 -2.0865138 0.42641032 385 18552340 197 12 60 2263
0.86925513 -2.1245177 0.41678503 440 18552340 239 13 46 2333
1.0144633 -2.2399952 0.42226952 48 18552340 30 14 47 2495
1.130088 -2.2700651 0.41166422 114 18552340 75 15 25 2569
0.80186319 -2.1860943 0.35880914 391 18552340 217 16 35 2356
0.89677829 -2.1932058 0.34186724 331 18552340 189 17 56 2394
1.0544176 -2.3315728 0.34452322 93 18552340 62 18 37 2582
1.1690925 -2.3520157 0.32841089 108 18552340 75 19 45 2647
0.85745132 -2.3377686 0.29097253 353 18552340 222 20 65 2507
0.93592495 -2.2899716 0.2649895 402 18552340 249 21 43 2488
1.0606741 -2.3483541 0.251248 46 18552340 31 22 31 2589
1.1254169 -2.2672246 0.22318572 20 18552340 13 23 54 2541
0.87140232 -2.3772166 0.20273311 335 18552340 216 24 37 2540
0.94928396 -2.3243952 0.17702319 140 18552340 88 25 43 2517
1.0246197 -2.2687402 0.15169024 28 18552340 18 26 67 2494
1.1774995 -2.3756871 0.13649935 334 18552340 235 27 49 2655
0.83855027 -2.291059 0.10605016 383 18552340 228 28 36 2442
0.9578324 -2.3476677 0.085929111 64 18552340 41 29 17 2537
1.0614316 -2.3561673 0.063743524 86 18552340 57 30 21 2585
1.1456642 -2.3135881 0.038573693 311 18552340 207 31 38 2582
0.8330158 -2.2763071 0.016922574 259 18552340 152 32 52 2424
0.97299242 -2.3873265 -0.0065242085 46 18552340 30 33 24 2578
1.0474308 -2.3258467 -0.03045325 139 18552340 90 34 40 2551
1.1183358 -2.2620723 -0.054135896 291 18552340 185 35 48 2524
0.8360166 -2.2879713 -0.072339155 111 18552340 66 36 77 2437
0.89671785 -2.2048025 -0.093101472 24 18552340 14 37 21 2382
1.0252149 -2.2790654 -0.12165511 188 18552340 117 38 49 2502
1.0817914 -2.1880574 -0.14197952 287 18552340 171 39 38 2445
0.78969932 -2.1664894 -0.15303825 255 18552340 136 40 64 2311
0.86832321 -2.1377666 -0.17482977 24 18552340 13 41 38 2314
0.97060204 -2.1592717 -0.20212427 299 18552340 169 42 94 2376
1.0731853 -2.1736097 -0.23004226 321 18552340 190 43 34 2435
0.78377616 -2.1525745 -0.23649134 256 18552340 136 44 58 2303
0.82637644 -2.0368404 -0.24764352 38 18552340 18 45 42 2212
0.96906579 -2.1588762 -0.28917363 296 18552340 168 46 43 2384
1.0752202 -2.1790724 -0.32085276 309 18552340 186 47 73 2451
0.77748471 -2.1408725 -0.31966087 214 18552340 113 48 55 2300
0.82522845 -2.0365613 -0.3296982 60 18552340 30 49 23 2222
0.9285813 -2.0715878 -0.3628526 49 18552340 26 50 19 2299
0.95355225 -1.9338573 -0.36592755 53 18552340 25 51 23 2187
0.70901096 -1.9577537 -0.37111866 137 18552340 61 52 39 2115
0.82019156 -2.0270782 -0.41093302 337 18552340 167 53 46 2225
0.91944432 -2.0529318 -0.44490829 308 18552340 162 54 46 2293
1.0313495 -2.0915427 -0.48548171 219 18552340 124 55 27 2382
0.71502173 -1.9778004 -0.45623934 357 18552340 165 56 75 2152
0.79603177 -1.9703344 -0.48182702 307 18552340 146 57 35 2179
0.90286744 -2.0169568 -0.5236001 351 18552340 181 58 34 2271
0.99195623 -2.0120969 -0.55516702 370 18552340 197 59 38 2311
0.70902276 -1.9684029 -0.53691459 397 18552340 185 60 24 2160
0.78992838 -1.9599532 -0.56352973 367 18552340 175 61 29 2187
0.86974686 -1.9439679 -0.59044814 324 18552340 158 62 39 2210
0.97162443 -1.9687759 -0.63331914 326 18552340 170 63 33 2285
0.79423684 -2.2129145 0.73387069 29 18651250 17 0 36 2463
0.91484171 -2.2728097 0.7353676 28 18651250 18 1 46 2558
1.0165238 -2.274857 0.72148538 35 18651250 23 2 27 2594
1.0844202 -2.2003841 0.68523854 29 18651250 19 3 25 2547
0.77301723 -2.1503685 0.61729223 103 18651250 58 4 40 2367
0.85096973 -2.1167936 0.59201735 133 18651250 74 5 23 2357
0.94374627 -2.1141689 0.5767408 131 18651250 74 6 49 2386
1.095405 -2.2283592 0.59355944 56 18651250 36 7 38 2553
0.77871352 -2.1649086 0.53018594 131 18651250 73 8 36 2361
0.87913561 -2.1844325 0.51797348 152 18651250 88 9 36 2411
0.97259945 -2.1819761 0.50151002 118 18651250 70 10 33 2441
1.0890104 -2.2202425 0.49503943 161 18651250 102 11 28 2522
0.75256115 -2.0911708 0.42641032 390 18651250 200 12 75 2263
0.847395 -2.1079016 0.41249746 359 18651250 191 13 36 2309
1.0103258 -2.2677841 0.42633143 104 18651250 66 14 41 2519
1.1161377 -2.2769563 0.41166422 111 18651250 73 15 22 2569
0.78040284 -2.1686542 0.35515401 387 18651250 210 16 38 2332
0.87887663 -2.1876464 0.34015363 363 18651250 206 17 41 2382
0.98691881 -2.2184727 0.32691011 299 18651250 179 18 41 2450
1.1494044 -2.3484499 0.32692209 78 18651250 54 19 33 2635
0.83098429 -2.309341 0.28679422 376 18651250 230 20 75 2471
0.92630249 -2.3067434 0.26626757 372 18651250 232 21 53 2500
1.0074501 -2.2675014 0.24193174 63 18651250 39 22 32 2493
1.0957371 -2.2418687 0.22002371 22 18651250 14 23 71 2505
0.8567996 -2.3825185 0.20273311 345 18651250 222 24 45 2540
0.9305461 -2.3190668 0.1761792 106 18651250 66 25 43 2505
1.0204055 -2.2968767 0.15314998 30 18651250 19 26 64 2518
1.1681564 -2.3936372 0.13711628 316 18651250 224 27 51 2667
0.82447678 -2.2961612 0.10605016 384 18651250 229 28 40 2442
0.96125859 -2.3980286 0.087554887 124 18651250 83 29 10 2585
1.0323741 -2.3297327 0.062855795 94 18651250 61 30 25 2549
1.1314467 -2.320574 0.038573693 325 18651250 216 31 43 2582
0.82308757 -2.2926698 0.017006351 282 18651250 167 32 53 2436
0.91817868 -2.2929914 -0.00625089 346 18651250 211 33 50 2470
1.0282799 -2.321259 -0.030309994 146 18651250 94 34 46 2539
1.104435 -2.2688918 -0.054135896 290 18651250 184 35 48 2524
0.80577254 -2.2478931 -0.070914343 312 18651250 178 36 54 2389
0.91431713 -2.2882068 -0.096384645 56 18651250 34 37 21 2466
1.0112115 -2.2853131 -0.12165511 169 18651250 106 38 47 2502
1.0735887 -2.205425 -0.14267634 292 18651250 176 39 42 2457
0.78445405 -2.1938431 -0.15462756 142 18651250 78 40 64 2335
0.86849439 -2.1763947 -0.17754968 26 18651250 15 41 59 2350
0.96700472 -2.187057 -0.20416592 272 18651250 157 42 97 2400
1.0493821 -2.1586654 -0.22777489 310 18651250 180 43 44 2411
0.74244815 -2.0786557 -0.2278655 453 18651250 223 44 73 2219
0.81386304 -2.0418727 -0.24764352 25 18651250 12 45 31 2212
0.95580095 -2.1647816 -0.28917363 299 18651250 170 46 55 2384
1.035836 -2.1321249 -0.31299832 323 18651250 184 47 49 2391
0.74838257 -2.1008248 -0.31298968 273 18651250 139 48 59 2252
0.75565833 -1.8982526 -0.30655104 34 18651250 14 49 22 2066
0.88717014 -2.0121913 -0.3514888 63 18651250 31 50 15 2227
0.99850434 -2.0567439 -0.38801369 45 18651250 24 51 25 2319
0.72466677 -2.0399933 -0.38585815 103 18651250 50 52 47 2199
0.80773818 -2.0320725 -0.41093302 324 18651250 160 53 48 2225
0.90683049 -2.0585346 -0.44490829 321 18651250 169 54 64 2293
0.99797279 -2.0555577 -0.47569868 359 18651250 195 55 30 2334
0.70287275 -1.9821504 -0.45623934 363 18651250 168 56 67 2152
0.77960986 -1.9643041 -0.47917351 316 18651250 148 57 41 2167
0.88576931 -2.0117719 -0.52083337 363 18651250 185 58 30 2259
0.97450495 -2.0076661 -0.5522843 366 18651250 193 59 43 2299
0.69305968 -1.9617567 -0.53393167 419 18651250 193 60 28 2148
0.77361923 -1.9539828 -0.56043768 343 18651250 162 61 26 2175
0.84848708 -1.9280996 -0.58403605 348 18651250 166 62 29 2186
0.94440871 -1.9435892 -0.62334126 326 18651250 165 63 32 2249
0.80726743 -2.2933819 0.75889921 33 18749040 21 0 37 2547
0.87129563 -2.2035625 0.71121949 34 18749040 21 1 55 2474
1.0396491 -2.3654697 0.74818647 30 18749040 22 2 24 2690
1.0557622 -2.1758025 0.6755532 38 18749040 24 3 16 2511
0.73284417 -2.0785918 0.59538573 207 18749040 108 4 41 2283
0.84649783 -2.1435821 0.59804553 153 18749040 87 5 20 2381
0.91671294 -2.0879343 0.56803894 131 18749040 72 6 48 2350
1.0562892 -2.1825111 0.57960975 74 18749040 46 7 36 2493
0.74985415 -2.1255364 0.51940709 220 18749040 118 8 42 2313
0.86140686 -2.1788869 0.51539546 133 18749040 76 9 21 2399
0.95447731 -2.1771469 0.4990446 120 18749040 71 10 19 2429
1.1060671 -2.2904575 0.5091722 224 18749040 151 11 19 2594
0.74363834 -2.1068621 0.42867145 399 18749040 207 12 63 2275
0.83878189 -2.124043 0.41464126 391 18749040 211 13 38 2321
0.99639195 -2.2739406 0.42633143 110 18749040 70 14 43 2519
1.0867012 -2.2517593 0.4058955 87 18749040 56 15 28 2533
0.7670815 -2.1734018 0.35515401 399 18749040 217 16 30 2332
0.8828764 -2.2371891 0.34700808 354 18749040 209 17 65 2430
0.94468516 -2.1591139 0.31730294 347 18749040 196 18 36 2378
1.1401417 -2.3661852 0.32841089 77 18749040 54 19 46 2647
0.81283212 -2.3031569 0.28540143 382 18749040 231 20 46 2459
0.91213113 -2.3123837 0.26626757 393 18749040 246 21 59 2500
0.95525986 -2.1860874 0.23261547 37 18749040 21 22 26 2397
1.0975097 -2.2808642 0.22318572 41 18749040 27 23 58 2541
0.83818585 -2.3764503 0.20177531 357 18749040 228 24 57 2528
0.9470253 -2.402688 0.18208702 164 18749040 110 25 35 2589
0.97272319 -2.2262635 0.14804092 32 18749040 19 26 61 2434
1.1223081 -2.3359475 0.1334146 174 18749040 117 27 58 2595
0.81435448 -2.312485 0.1065713 389 18749040 234 28 45 2454
0.93334466 -2.370404 0.086335555 143 18749040 93 29 20 2549
1.0036814 -2.3030312 0.061968073 14 18749040 9 30 5 2513
1.1016101 -2.2950218 0.038035873 215 18749040 139 31 40 2546
0.80900455 -2.2976768 0.017006351 279 18749040 165 32 47 2436
0.93923068 -2.3879197 -0.0064938404 584 18749040 384 33 49 2566
1.0092251 -2.3165243 -0.030166743 165 18749040 105 34 36 2527
1.0904925 -2.2756257 -0.054135896 271 18749040 172 35 46 2524
0.78798646 -2.2414792 -0.070558131 282 18749040 160 36 67 2377
0.86959398 -2.2156405 -0.093101472 212 18749040 120 37 32 2382
0.9828223 -2.2585039 -0.11990468 142 18749040 86 38 53 2466
1.0548592 -2.2011678 -0.14197952 288 18749040 172 39 39 2445
0.78682691 -2.2438116 -0.15780622 140 18749040 80 40 61 2383
0.88132346 -2.2485259 -0.18298951 134 18749040 78 41 46 2422
0.95356703 -2.1929493 -0.20416592 178 18749040 103 42 72 2400
1.036117 -2.1650639 -0.22777489 297 18749040 172 43 37 2411
0.8007077 -2.2859507 -0.25004619 479 18749040 284 44 74 2435
0.82740176 -2.1134517 -0.25570425 51 18749040 26 45 40 2284
0.92352366 -2.1269021 -0.28335136 301 18749040 164 46 49 2336
1.022734 -2.1384406 -0.31299832 313 18749040 179 47 67 2391
0.73155898 -2.0941586 -0.31132188 353 18749040 177 48 60 2240
0.76128215 -1.9470631 -0.31367326 28 18749040 12 49 21 2114
0.92665899 -2.1371853 -0.37232247 32 18749040 18 50 15 2359
0.98076415 -2.0521576 -0.38600591 38 18749040 20 51 24 2307
0.7237944 -2.0778706 -0.39217508 107 18749040 53 52 44 2235
0.79525447 -2.0369904 -0.41093302 332 18749040 164 53 48 2225
0.88482332 -2.0424562 -0.44025159 303 18749040 156 54 64 2269
0.98027527 -2.0510428 -0.47325292 327 18749040 176 55 27 2322
0.6984002 -2.0085793 -0.46132749 347 18749040 164 56 72 2176
0.77179283 -1.9799546 -0.48182702 327 18749040 155 57 44 2179
0.86412942 -1.9957384 -0.51529998 347 18749040 173 58 47 2235
0.95212346 -1.9925871 -0.5465188 367 18749040 190 59 35 2275
0.67720503 -1.9549893 -0.53094888 382 18749040 174 60 33 2136
0.75741321 -1.9478862 -0.55734563 371 18749040 173 61 25 2163
0.84582591 -1.9544947 -0.59044814 347 18749040 169 62 40 2210
0.93246531 -1.9493475 -0.62334126 321 18749040 162 63 27 2249
0.75207317 -2.1791816 0.71956873 30 18846250 17 0 37 2415
0.85359788 -2.1981533 0.70776975 36 18846250 22 1 34 2462
0.97023922 -2.2448378 0.70813483 42 18846250 27 2 32 2546
0.99257612 -2.0779507 0.64326864 40 18846250 23 3 13 2391
0.71250659 -2.0611515 0.58912677 306 18846250 156 4 54 2259
0.83752906 -2.1595652 0.60105962 137 18846250 78 5 17 2393
0.9131155 -2.1149004 0.57384014 141 18846250 79 6 41 2374
0.99267906 -2.0835867 0.55171037 137 18846250 77 7 28 2373
0.7138626 -2.0637908 0.5032388 419 18846250 210 8 49 2241
0.86074686 -2.2169068 0.52312958 135 18846250 80 9 21 2435
0.95504862 -2.2153161 0.50644088 129 18846250 78 10 28 2465
1.0364244 -2.1803043 0.48326215 153 18846250 93 11 10 2462
0.72298843 -2.0891116 0.42414922 401 18846250 203 12 78 2251
0.83000243 -2.1401579 0.41678503 374 18846250 203 13 51 2333
0.95902032 -2.225704 0.41617665 154 18846250 93 14 30 2459
1.1389387 -2.3974719 0.43089339 30 18846250 21 15 34 2689
0.76536697 -2.2116914 0.36063665 420 18846250 235 16 41 2368
0.86484069 -2.2314899 0.34529451 363 18846250 213 17 66 2418
0.93611956 -2.1757944 0.31890416 364 18846250 208 18 45 2390
1.1409101 -2.405412 0.33287737 106 18846250 76 19 28 2683
0.7986849 -2.3081009 0.28540143 374 18846250 226 20 55 2459
0.8979255 -2.3179369 0.26626757 424 18846250 265 21 61 2500
0.99369365 -2.3126132 0.24542533 222 18846250 142 22 36 2529
1.0527928 -2.2227371 0.21686168 35 18846250 21 23 56 2469
0.81186014 -2.3476341 0.19890194 369 18846250 229 24 51 2492
0.90633863 -2.3414745 0.17702319 367 18846250 232 25 44 2517
0.97322953 -2.2652054 0.15023051 79 18846250 48 26 63 2470
1.0669659 -2.2561202 0.12847903 36 18846250 22 27 48 2499
0.79232454 -2.2947736 0.10552903 361 18846250 213 28 56 2430
0.90148109 -2.3313425 0.084709778 292 18846250 183 29 24 2501
0.98008108 -2.2870932 0.061376259 17 18846250 10 30 7 2489
1.1028845 -2.3342841 0.038573693 156 18846250 104 31 39 2582
0.77922809 -2.257226 0.01667125 285 18846250 162 32 52 2388
0.90726602 -2.3488619 -0.0063723652 196 18846250 124 33 51 2518
0.96664256 -2.2564948 -0.029307224 243 18846250 146 34 51 2455
1.0662727 -2.2605724 -0.053621128 278 18846250 173 35 40 2500
0.7742182 -2.2462718 -0.070558131 305 18846250 173 36 75 2377
0.86460721 -2.2433116 -0.094039515 139 18846250 80 37 41 2406
0.94065547 -2.1983752 -0.11640382 291 18846250 167 38 76 2394
1.0413332 -2.2075989 -0.14197952 284 18846250 170 39 36 2445
0.75358039 -2.1919813 -0.15383291 347 18846250 187 40 62 2323
0.833125 -2.1645546 -0.17573641 197 18846250 107 41 62 2326
0.92599195 -2.1657777 -0.20110342 183 18846250 102 42 76 2364
1.0279037 -2.182188 -0.22890857 327 18846250 192 43 29 2423
0.78666627 -2.2908206 -0.25004619 280 18846250 166 44 85 2435
0.83153385 -2.1630104 -0.26107806 233 18846250 127 45 27 2332
0.91513276 -2.1434834 -0.28480691 273 18846250 151 46 72 2348
1.0045267 -2.1339121 -0.31142747 306 18846250 173 47 54 2379
0.7148456 -2.0873656 -0.30965412 357 18846250 177 48 57 2228
0.8301369 -2.1621928 -0.34750366 20 18846250 11 49 23 2342
0.82988149 -1.9466243 -0.33823103 26 18846250 12 50 22 2143
0.97822571 -2.0795479 -0.39002153 39 18846250 21 51 24 2331
0.69957834 -2.0487325 -0.38585815 387 18846250 187 52 68 2199
0.78696221 -2.0528436 -0.41314927 341 18846250 171 53 58 2237
0.8722744 -2.047847 -0.44025159 305 18846250 157 54 50 2269
0.96767187 -2.057019 -0.47325292 354 18846250 191 55 25 2322
0.67849576 -1.9906266 -0.45623934 352 18846250 163 56 69 2152
0.75962949 -1.984653 -0.48182702 309 18846250 147 57 37 2179
0.84272003 -1.9795158 -0.50976658 306 18846250 149 58 38 2211
0.94483691 -2.0089328 -0.54940158 356 18846250 186 59 41 2287
0.66145962 -1.9481015 -0.52796596 367 18846250 166 60 23 2124
