# .PCD v0.7 - Point Cloud Data file format
VERSION 0.7
FIELDS x y z intensity t reflectivity ring noise range
SIZE 4 4 4 4 4 2 1 2 4
TYPE F F F F U U U U U
COUNT 1 1 1 1 1 1 1 1 1
WIDTH 781
HEIGHT 1
VIEWPOINT 0 0 0 1 0 0 0
POINTS 781
DATA ascii
1.1526989 -2.0565763 0.34015363 418 16568430 237 17 52 2382
1.2576165 -2.0631092 0.32530895 356 16568430 212 18 62 2438
1.3759931 -2.0819471 0.31203377 356 16568430 225 19 63 2515
1.055523 -2.0561752 0.27008098 351 16568430 190 20 50 2327
1.1508815 -2.0540903 0.25220865 360 16568430 202 21 67 2368
1.2780446 -2.098846 0.23960267 34 16568430 21 22 33 2469
1.4142423 -2.1423388 0.22634774 236 16568430 157 23 94 2577
1.0575532 -2.0611041 0.18549281 348 16568430 188 24 50 2324
1.1740412 -2.0967126 0.16942744 367 16568430 213 25 69 2409
1.257257 -2.0648704 0.14731106 51 16568430 30 26 81 2422
1.4000859 -2.1236341 0.13094683 117 16568430 76 27 60 2547
1.063484 -2.0751588 0.10135999 421 16568430 229 28 57 2334
1.1677393 -2.0871668 0.081051782 301 16568430 172 29 30 2393
1.2982651 -2.1367514 0.06167217 207 16568430 129 30 35 2501
1.3410475 -2.0357087 0.036422413 133 16568430 79 31 52 2438
1.0397284 -2.0290668 0.015917275 63 16568430 33 32 65 2280
1.1525143 -2.0617275 -0.0059775724 47 16568430 26 33 49 2362
1.3367207 -2.2006495 -0.030739754 161 16568430 106 34 52 2575
1.3274859 -2.0179574 -0.051819462 201 16568430 117 35 50 2416
1.0442245 -2.0402973 -0.068064705 162 16568430 85 36 107 2293
1.1949244 -2.1412783 -0.095915623 368 16568430 222 37 63 2454
1.3275776 -2.1876616 -0.1245725 339 16568430 223 38 91 2562
1.440258 -2.1893029 -0.15243199 294 16568430 203 39 64 2625
1.0653023 -2.0855179 -0.15542224 398 16568430 219 40 72 2347
1.1992185 -2.1512671 -0.18661603 331 16568430 202 41 87 2470
1.2958217 -2.1366775 -0.21335338 335 16568430 211 42 119 2508
1.4099108 -2.1457005 -0.2436464 324 16568430 215 43 53 2579
1.0739371 -2.1042349 -0.24388488 437 16568430 247 44 89 2375
1.2029376 -2.1599767 -0.27854297 340 16568430 210 45 54 2488
1.3186182 -2.1768365 -0.3110072 312 16568430 205 46 75 2564
1.4448961 -2.2001147 -0.34755775 341 16568430 240 47 106 2655
1.0768492 -2.1143134 -0.33300325 384 16568430 221 48 78 2396
1.2010176 -2.1587448 -0.3706508 292 16568430 183 49 58 2498
1.3162656 -2.1755223 -0.40641385 337 16568430 223 50 44 2575
1.436281 -2.1883283 -0.44423306 323 16568430 227 51 53 2655
1.093191 -2.1511321 -0.43007657 368 16568430 221 52 101 2451
1.2168288 -2.1897721 -0.47077224 315 16568430 205 53 73 2549
1.3343699 -2.2070105 -0.51010203 323 16568430 224 54 60 2629
1.4472282 -2.2049236 -0.54907125 297 16568430 215 55 53 2694
1.1056556 -2.1786709 -0.53001779 356 16568430 223 56 79 2500
1.2243255 -2.2059829 -0.57204521 312 16568430 209 57 46 2587
1.3422778 -2.2210529 -0.61490154 339 16568430 241 58 46 2667
1.4544832 -2.2163985 -0.65606284 387 16568430 289 59 64 2731
1.1230769 -2.2194269 -0.63833177 343 16568430 226 60 39 2568
1.2261602 -2.2136571 -0.67484426 346 16568430 237 61 34 2619
1.3522947 -2.2385983 -0.72510242 314 16568430 231 62 49 2714
1.4585122 -2.2205098 -0.76635772 336 16568430 257 63 45 2765
0.99206454 -1.9661012 0.68738925 375 16667390 199 0 55 2307
1.0637577 -1.9224856 0.65947354 48 16667390 25 1 66 2294
1.1741945 -1.9458077 0.65807033 69 16667390 38 2 33 2366
1.275878 -1.9447925 0.64972562 48 16667390 28 3 30 2415
1.0461038 -2.0705912 0.62668073 221 16667390 127 4 56 2403
1.1205455 -2.0272036 0.60105962 167 16667390 95 5 34 2393
0 -0 0 6 16667390 0 6 61 0
1.1617835 -1.7747954 0.50707132 12 16667390 5 7 57 2181
1.0484153 -2.074177 0.53557539 72 16667390 41 8 42 2385
1.0604914 -1.9168197 0.48188075 11 16667390 5 9 29 2243
1.2202653 -2.0263886 0.49657914 378 16667390 221 10 37 2417
1.2818074 -1.9618838 0.46912938 96 16667390 55 11 36 2390
0.96033931 -1.899187 0.40832132 59 16667390 27 12 56 2167
1.1161873 -2.0193191 0.41892877 233 16667390 128 13 41 2345
1.2315348 -2.0459919 0.4100838 360 16667390 212 14 67 2423
1.3087522 -2.0041935 0.38858926 46 16667390 27 15 49 2425
1.029297 -2.0356474 0.35149893 287 16667390 153 16 26 2308
1.1228282 -2.0324223 0.33501276 372 16667390 205 17 57 2346
1.2326785 -2.0504017 0.32210654 364 16667390 212 18 47 2414
1.3371755 -2.0504553 0.30607843 252 16667390 154 19 67 2467
1.0321307 -2.0413401 0.26729548 353 16667390 188 20 61 2303
1.1324881 -2.0506685 0.25093058 348 16667390 193 21 71 2356
1.2589933 -2.0964093 0.23843813 279 16667390 168 22 55 2457
1.3684496 -2.1008952 0.22107773 326 16667390 207 23 91 2517
1.0448866 -2.0675542 0.18549281 355 16667390 192 24 53 2324
1.1553698 -2.0933967 0.16858345 358 16667390 206 25 63 2397
1.1952332 -1.990397 0.14147215 25 16667390 14 26 89 2326
1.393564 -2.1422305 0.13156377 137 16667390 90 27 75 2559
1.0291221 -2.038835 0.099275455 381 16667390 199 28 58 2286
1.1491193 -2.0837905 0.08064533 312 16667390 177 29 44 2381
1.2789636 -2.1343868 0.061376259 245 16667390 152 30 30 2489
1.3350705 -2.0539589 0.036601685 129 16667390 78 31 63 2450
1.0488852 -2.078259 0.016252374 99 16667390 53 32 57 2328
1.1166785 -2.0267193 -0.0058560972 41 16667390 22 33 44 2314
1.273862 -2.1264622 -0.029593728 171 16667390 105 34 51 2479
1.3020153 -2.0059383 -0.051304702 203 16667390 116 35 69 2392
1.0748789 -2.1323528 -0.070914343 69 16667390 39 36 106 2389
1.1470904 -2.0855312 -0.093101472 356 16667390 202 37 51 2382
1.301819 -2.1751971 -0.12340555 296 16667390 191 38 95 2538
1.3941849 -2.1478567 -0.14894782 317 16667390 208 39 54 2565
1.0578669 -2.1027114 -0.1562169 413 16667390 230 40 76 2359
1.1629484 -2.1166368 -0.18298951 365 16667390 214 41 65 2422
1.3010987 -2.1753719 -0.21641587 300 16667390 194 42 99 2544
1.3837206 -2.134263 -0.24137904 322 16667390 210 43 36 2555
1.0610055 -2.1107848 -0.24388488 414 16667390 234 44 93 2375
1.1953994 -2.1777704 -0.27988642 307 16667390 192 45 62 2500
1.2991277 -2.1746607 -0.30955163 320 16667390 209 46 68 2552
1.3990219 -2.1590195 -0.33970332 330 16667390 222 47 98 2595
1.0478712 -2.0890148 -0.32799986 429 16667390 239 48 84 2360
1.2105722 -2.2076952 -0.37777299 287 16667390 186 49 45 2546
1.3211073 -2.2140853 -0.41209576 332 16667390 226 50 40 2611
1.4356883 -2.2169607 -0.44824871 344 16667390 247 51 46 2679
1.0641088 -2.1261058 -0.42375967 349 16667390 204 52 80 2415
1.1863743 -2.1661658 -0.46412343 339 16667390 214 53 54 2513
1.3208028 -2.2151563 -0.51010203 303 16667390 209 54 56 2629
1.4272857 -2.2039013 -0.54662549 337 16667390 242 55 40 2682
1.0922666 -2.1854141 -0.53001779 337 16667390 211 56 98 2500
1.1995344 -2.1929193 -0.56673825 296 16667390 195 57 65 2563
1.3166683 -2.2091863 -0.60936815 308 16667390 215 58 44 2643
1.4408562 -2.2252812 -0.65606284 360 16667390 269 59 60 2731
1.0887005 -2.1846635 -0.62640035 361 16667390 229 60 36 2520
1.2181101 -2.2313161 -0.67793632 346 16667390 239 61 34 2631
1.3207784 -2.2170503 -0.71548426 296 16667390 212 62 44 2678
1.4574012 -2.2487683 -0.77300966 329 16667390 256 63 43 2789
0.99017692 -1.9926678 0.69454026 374 16764620 203 0 67 2331
1.0739523 -1.9693387 0.67327237 64 16764620 35 1 66 2342
1.1740224 -1.9727862 0.66474557 57 16764620 32 2 33 2390
1.2764816 -1.971989 0.65618247 37 16764620 22 3 26 2439
0.98177469 -1.9732519 0.59538573 390 16764620 203 4 66 2283
1.0247362 -1.8810416 0.5558483 130 16764620 63 5 40 2213
1.1832573 -1.9900424 0.5767408 21 16764620 12 6 54 2386
1.1951969 -1.8505192 0.5266009 11 16764620 5 7 39 2265
1.020036 -2.049166 0.52749127 176 16764620 97 8 60 2349
1.1497005 -2.1085029 0.52828568 11 16764620 6 9 32 2459
1.1958156 -2.0136425 0.49164829 360 16764620 206 10 48 2393
1.2888713 -1.9993812 0.47619575 136 16764620 80 11 30 2426
0.99069488 -1.9894389 0.42641032 42 16764620 22 12 79 2263
1.0811828 -1.9846569 0.41035372 238 16764620 125 13 54 2297
1.2008469 -2.0229995 0.40399092 335 16764620 191 14 75 2387
1.3477526 -2.0918438 0.40397257 84 16764620 53 15 37 2521
0.97978109 -1.9676087 0.33870608 316 16764620 156 16 40 2224
1.1160158 -2.0497046 0.33672637 346 16764620 193 17 72 2358
1.2140094 -2.0476968 0.32050535 324 16764620 187 18 61 2402
1.2730252 -1.978513 0.29416782 44 16764620 25 19 60 2371
1.0248984 -2.0583038 0.26868823 250 16764620 134 20 57 2315
1.1255881 -2.0680587 0.25220865 336 16764620 189 21 62 2368
1.2339343 -2.0835421 0.23610908 363 16764620 215 22 60 2433
1.3426076 -2.0891402 0.21896969 307 16764620 191 23 105 2493
1.0375104 -2.0846355 0.18645062 350 16764620 191 24 50 2336
1.1253442 -2.0689003 0.16605154 331 16764620 185 25 66 2361
1.1829978 -1.9976933 0.14147215 38 16764620 21 26 78 2326
1.360974 -2.1204844 0.12971292 174 16764620 110 27 57 2523
1.0272657 -2.0665822 0.10031772 423 16764620 226 28 44 2310
1.1305848 -2.0802648 0.080238894 317 16764620 178 29 37 2369
1.2597404 -2.1318662 0.061080355 121 16764620 74 30 36 2477
1.3418744 -2.0924125 0.037139505 137 16764620 84 31 45 2486
0.99872798 -2.0094361 0.01566595 77 16764620 39 32 60 2244
1.1328533 -2.0862608 -0.0060079405 109 16764620 61 33 51 2374
1.2790995 -2.1652317 -0.030023489 228 16764620 145 34 67 2515
1.2702726 -1.9835802 -0.050532557 194 16764620 108 35 58 2356
1.067108 -2.1496515 -0.07127054 70 16764620 40 36 107 2401
1.1457007 -2.1136138 -0.094039515 352 16764620 204 37 53 2406
1.2823558 -2.1728218 -0.12282207 304 16764620 194 38 101 2526
1.4003619 -2.1866357 -0.15103832 302 16764620 205 39 58 2601
1.0289985 -2.0769756 -0.15383291 395 16764620 213 40 86 2323
1.1556364 -2.1342547 -0.18389612 367 16764620 217 41 102 2434
1.275578 -2.1627171 -0.21437421 330 16764620 209 42 120 2520
1.3834735 -2.1628406 -0.2436464 314 16764620 209 43 53 2579
1.0427388 -2.1065576 -0.24265264 407 16764620 227 44 92 2363
1.1479725 -2.1221344 -0.2718257 291 16764620 172 45 69 2428
1.2736681 -2.1620653 -0.30664051 333 16764620 213 46 89 2528
1.3985642 -2.1876099 -0.34284511 332 16764620 228 47 76 2619
1.0455593 -2.1167142 -0.33133543 407 16764620 232 48 69 2384
1.1857197 -2.1942012 -0.37421191 276 16764620 175 49 46 2522
1.2834604 -2.1812985 -0.40451992 330 16764620 217 50 36 2563
1.4029487 -2.1958191 -0.44222522 349 16764620 244 51 63 2643
1.0405982 -2.1114013 -0.41954836 421 16764620 241 52 68 2391
1.1730605 -2.1734045 -0.46412343 333 16764620 211 53 69 2513
1.2833195 -2.1826277 -0.50078857 328 16764620 218 54 47 2581
1.413736 -2.2126174 -0.54662549 360 16764620 259 55 46 2682
1.0736582 -2.1815531 -0.52747375 334 16764620 207 56 81 2488
1.1805032 -2.1899366 -0.56408477 299 16764620 194 57 50 2551
1.2912555 -2.1970901 -0.60383475 310 16764620 212 58 40 2619
1.4209039 -2.2242637 -0.65318006 265 16764620 196 59 76 2719
1.0855159 -2.212172 -0.63236606 333 16764620 215 60 39 2544
1.1714365 -2.1774826 -0.65938389 335 16764620 219 61 31 2559
1.3012927 -2.215142 -0.71227819 311 16764620 221 62 51 2666
1.4311533 -2.2382407 -0.76635772 323 16764620 247 63 49 2765
0.96786278 -1.9781272 0.68738925 379 16861690 201 0 56 2307
1.0400857 -1.9353949 0.65947354 231 16861690 122 1 71 2294
1.1677294 -1.9898939 0.66808325 132 16861690 76 2 35 2402
1.2145921 -1.9018593 0.63035488 106 16861690 58 3 13 2343
0.97984207 -2.0000458 0.60164475 386 16861690 206 4 62 2307
1.018669 -1.8975278 0.55886239 182 16861690 90 5 36 2225
1.0767927 -1.8365464 0.53033078 16 16861690 8 6 67 2194
1.1587322 -1.8184469 0.51544112 10 16861690 5 7 64 2217
1.0022967 -2.0448861 0.52479649 213 16861690 117 8 60 2337
1.0424367 -1.9400132 0.48445883 15 16861690 8 9 8 2255
1.1834376 -2.0209422 0.49164829 360 16861690 206 10 38 2393
1.2323776 -1.9377509 0.4597075 151 16861690 83 11 37 2342
0.99922335 -2.037806 0.43545482 40 16861690 22 12 78 2311
1.1024925 -2.0536699 0.42321634 214 16861690 120 13 48 2369
1.1764627 -2.0099161 0.39992902 369 16861690 206 14 75 2363
1.2967672 -2.0400958 0.39243507 382 16861690 229 15 53 2449
0.9990176 -2.0374763 0.34967136 107 16861690 56 16 39 2296
1.0921873 -2.0355823 0.33329913 354 16861690 193 17 66 2334
1.1834158 -2.0243063 0.31570178 351 16861690 196 18 53 2366
1.2672427 -1.9963398 0.29565665 50 16861690 28 19 56 2383
1.0017555 -2.0431504 0.2659027 224 16861690 118 20 58 2291
1.1128775 -2.0749261 0.25220865 354 16861690 199 21 68 2368
1.2151037 -2.0807607 0.23494454 345 16861690 202 22 76 2421
1.3233629 -2.0872436 0.2179157 315 16861690 194 23 110 2481
1.014172 -2.0694797 0.18453501 350 16861690 187 24 70 2312
1.1126285 -2.0757663 0.16605154 352 16861690 196 25 61 2361
1.2552754 -2.1497233 0.15169024 118 16861690 74 26 84 2494
1.3479372 -2.1287951 0.12971292 176 16861690 112 27 78 2523
1.004025 -2.0513103 0.099275455 395 16861690 206 28 48 2286
1.1121372 -2.0765903 0.079832442 307 16861690 170 29 29 2357
1.2345568 -2.1188252 0.060488533 24 16861690 14 30 27 2453
1.3482558 -2.1310258 0.037677325 147 16861690 93 31 41 2522
0.99692899 -2.0370829 0.015833499 69 16861690 35 32 45 2268
1.0917234 -2.0402701 -0.0058560972 102 16861690 55 33 65 2314
1.2295524 -2.1108291 -0.02916397 349 16861690 209 34 75 2443
1.2644855 -2.0014796 -0.050789934 160 16861690 90 35 58 2368
1.053898 -2.1561589 -0.07127054 130 16861690 75 36 96 2401
1.1214114 -2.0994508 -0.093101472 342 16861690 194 37 64 2382
1.2509139 -2.1495712 -0.12107164 299 16861690 185 38 120 2490
1.3677225 -2.1648037 -0.14894782 320 16861690 210 39 51 2565
1.016235 -2.0832503 -0.15383291 403 16861690 218 40 67 2323
1.1312536 -2.1201913 -0.18208286 360 16861690 209 41 89 2410
1.250262 -2.1498315 -0.21233255 324 16861690 202 42 121 2496
1.3701766 -2.1712887 -0.2436464 341 16861690 227 43 37 2579
1.0297935 -2.1129162 -0.24265264 421 16861690 235 44 87 2363
1.1461481 -2.1501842 -0.27451262 373 16861690 224 45 48 2452
1.2783264 -2.2007391 -0.3110072 328 16861690 216 46 80 2564
1.372422 -2.1760249 -0.33970332 319 16861690 215 47 109 2595
1.0169594 -2.0910296 -0.32633203 407 16861690 225 48 74 2348
1.1666565 -2.1909606 -0.37243137 269 16861690 169 49 47 2510
1.2581592 -2.1686335 -0.40073195 327 16861690 211 50 42 2539
1.3894491 -2.204386 -0.44222522 327 16861690 228 51 54 2643
1.0173084 -2.0964894 -0.41533709 420 16861690 235 52 84 2367
1.1707784 -2.2013867 -0.46855599 317 16861690 204 53 70 2537
1.2758073 -2.2006452 -0.50311697 297 16861690 200 54 73 2593
1.3876039 -2.2013733 -0.54173398 323 16861690 228 55 40 2658
1.044911 -2.1564393 -0.51984149 332 16861690 200 56 92 2452
1.1560642 -2.1764679 -0.55877781 313 16861690 200 57 58 2527
1.2660409 -2.1847656 -0.59830129 328 16861690 221 58 52 2595
1.3823868 -2.1935213 -0.64164919 373 16861690 266 59 61 2671
1.0668656 -2.2083249 -0.62938321 351 16861690 225 60 34 2532
1.1580538 -2.1846294 -0.65938389 347 16861690 227 61 26 2559
1.2934723 -2.2330914 -0.71548426 310 16861690 222 62 53 2678
1.4173927 -2.24698 -0.76635772 328 16861690 250 63 41 2765
0.9457646 -1.9633884 0.68023825 364 16961050 189 0 48 2283
1.0389477 -1.9620548 0.66637295 137 16961050 74 1 61 2318
1.1554977 -1.9970216 0.66808325 204 16961050 118 2 29 2402
1.2398646 -1.9679478 0.64972562 84 16961050 49 3 29 2415
0.95748591 -1.9851513 0.59538573 398 16961050 207 4 57 2283
0.97985166 -1.8524057 0.54379195 165 16961050 77 5 47 2165
1.1704028 -2.0245748 0.582542 13 16961050 7 6 50 2410
1.0916502 -1.7365932 0.49033174 22 16961050 10 7 41 2109
0.98973066 -2.0509977 0.52479649 223 16961050 122 8 67 2337
1.0085777 -1.9049423 0.4741466 13 16961050 6 9 18 2207
1.1533984 -1.9976541 0.48425201 115 16961050 64 10 58 2357
1.2017043 -1.9153744 0.45264113 96 16961050 51 11 38 2306
1.0071949 -2.0863512 0.44449934 135 16961050 75 12 76 2359
1.0898706 -2.060396 0.42321634 227 16961050 127 13 38 2369
1.1759312 -2.0375836 0.40399092 350 16961050 200 14 75 2387
1.2716398 -2.0279438 0.38858926 402 16961050 236 15 54 2425
0.94524986 -1.9581225 0.33505094 32 16961050 15 16 52 2200
1.0630236 -2.0107455 0.32815829 342 16961050 180 17 54 2298
1.1828505 -2.0521367 0.31890416 357 16961050 204 18 44 2390
1.311846 -2.0949049 0.30905613 27 16961050 17 19 65 2491
0.99438143 -2.0599923 0.26729548 219 16961050 116 20 71 2303
1.0889752 -2.0606172 0.24965249 358 16961050 197 21 63 2344
1.2023137 -2.0881772 0.23494454 327 16961050 191 22 51 2421
1.285176 -2.0547857 0.21369967 76 16961050 45 23 102 2433
1.0014548 -2.0756636 0.18453501 343 16961050 183 24 55 2312
1.0831003 -2.0507998 0.16351962 331 16961050 179 25 66 2325
1.1882752 -2.063962 0.14512147 321 16961050 183 26 90 2386
1.3221521 -2.1166975 0.12847903 231 16961050 144 27 73 2499
0.99662381 -2.0682325 0.099796593 422 16961050 223 28 42 2298
1.1049716 -2.0939822 0.080238894 311 16961050 174 29 41 2369
1.1737272 -2.0431437 0.058121271 48 16961050 27 30 25 2357
1.3224491 -2.1189008 0.037318781 261 16961050 163 31 49 2498
1.0521216 -2.1836963 0.016922574 92 16961050 54 32 64 2424
1.0735875 -2.0363152 -0.0058257282 87 16961050 46 33 58 2302
1.2285291 -2.1391442 -0.029450474 245 16961050 149 34 78 2467
1.2712173 -2.039746 -0.051562078 173 16961050 100 35 64 2404
1.0146428 -2.1085427 -0.069489516 345 16961050 189 36 122 2341
1.0973394 -2.0850699 -0.092163414 321 16961050 178 37 52 2358
1.2257712 -2.1364138 -0.11990468 309 16961050 188 38 101 2466
1.3290681 -2.132488 -0.1461605 308 16961050 195 39 42 2517
1.0086167 -2.10024 -0.15462756 405 16961050 221 40 76 2335
1.1126552 -2.1165013 -0.18117622 347 16961050 200 41 78 2398
1.2370473 -2.1574626 -0.21233255 310 16961050 193 42 111 2496
1.3505147 -2.1695132 -0.24251272 318 16961050 209 43 52 2567
1.0116458 -2.1084332 -0.24142037 423 16961050 234 44 85 2351
1.1218442 -2.1360621 -0.2718257 371 16961050 218 45 55 2428
1.2411208 -2.1671958 -0.3051849 297 16961050 188 46 90 2516
1.3590443 -2.1844051 -0.33970332 335 16961050 226 47 98 2595
1.0092418 -2.1079488 -0.32799986 411 16961050 229 48 67 2360
1.1421643 -2.1770604 -0.36887026 298 16961050 184 49 62 2486
1.2448289 -2.1763124 -0.40073195 364 16961050 234 50 30 2539
1.36965 -2.2028229 -0.44021738 330 16961050 228 51 49 2631
1.0146096 -2.1240122 -0.41954836 423 16961050 242 52 83 2391
1.1463013 -2.1876361 -0.46412343 333 16961050 211 53 67 2513
1.2564387 -2.1982117 -0.50078857 310 16961050 206 54 51 2581
1.3864774 -2.2297995 -0.54662549 332 16961050 239 55 40 2682
1.0215619 -2.1416409 -0.51475328 391 16961050 231 56 97 2428
1.1372615 -2.1731515 -0.55612433 312 16961050 197 57 49 2515
1.2584041 -2.2026317 -0.60106802 307 16961050 208 58 49 2607
1.3750516 -2.2118547 -0.64453185 363 16961050 261 59 49 2683
1.0532954 -2.2148294 -0.62938321 337 16961050 216 60 30 2532
1.1446273 -2.191694 -0.65938389 344 16961050 225 61 26 2559
1.245339 -2.1807353 -0.69624794 335 16961050 227 62 46 2606
1.3913959 -2.2360561 -0.75970584 325 16961050 244 63 38 2741
0.94842291 -2.0002058 0.6909647 364 17055730 196 0 58 2319
1.0375214 -1.988773 0.67327237 188 17055730 103 1 72 2342
1.1774905 -2.064146 0.6881091 125 17055730 76 2 42 2474
1.209464 -1.9460697 0.64004022 87 17055730 49 3 23 2379
0.95522463 -2.0119193 0.60164475 391 17055730 208 4 52 2307
1.0436183 -2.0025902 0.58598924 81 17055730 44 5 27 2333
1.1464267 -2.0114851 0.5767408 23 17055730 13 6 54 2386
1.1117274 -1.7928536 0.5042814 18 17055730 8 7 28 2169
0.97210997 -2.0464694 0.52210176 194 17055730 105 8 58 2325
1.0402322 -1.9942238 0.49477103 23 17055730 12 9 19 2303
1.1701677 -2.0557251 0.49657914 158 17055730 92 10 53 2417
1.2704275 -2.0527825 0.48326215 200 17055730 121 11 41 2462
0.97414112 -2.0499146 0.43545482 200 17055730 107 12 88 2311
1.0553815 -2.0251627 0.41464126 239 17055730 129 13 40 2321
1.1517093 -2.0242016 0.39992902 334 17055730 187 14 84 2363
1.2529416 -2.0256348 0.38666633 381 17055730 222 15 42 2413
0.93830752 -1.9745978 0.33687851 36 17055730 17 16 33 2212
1.0726119 -2.0593657 0.33501276 249 17055730 137 17 67 2346
1.1702366 -2.059356 0.31890416 358 17055730 205 18 69 2390
1.2927096 -2.0927842 0.30756727 284 17055730 174 19 56 2479
0.97149205 -2.0445242 0.26450992 235 17055730 122 20 76 2279
1.0708008 -2.0566769 0.2483744 361 17055730 196 21 52 2332
1.1835824 -2.0851285 0.23378001 351 17055730 204 22 62 2409
1.2537146 -2.0321128 0.21053766 36 17055730 21 23 94 2397
0.97843659 -2.0601592 0.18261944 341 17055730 179 24 84 2288
1.0870719 -2.0892637 0.16605154 348 17055730 194 25 43 2361
1.1755886 -2.0712142 0.14512147 329 17055730 187 26 100 2386
1.3028531 -2.1145673 0.1278621 211 17055730 131 27 82 2487
0.97363877 -2.0526452 0.098754331 393 17055730 204 28 61 2274
1.1031663 -2.1220047 0.081051782 294 17055730 168 29 33 2393
1.2321097 -2.1755698 0.06167217 41 17055730 26 30 24 2501
1.2968423 -2.10654 0.036960233 187 17055730 114 31 55 2474
0.99242425 -2.0925319 0.0161686 296 17055730 159 32 60 2316
1.0610727 -2.0428643 -0.0058257282 94 17055730 50 33 63 2302
1.191733 -2.1048753 -0.028877463 44 17055730 26 34 61 2419
1.3215071 -2.1497128 -0.054135896 175 17055730 111 35 50 2524
1.0170898 -2.1472492 -0.070558131 342 17055730 193 36 97 2377
1.084525 -2.0917637 -0.092163414 129 17055730 71 37 56 2358
1.2008376 -2.1230297 -0.11873773 345 17055730 206 38 104 2442
1.3159584 -2.1406028 -0.1461605 267 17055730 169 39 55 2517
0.98547661 -2.084739 -0.15303825 375 17055730 200 40 82 2311
1.0996475 -2.1232886 -0.18117622 355 17055730 204 41 81 2398
1.212019 -2.1441951 -0.21029089 318 17055730 194 42 112 2472
1.3246756 -2.1573982 -0.24024537 344 17055730 222 43 44 2543
0.99868971 -2.1146009 -0.24142037 416 17055730 230 44 88 2351
1.0922774 -2.1111326 -0.26779535 355 17055730 203 45 55 2392
1.2277998 -2.1747704 -0.3051849 298 17055730 189 46 88 2516
1.339393 -2.1825633 -0.33813247 325 17055730 217 47 112 2583
0.98615694 -2.0926023 -0.32466426 413 17055730 225 48 89 2336
1.1287847 -2.1840274 -0.36887026 314 17055730 194 49 51 2486
1.2256318 -2.173588 -0.39883801 336 17055730 214 50 48 2527
1.3499229 -2.2011003 -0.43820956 330 17055730 226 51 54 2619
1.0015578 -2.1301978 -0.41954836 447 17055730 256 52 95 2391
1.1166279 -2.1631896 -0.45747465 311 17055730 191 53 68 2477
1.2255906 -2.1751118 -0.49380356 305 17055730 197 54 57 2545
1.3420587 -2.1881919 -0.53439677 339 17055730 233 55 44 2622
0.99843401 -2.1266375 -0.50966507 423 17055730 245 56 94 2404
1.1292685 -2.1904907 -0.55877781 307 17055730 196 57 48 2527
1.2391351 -2.2001374 -0.59830129 324 17055730 218 58 49 2595
1.3675433 -2.2301805 -0.64741462 346 17055730 252 59 64 2695
1.0298308 -2.2001963 -0.6234175 324 17055730 204 60 42 2508
1.1311578 -2.1986761 -0.65938389 330 17055730 216 61 35 2559
1.2376076 -2.1984122 -0.69945395 319 17055730 218 62 42 2618
1.3716182 -2.2347248 -0.75637984 279 17055730 207 63 46 2729
0.93613201 -2.0059874 0.6909647 373 17154020 201 0 76 2319
1.0463128 -2.0359919 0.68707132 172 17154020 98 1 72 2390
1.0292075 -1.830207 0.60800582 33 17154020 16 2 25 2186
1.19146 -1.9436007 0.63681179 70 17154020 39 3 33 2367
0.92814869 -1.9862564 0.59225631 379 17154020 195 4 52 2271
1.0419202 -2.0296223 0.59201735 224 17154020 124 5 27 2357
1.1568772 -2.059088 0.58834326 56 17154020 33 6 61 2434
1.2590368 -2.0585108 0.57681984 15 17154020 9 7 43 2481
0.9644872 -2.0629888 0.52479649 305 17154020 166 8 57 2337
1.0761834 -2.0943863 0.51797348 22 17154020 13 9 29 2411
1.1402911 -2.0321412 0.48918286 121 17154020 68 10 50 2381
1.2271546 -2.010323 0.47148484 351 17154020 202 11 32 2402
0.95155901 -2.034503 0.43093258 250 17154020 131 12 71 2287
1.0591121 -2.0631115 0.42107257 225 17154020 125 13 38 2357
1.1392673 -2.0312302 0.39992902 334 17154020 187 14 88 2363
1.2466581 -2.0433962 0.38858926 379 17154020 223 15 53 2425
0.98646742 -2.1092355 0.35880914 31 17154020 17 16 37 2356
1.0328467 -2.0130718 0.32644466 269 17154020 141 17 58 2286
1.13433 -2.0249946 0.31249937 330 17154020 181 18 62 2342
1.2550631 -2.0600021 0.30161199 341 17154020 202 19 71 2431
0.93873203 -2.0072606 0.25893885 50 17154020 25 20 73 2231
1.0581611 -2.0632086 0.2483744 351 17154020 191 21 61 2332
1.1591022 -2.0715065 0.23145096 333 17154020 189 22 53 2385
1.2287945 -2.0193441 0.20842965 54 17154020 31 23 85 2373
0.96577728 -2.0661242 0.18261944 254 17154020 133 24 60 2288
1.0523925 -2.0532844 0.16267566 362 17154020 194 25 60 2313
1.1745545 -2.0992942 0.14658119 334 17154020 194 26 91 2410
1.3023012 -2.1430044 0.12909599 133 17154020 84 27 62 2511
0.95595425 -2.0477173 0.098233193 379 17154020 194 28 54 2262
1.0682589 -2.0860345 0.079425998 318 17154020 175 29 32 2345
1.1778042 -2.1097665 0.059600811 270 17154020 158 30 29 2417
1.3025748 -2.1452258 0.037498053 132 17154020 83 31 53 2510
0.96941501 -2.0768349 0.016001049 322 17154020 169 32 66 2292
1.0813127 -2.1134341 -0.0060079405 44 17154020 25 33 49 2374
1.149557 -2.0597591 -0.028161198 35 17154020 20 34 62 2359
1.3145118 -2.1680398 -0.054393273 162 17154020 104 35 60 2536
0.9734872 -2.0882208 -0.068420909 340 17154020 181 36 97 2305
1.0607622 -2.0770214 -0.091225371 153 17154020 83 37 52 2334
1.1819514 -2.1198893 -0.11815425 364 17154020 215 38 132 2430
1.3276438 -2.1896122 -0.14894782 318 17154020 210 39 62 2565
0.97266638 -2.0907464 -0.15303825 409 17154020 219 40 79 2311
1.0811611 -2.1193373 -0.1802696 354 17154020 202 41 64 2386
1.1872004 -2.1307023 -0.20824924 308 17154020 185 42 108 2448
1.3052247 -2.155267 -0.23911168 329 17154020 210 43 55 2531
0.98066479 -2.1098645 -0.24018812 414 17154020 227 44 72 2339
1.0684739 -2.0965459 -0.26510841 365 17154020 204 45 47 2368
1.2144325 -2.1822631 -0.3051849 303 17154020 192 46 86 2516
1.3136555 -2.1703851 -0.33499068 326 17154020 214 47 99 2559
0.97329837 -2.098614 -0.32466426 382 17154020 209 48 76 2336
1.088443 -2.1380346 -0.35996753 352 17154020 207 49 58 2426
1.2007583 -2.1603527 -0.39505005 317 17154020 198 50 43 2503
1.3241452 -2.1890957 -0.43419385 315 17154020 212 51 57 2595
0.97854644 -2.1148596 -0.41533709 414 17154020 232 52 87 2367
1.0926434 -2.1489749 -0.45304209 310 17154020 187 53 84 2453
1.2007898 -2.1620085 -0.48914689 301 17154020 192 54 58 2521
1.328607 -2.1963854 -0.53439677 334 17154020 229 55 50 2622
0.9853664 -2.1327238 -0.50966507 405 17154020 234 56 87 2404
1.0999107 -2.1660745 -0.55081743 309 17154020 191 57 53 2491
1.2312796 -2.2179084 -0.60106802 307 17154020 208 58 49 2607
1.3478053 -2.2285621 -0.64453185 352 17154020 254 59 68 2683
1.0017231 -2.1748018 -0.61446893 352 17154020 215 60 39 2472
1.1176456 -2.2055752 -0.65938389 334 17154020 219 61 36 2559
1.2240951 -2.2059646 -0.69945395 326 17154020 223 62 43 2618
1.3519095 -2.2332356 -0.7530539 252 17154020 186 63 44 2717
0.90946478 -1.9804642 0.68023825 384 17253080 200 0 47 2283
1.0078473 -1.9911007 0.66982269 368 17253080 200 1 58 2330
1.101779 -1.987708 0.65807033 35 17253080 19 2 29 2366
1.1974512 -1.9805458 0.64649713 199 17253080 115 3 18 2403
0.91110384 -1.9813886 0.58912677 393 17253080 200 4 55 2259
1.0346882 -2.0463431 0.5950315 220 17253080 123 5 27 2369
1.1272974 -2.0355885 0.5796414 158 17253080 91 6 73 2398
1.1378702 -1.8863108 0.5266009 16 17253080 8 7 47 2265
0.93226141 -2.0263751 0.51401764 389 17253080 204 8 67 2289
1.0527277 -2.0800366 0.51281738 29 17253080 16 9 22 2387
1.1334847 -2.0493765 0.49164829 95 17253080 54 10 45 2393
1.2147963 -2.0178149 0.47148484 414 17253080 239 11 25 2402
0.93905765 -2.0403032 0.43093258 245 17253080 128 12 77 2287
1.0038122 -1.9852781 0.40392241 76 17253080 39 13 49 2261
1.1096162 -2.0071311 0.39383614 309 17253080 167 14 68 2327
1.2218827 -2.0307083 0.38474339 381 17253080 220 15 62 2401
0.95863152 -2.0829275 0.35332647 186 17253080 100 16 30 2320
1.0365458 -2.0511723 0.3315855 214 17253080 115 17 54 2322
1.1333803 -2.0527391 0.31570178 384 17253080 215 18 50 2366
1.2485323 -2.0778706 0.30310079 360 17253080 215 19 54 2443
0.87656933 -1.9047092 0.24501115 39 17253080 17 20 51 2111
1.0293421 -2.0377123 0.24454014 345 17253080 182 21 73 2296
1.1348339 -2.057663 0.22912188 339 17253080 189 22 53 2361
1.2901942 -2.1498404 0.22107773 116 17253080 74 23 96 2517
0.9430843 -2.0502768 0.18070385 243 17253080 125 24 58 2264
1.0505627 -2.0810747 0.16436359 347 17253080 190 25 58 2337
1.1385148 -2.0645072 0.14366174 334 17253080 186 26 91 2362
1.2644845 -2.1098373 0.12662819 34 17253080 21 27 72 2463
0.93836701 -2.0426502 0.097712062 386 17253080 195 28 55 2250
1.0446372 -2.0711336 0.07861311 341 17253080 183 29 42 2321
1.17062 -2.1274641 0.059896722 336 17253080 198 30 28 2429
1.2585653 -2.1017075 0.036601685 291 17253080 175 31 63 2450
0.96667093 -2.104553 0.0161686 336 17253080 180 32 82 2316
1.0791247 -2.1414614 -0.0060686776 220 17253080 126 33 50 2398
1.1021972 -2.0036931 -0.027301678 46 17253080 24 34 55 2287
1.2642422 -2.1142838 -0.052848991 147 17253080 90 35 59 2464
0.96065581 -2.0941548 -0.068420909 337 17253080 179 36 102 2305
1.0479978 -2.0834911 -0.091225371 119 17253080 65 37 48 2334
1.1804668 -2.1481104 -0.11932121 357 17253080 215 38 99 2454
1.3203318 -2.207999 -0.14964466 284 17253080 189 39 61 2577
0.9598195 -2.0966754 -0.15303825 394 17253080 211 40 75 2311
1.0681368 -2.1259313 -0.1802696 358 17253080 204 41 83 2386
1.1625935 -2.1169863 -0.20620757 355 17253080 209 42 119 2424
1.2797246 -2.1427226 -0.23684433 348 17253080 218 43 48 2507
0.97266507 -2.1266971 -0.24142037 413 17253080 228 44 90 2351
1.0662884 -2.1243775 -0.26779535 356 17253080 204 45 61 2392
1.1952914 -2.1792302 -0.30372936 319 17253080 200 46 90 2504
1.3003135 -2.1784048 -0.33499068 317 17253080 208 47 82 2559
0.96533674 -2.1153574 -0.32633203 411 17253080 227 48 72 2348
1.0699849 -2.1340642 -0.35818696 351 17253080 204 49 41 2414
1.181787 -2.1572876 -0.39315611 346 17253080 214 50 57 2491
1.3106883 -2.1971793 -0.43419385 339 17253080 228 51 42 2595
0.9606564 -2.1100721 -0.41323143 406 17253080 225 52 71 2355
1.0741564 -2.1450934 -0.45082584 290 17253080 173 53 68 2441
1.1931539 -2.179662 -0.49147522 303 17253080 195 54 59 2533
1.3331616 -2.2347639 -0.54173398 339 17253080 239 55 48 2658
0.97226173 -2.1387298 -0.50966507 390 17253080 225 56 114 2404
1.0865992 -2.1727827 -0.55081743 315 17253080 196 57 70 2491
1.2008332 -2.1946907 -0.59276789 319 17253080 211 58 37 2571
1.3221718 -2.2167816 -0.63876641 368 17253080 260 59 57 2659
0.97876418 -2.1597335 -0.60850322 423 17253080 253 60 27 2448
1.0937365 -2.1916423 -0.65319973 321 17253080 206 61 34 2535
1.2049879 -2.2032886 -0.69624794 344 17253080 233 62 49 2606
1.3322709 -2.2315886 -0.74972796 290 17253080 212 63 44 2705
0.90201217 -1.9964464 0.68381375 371 17349440 195 0 56 2295
0.98022836 -1.9663885 0.65947354 410 17349440 216 1 71 2294
1.0343009 -1.8932763 0.62469399 27 17349440 13 2 35 2246
1.1675193 -1.9580753 0.63681179 255 17349440 143 3 13 2367
0.91325474 -2.0186062 0.59851527 383 17349440 202 4 71 2295
1.0169352 -2.0422556 0.59201735 174 17349440 97 5 16 2357
1.075736 -1.9709213 0.55933702 123 17349440 66 6 59 2314
1.1561096 -1.9434096 0.54055059 17 17349440 9 7 41 2325
0.91016608 -2.0107512 0.50862819 356 17349440 183 8 62 2265
1.029489 -2.0654786 0.50766128 134 17349440 75 9 37 2363
1.0984052 -2.0150466 0.48178655 364 17349440 200 10 35 2345
1.2083993 -2.0353484 0.47384027 391 17349440 228 11 53 2414
0.92652088 -2.0460269 0.43093258 228 17349440 119 12 80 2287
0.96529758 -1.9385545 0.39320356 48 17349440 23 13 38 2201
1.1085967 -2.0346725 0.39789805 227 17349440 126 14 76 2351
1.227533 -2.0687273 0.39051214 400 17349440 237 15 48 2437
0.93115616 -2.0563583 0.34784383 201 17349440 105 16 25 2284
1.018649 -2.0468609 0.32987189 226 17349440 121 17 61 2310
1.1150793 -2.0492084 0.31410056 361 17349440 200 18 50 2354
1.2296892 -2.0752487 0.30161199 375 17349440 221 19 57 2431
0.92877817 -2.0512021 0.26311716 29 17349440 15 20 68 2267
1.0380771 -2.0867214 0.24965249 343 17349440 189 21 73 2344
1.1278907 -2.0750809 0.23028642 346 17349440 195 22 58 2373
1.2343619 -2.0857067 0.21369967 379 17349440 225 23 97 2433
0.92062241 -2.0342293 0.17878824 109 17349440 55 24 62 2240
1.0217874 -2.0553255 0.16183168 348 17349440 184 25 54 2301
1.1201061 -2.0609303 0.14293186 355 17349440 196 26 83 2350
1.2088325 -2.0453377 0.12230958 48 17349440 27 27 68 2379
0.92087829 -2.0374448 0.097190939 393 17349440 197 28 47 2238
1.0319093 -2.0775044 0.07861311 290 17349440 156 29 40 2321
1.1575441 -2.1346066 0.059896722 315 17349440 186 30 49 2429
1.2456458 -2.1093903 0.036601685 297 17349440 179 31 59 2450
0.9487977 -2.0995097 0.016084826 301 17349440 160 32 68 2304
1.0392933 -2.0942967 -0.0059168343 325 17349440 177 33 53 2338
1.1184753 -2.0631621 -0.028017944 102 17349440 56 34 64 2347
1.2512454 -2.1220012 -0.052848991 161 17349440 98 35 65 2464
0.96259099 -2.1328082 -0.069489516 322 17349440 177 36 104 2341
1.0511611 -2.1221168 -0.092632443 162 17349440 91 37 52 2370
1.1444324 -2.1131554 -0.1169873 342 17349440 198 38 113 2406
1.2702488 -2.1541433 -0.14546366 288 17349440 181 39 77 2505
0.94693643 -2.1025252 -0.15303825 409 17349440 219 40 70 2311
1.0550722 -2.1324451 -0.1802696 334 17349440 190 41 94 2386
1.143891 -2.113565 -0.20518675 384 17349440 223 42 130 2412
1.266553 -2.1505344 -0.23684433 339 17349440 213 43 46 2507
0.94000572 -2.0890839 -0.23649134 390 17349440 207 44 51 2303
1.0532334 -2.1308801 -0.26779535 396 17349440 226 45 56 2392
1.1649052 -2.1550877 -0.29936263 333 17349440 203 46 100 2468
1.2869226 -2.1863422 -0.33499068 321 17349440 210 47 93 2559
0.95233899 -2.1212406 -0.32633203 395 17349440 218 48 87 2348
1.0621241 -2.1512303 -0.35996753 342 17349440 201 49 70 2426
1.168528 -2.1644983 -0.39315611 313 17349440 194 50 41 2491
1.2791864 -2.1745882 -0.42817035 318 17349440 208 51 51 2559
0.95734924 -2.1374905 -0.41744274 418 17349440 237 52 80 2379
1.0557584 -2.1410663 -0.44860956 352 17349440 208 53 73 2429
1.1685791 -2.1662207 -0.48681852 303 17349440 191 54 68 2509
1.2836835 -2.1821461 -0.5270595 323 17349440 216 55 46 2586
0.9495452 -2.1232443 -0.50457692 388 17349440 220 56 100 2380
1.0784169 -2.1899078 -0.55347085 293 17349440 183 57 56 2503
1.1928861 -2.2122955 -0.59553462 305 17349440 203 58 45 2583
1.3026396 -2.2148118 -0.63588363 362 17349440 254 59 64 2647
0.96549392 -2.1656985 -0.60850322 439 17349440 263 60 44 2448
1.0751545 -2.1879058 -0.65010768 343 17349440 218 61 23 2523
1.1749871 -2.1801023 -0.68662977 323 17349440 213 62 35 2570
1.3127036 -2.2297854 -0.74640197 318 17349440 230 63 46 2693
0.88044077 -1.9810082 0.67666274 389 17447780 201 0 68 2271
0.96814442 -1.9723661 0.65947354 407 17447780 214 1 64 2294
1.0499841 -1.9503329 0.6413821 56 17447780 30 2 30 2306
1.1496248 -1.9552392 0.63358331 157 17447780 87 3 51 2355
0.89143097 -2.0030041 0.59225631 366 17447780 189 4 64 2271
0.98904437 -2.0171695 0.58297509 372 17447780 200 5 38 2321
1.0139806 -1.8851907 0.53323144 129 17447780 63 6 79 2206
1.1146365 -1.9001322 0.5266009 20 17447780 10 7 40 2265
0.8930546 -2.0056157 0.50593346 354 17447780 180 8 62 2253
1.0064689 -2.0507147 0.50250518 233 17447780 127 9 50 2339
1.0860205 -2.0217483 0.48178655 143 17447780 78 10 42 2345
1.1780536 -2.0122614 0.4667739 382 17447780 216 11 31 2378
0.91394925 -2.0516734 0.43093258 198 17447780 104 12 71 2287
0.96897829 -1.9762444 0.39963484 37 17447780 18 13 31 2237
1.0960913 -2.0414364 0.39789805 246 17447780 136 14 74 2351
1.190889 -2.0353265 0.38282052 391 17447780 223 15 58 2389
0.90404344 -2.0295317 0.34236118 259 17447780 131 16 34 2248
1.0008441 -2.0424073 0.32815829 208 17447780 110 17 63 2298
1.0912443 -2.0350502 0.31089821 372 17447780 202 18 46 2330
1.2169325 -2.0827549 0.30161199 374 17447780 221 19 68 2431
0.92102432 -2.06775 0.26450992 72 17447780 37 20 53 2279
0.99901003 -2.0394752 0.24326208 205 17447780 107 21 62 2284
1.115137 -2.0819623 0.23028642 339 17447780 191 22 54 2373
1.2155161 -2.082917 0.21264565 362 17447780 212 23 108 2421
0.88866353 -1.9961292 0.17495708 35 17447780 17 24 37 2192
1.0144199 -2.0723076 0.16267566 323 17447780 173 25 64 2313
1.1187493 -2.0888817 0.1443916 338 17447780 191 26 85 2374
1.2203962 -2.0941331 0.12477735 42 17447780 25 27 67 2427
0.92297113 -2.0759211 0.098754331 380 17447780 197 28 58 2274
1.0138733 -2.0730233 0.078206666 326 17447780 174 29 28 2309
1.1387707 -2.1310885 0.059600811 310 17447780 181 30 44 2417
1.1904161 -2.0444112 0.035346773 31 17447780 18 31 64 2366
0.940772 -2.116257 0.0161686 318 17447780 171 32 74 2316
1.015887 -2.079071 -0.0058560972 327 17447780 175 33 62 2314
1.0944873 -2.0488188 -0.027731439 261 17447780 141 34 71 2323
1.2623222 -2.1711252 -0.053878512 306 17447780 193 35 41 2512
0.93488497 -2.1057858 -0.068420909 335 17447780 178 36 105 2305
1.0276077 -2.1069722 -0.091694392 341 17447780 187 37 57 2346
1.1201586 -2.0989892 -0.11582035 369 17447780 209 38 92 2382
1.2509857 -2.1515405 -0.14476684 311 17447780 194 39 82 2493
0.92916781 -2.0973485 -0.15224358 386 17447780 204 40 74 2299
1.0210062 -2.0958502 -0.17664304 356 17447780 195 41 90 2338
1.1252745 -2.1099939 -0.20416592 377 17447780 217 42 131 2400
1.2473345 -2.1479344 -0.23571065 325 17447780 202 43 36 2495
0.94166297 -2.127558 -0.24018812 398 17447780 218 44 77 2339
1.0401387 -2.1373026 -0.26779535 352 17447780 201 45 50 2392
1.15166 -2.1621947 -0.29936263 331 17447780 202 46 90 2468
1.2675115 -2.1839085 -0.33341983 332 17447780 215 47 108 2547
0.92010325 -2.0835614 -0.31966087 377 17447780 200 48 61 2300
1.0385278 -2.1363611 -0.35640642 332 17447780 191 49 56 2402
1.1440946 -2.1507044 -0.38936815 327 17447780 199 50 44 2467
1.2658192 -2.1823962 -0.42817035 321 17447780 211 51 63 2559
0.92516476 -2.1000795 -0.40902019 401 17447780 218 52 82 2331
1.0271488 -2.1156762 -0.44196075 384 17447780 220 53 83 2393
1.1607908 -2.1837449 -0.48914689 337 17447780 214 54 57 2521
1.2643754 -2.1798191 -0.52461374 335 17447780 222 55 43 2574
0.93649936 -2.1290307 -0.50457692 416 17447780 235 56 57 2380
1.059854 -2.1859531 -0.55081743 299 17447780 186 57 62 2491
1.1738105 -2.2092617 -0.59276789 326 17447780 215 58 41 2571
1.2831815 -2.2126863 -0.63300097 329 17447780 228 59 51 2635
0.94285202 -2.1502919 -0.60253745 453 17447780 266 60 40 2424
1.0516101 -2.1735868 -0.64392352 337 17447780 210 61 26 2499
1.1670119 -2.1974835 -0.68983579 315 17447780 210 62 37 2582
1.2816322 -2.2078831 -0.73642403 290 17447780 204 63 49 2657
0.86826897 -1.9863732 0.67666274 377 17544440 194 0 54 2271
0.96602595 -1.9989661 0.66637295 371 17544440 200 1 89 2318
1.0325959 -1.9465563 0.63804454 167 17544440 88 2 28 2294
1.1781831 -2.0322478 0.65618247 157 17544440 93 3 28 2439
0.86518806 -1.9765981 0.5828678 372 17544440 186 4 78 2235
0.96150029 -1.9918191 0.57393283 400 17544440 209 5 25 2285
0.986036 -1.8605112 0.52452952 175 17544440 83 6 60 2170
1.0620521 -1.8362148 0.50707132 24 17544440 11 7 37 2181
0.87134963 -1.9896349 0.50054401 370 17544440 184 8 72 2229
0.99386704 -2.0568516 0.50250518 224 17544440 122 9 39 2339
1.0735948 -2.028374 0.48178655 17 17544440 9 10 36 2345
1.1715668 -2.0296426 0.46912938 378 17544440 216 11 28 2390
0.88715506 -2.0248592 0.42414922 216 17544440 110 12 84 2251
1.028693 -2.1310139 0.42964768 36 17544440 21 13 44 2405
1.0669527 -2.0167613 0.39180517 200 17544440 107 14 71 2315
1.1547019 -2.0015552 0.37512884 389 17544440 213 15 56 2341
0.89157349 -2.0350406 0.34236118 240 17544440 121 16 36 2248
0.95732844 -1.9843268 0.31787655 57 17544440 28 17 73 2226
1.0842927 -2.0522227 0.31249937 350 17544440 192 18 42 2342
1.1922423 -2.0695472 0.29863429 357 17544440 207 19 68 2407
0.90831953 -2.0733624 0.26450992 258 17544440 134 20 62 2279
0.9864772 -2.0455666 0.24326208 286 17544440 149 21 68 2284
1.0967668 -2.0782027 0.22912188 346 17544440 193 22 53 2361
1.1907899 -2.0696142 0.21053766 364 17544440 209 23 108 2397
0.89558995 -2.0453737 0.17878824 26 17544440 13 24 47 2240
1.0016854 -2.0784929 0.16267566 328 17544440 176 25 63 2313
1.1170913 -2.1168935 0.14585131 334 17544440 192 26 94 2398
1.2015533 -2.0911911 0.12416042 309 17544440 180 27 71 2415
0.90541285 -2.0705609 0.098233193 240 17544440 123 28 61 2262
1.0115404 -2.100817 0.079019561 310 17544440 169 29 32 2333
1.1200845 -2.1274209 0.059304908 310 17544440 179 30 33 2405
1.1659017 -2.0308652 0.034988221 43 17544440 23 31 50 2342
0.91815495 -2.0999999 0.016001049 301 17544440 158 32 76 2292
1.0083129 -2.0960791 -0.0058864662 367 17544440 199 33 61 2326
1.0148299 -1.9280781 -0.0260124 500 17544440 238 34 80 2179
1.2131779 -2.116379 -0.052334223 386 17544440 230 35 64 2440
0.9075473 -2.078505 -0.067352295 334 17544440 172 36 126 2269
1.0094701 -2.1024282 -0.091225371 332 17544440 181 37 42 2334
1.1184145 -2.1270401 -0.1169873 370 17544440 214 38 128 2406
1.2139289 -2.1176035 -0.14197952 311 17544440 186 39 71 2445
0.90671587 -2.0810561 -0.15065427 386 17544440 200 40 78 2275
1.0029529 -2.0912864 -0.17573641 329 17544440 178 41 77 2326
1.1178682 -2.1274431 -0.20518675 383 17544440 223 42 96 2412
1.2281958 -2.1451802 -0.23457696 318 17544440 196 43 51 2483
0.91429865 -2.1004617 -0.23649134 385 17544440 204 44 76 2303
1.0115483 -2.1113822 -0.26376498 371 17544440 206 45 45 2356
1.1273011 -2.1481259 -0.29645148 375 17544440 224 46 87 2444
1.2481788 -2.1813188 -0.33184892 306 17544440 197 47 92 2535
0.92150271 -2.1218677 -0.32466426 395 17544440 216 48 72 2336
1.0151544 -2.121284 -0.35284531 347 17544440 196 49 49 2378
1.1418782 -2.1786749 -0.39315611 286 17544440 177 50 49 2491
1.2406586 -2.1695817 -0.4241547 312 17544440 200 51 54 2535
0.91695786 -2.1165571 -0.41112581 402 17544440 221 52 67 2343
1.0039768 -2.1006575 -0.43752825 386 17544440 217 53 76 2369
1.1528313 -2.2012546 -0.49147522 280 17544440 180 54 64 2533
1.2509766 -2.1875362 -0.52461374 337 17544440 223 55 50 2574
0.90945053 -2.1024468 -0.4969447 402 17544440 221 56 92 2344
1.0212165 -2.1396072 -0.53755003 273 17544440 161 57 49 2431
1.1385714 -2.1750422 -0.58170104 312 17544440 198 58 43 2523
1.2580171 -2.2002933 -0.62723541 353 17544440 241 59 61 2611
0.93884474 -2.1773837 -0.60850322 449 17544440 269 60 32 2448
1.0432391 -2.1904669 -0.64701563 321 17544440 202 61 36 2511
1.1535063 -2.204603 -0.68983579 324 17544440 216 62 38 2582
1.2737879 -2.2257125 -0.73975003 306 17544440 218 63 45 2669
0.85606444 -1.9916633 0.67666274 400 17643450 206 0 55 2271
0.93893009 -1.9737192 0.65602374 390 17643450 203 1 71 2282
1.0366495 -1.983502 0.64805746 91 17643450 49 2 30 2330
1.1484855 -2.0093362 0.64649713 259 17643450 149 3 28 2403
0.85304356 -1.9818697 0.5828678 378 17643450 189 4 56 2235
0.95424581 -2.0081725 0.57694691 376 17643450 198 5 38 2297
1.0177176 -1.9491009 0.5477345 126 17643450 65 6 67 2266
1.1374861 -1.9947765 0.54892039 66 17643450 37 7 39 2361
0.86375028 -2.0056839 0.5032388 356 17643450 179 8 77 2241
0.98122776 -2.0629113 0.50250518 206 17643450 113 9 41 2339
1.1154296 -2.139056 0.50644088 17 17643450 10 10 30 2465
1.1532713 -2.0265665 0.4667739 243 17643450 137 11 36 2378
0.86538786 -2.0086179 0.41962692 393 17643450 195 12 106 2227
0.96999103 -2.0413077 0.41035372 222 17643450 117 13 31 2297
1.0600245 -2.0337579 0.39383614 227 17643450 123 14 68 2327
1.1482549 -2.0188987 0.37705177 383 17643450 212 15 57 2353
0.87437731 -2.0295806 0.34053361 228 17643450 114 16 37 2236
0.9196595 -1.9365203 0.30930847 39 17643450 19 17 59 2166
1.0661889 -2.0482881 0.31089821 346 17643450 188 18 58 2330
1.16188 -2.0457618 0.29416782 349 17643450 196 19 66 2371
0.88143355 -2.0460575 0.2603316 199 17643450 100 20 83 2243
0.96879041 -2.040802 0.24198398 204 17643450 105 21 82 2272
1.0729756 -2.0637 0.22679281 356 17643450 194 22 57 2337
1.1780686 -2.0768816 0.21053766 364 17643450 209 23 100 2397
0.89721435 -2.0837903 0.18166164 22 17643450 11 24 52 2276
0.97865194 -2.0629699 0.1609877 331 17643450 174 25 64 2289
1.0819813 -2.0811987 0.14293186 314 17643450 173 26 89 2350
1.1827929 -2.0880966 0.12354347 347 17643450 201 27 65 2403
0.85006917 -1.9769543 0.093543015 52 17643450 24 28 58 2154
0.98835784 -2.085309 0.078206666 302 17643450 161 29 41 2309
1.1014862 -2.1236043 0.059008997 311 17643450 178 30 35 2393
1.1829681 -2.0901923 0.035884593 55 17643450 32 31 45 2402
0.90525228 -2.1055942 0.016001049 309 17643450 163 32 73 2292
0.99029708 -2.0913808 -0.0058560972 696 17643450 373 33 61 2314
1.0968803 -2.1153567 -0.028447704 537 17643450 305 34 72 2383
1.1883644 -2.1028936 -0.051819462 126 17643450 74 35 66 2416
0.89950895 -2.0950563 -0.0677085 332 17643450 173 36 103 2281
0.98630351 -2.0869007 -0.09028732 325 17643450 173 37 49 2310
1.0998293 -2.1232197 -0.11640382 321 17643450 184 38 101 2394
1.2068067 -2.1354415 -0.14267634 360 17643450 217 39 57 2457
0.89864498 -2.0975869 -0.15144894 361 17643450 189 40 87 2287
0.99010211 -2.0974011 -0.17573641 334 17643450 181 41 74 2326
1.0883039 -2.1024075 -0.20212427 394 17643450 222 42 113 2376
1.2267542 -2.1734831 -0.23684433 305 17643450 191 43 47 2507
0.89669645 -2.0950584 -0.23525907 397 17643450 209 44 85 2291
0.99857402 -2.1175492 -0.26376498 339 17643450 188 45 41 2356
1.0976887 -2.1232595 -0.29208478 392 17643450 227 46 95 2408
1.2406162 -2.1992981 -0.33341983 324 17643450 210 47 116 2547
0.89446545 -2.0946956 -0.31966087 402 17643450 213 48 73 2300
1.0122333 -2.1489446 -0.35640642 336 17643450 194 49 44 2402
1.1121796 -2.1540534 -0.38747421 332 17643450 200 50 51 2455
1.2273229 -2.1771533 -0.4241547 354 17643450 228 51 61 2535
0.88543469 -2.0786681 -0.40270326 422 17643450 222 52 90 2295
1.0011089 -2.1281216 -0.44196075 385 17643450 221 53 72 2393
1.1447003 -2.2187483 -0.49380356 309 17643450 200 54 58 2545
1.2317611 -2.184937 -0.52216792 331 17643450 217 55 48 2562
0.90571254 -2.1295707 -0.50203282 411 17643450 231 56 91 2368
1.0130448 -2.1564252 -0.54020345 360 17643450 215 57 69 2443
1.1198524 -2.1716094 -0.57893431 340 17643450 214 58 41 2511
1.238773 -2.1978233 -0.62435275 358 17643450 242 59 44 2599
0.90278381 -2.1295958 -0.59358889 425 17643450 242 60 42 2388
1.0248578 -2.1863282 -0.64392352 329 17643450 205 61 34 2499
1.1399574 -2.2116392 -0.68983579 319 17643450 212 62 35 2582
1.2544416 -2.2234445 -0.73642403 302 17643450 213 63 35 2657
0.83491015 -1.9757756 0.6695118 358 17741190 180 0 53 2247
0.92192835 -1.9690343 0.65257406 411 17741190 212 1 77 2270
1.0561166 -2.0513136 0.66808325 67 17741190 38 2 31 2402
1.1134405 -1.9760687 0.63358331 175 17741190 97 3 34 2355
0.84538174 -1.9977354 0.58599734 383 17741190 194 4 65 2247
0.93206441 -1.9929467 0.57091874 374 17741190 193 5 37 2273
1.0856299 -2.1106291 0.59124392 120 17741190 72 6 72 2446
1.1423821 -2.0322402 0.55729026 85 17741190 49 7 37 2397
0.84686816 -2.0001779 0.50054401 363 17741190 181 8 69 2229
0.95861328 -2.0476644 0.49734905 177 17741190 95 9 51 2315
0.98422974 -1.9160396 0.4522014 54 17741190 26 10 33 2201
1.1235443 -2.0028183 0.4597075 262 17741190 144 11 31 2342
0.84385377 -1.9921868 0.41510469 355 17741190 172 12 106 2203
0.95744753 -2.0472209 0.41035372 245 17741190 129 13 38 2297
1.0313197 -2.0086603 0.38774329 217 17741190 114 14 72 2291
1.1358455 -2.0259063 0.37705177 371 17741190 205 15 51 2353
0.85728204 -2.0239868 0.33870608 241 17741190 119 16 33 2224
0.86752683 -1.8560493 0.29559949 46 17741190 20 17 47 2070
1.0481745 -2.0442088 0.309297 241 17741190 129 18 50 2318
1.1609392 -2.0736322 0.29714549 376 17741190 216 19 70 2395
0.86886257 -2.0514274 0.2603316 225 17741190 113 20 65 2243
0.95625001 -2.0467081 0.24198398 102 17741190 53 21 75 2272
1.0657372 -2.0808752 0.22795735 332 17741190 183 22 43 2349
1.1536354 -2.0632043 0.20842965 355 17741190 200 23 108 2373
0.90772653 -2.1443334 0.18645062 171 17741190 93 24 53 2336
0.97103947 -2.0797822 0.16183168 312 17741190 165 25 61 2301
1.0637312 -2.0771372 0.142202 320 17741190 175 26 92 2338
1.1699582 -2.0953147 0.12354347 349 17741190 202 27 85 2403
0.81458241 -1.9269204 0.090937361 43 17741190 19 28 45 2094
0.97554398 -2.0913341 0.078206666 277 17741190 148 29 31 2309
