# .PCD v0.7 - Point Cloud Data file format
VERSION 0.7
FIELDS x y z intensity t reflectivity ring noise range
SIZE 4 4 4 4 4 2 1 2 4
TYPE F F F F U U U U U
COUNT 1 1 1 1 1 1 1 1 1
WIDTH 807
HEIGHT 1
VIEWPOINT 0 0 0 1 0 0 0
POINTS 807
DATA ascii
4.998023 -0.65284467 -0.29319203 263 2922650 671 39 95 5049
0.98386204 -0.24025589 -0.067214988 36 2922650 4 40 97 1015
4.1936131 -0.86417234 -0.3244248 94 2922650 173 41 163 4294
4.4569759 -0.74951094 -0.38587359 313 2922650 643 42 153 4536
4.8198729 -0.63222706 -0.46131268 279 2922650 666 43 73 4883
3.8253305 -0.93554825 -0.40654328 335 2922650 525 44 118 3959
4.0328708 -0.83273613 -0.46393973 318 2922650 547 45 76 4144
4.2949095 -0.72456956 -0.5322541 340 2922650 655 46 114 4388
4.6149163 -0.60648984 -0.61460775 291 2922650 641 47 122 4695
3.7008021 -0.9083792 -0.53480655 355 2922650 526 48 94 3848
3.9414363 -0.81564933 -0.60390264 322 2922650 534 49 73 4070
4.1778073 -0.70706391 -0.67725122 353 2922650 651 50 68 4291
4.4484286 -0.58587378 -0.76147062 346 2922650 718 51 63 4551
3.5587976 -0.87688291 -0.65327418 369 2922650 511 52 134 3723
3.8039901 -0.78921396 -0.73007554 331 2922650 518 53 93 3953
4.0283451 -0.6830703 -0.80813032 286 2922650 496 54 92 4165
4.3037744 -0.56674588 -0.90370518 301 2922650 593 55 64 4434
3.4534764 -0.85297805 -0.77170593 338 2922650 448 56 121 3640
3.6731429 -0.76407337 -0.85066015 306 2922650 453 57 72 3847
3.8939314 -0.6610474 -0.93584007 298 2922650 492 58 62 4059
4.1873879 -0.55179125 -1.0452323 310 2922650 587 59 92 4351
3.3842986 -0.84009188 -0.89485765 410 2922650 531 60 43 3600
3.5780265 -0.74741536 -0.97477508 382 2922650 546 61 42 3783
3.7754004 -0.64167094 -1.061738 301 2922650 476 62 62 3974
4.0172834 -0.52766395 -1.1687994 248 2922650 440 63 56 4217
2.2256536 -0.55518341 0.71599323 134 3019680 78 0 70 2403
1.9592983 -0.41019094 0.60082811 152 3019680 67 1 91 2090
1.8540047 -0.31599298 0.54459071 123 3019680 47 2 44 1958
1.7101513 -0.2255841 0.48184618 168 3019680 54 3 38 1791
1.9588715 -0.48758227 0.54531389 131 3019680 57 4 77 2091
1.8349504 -0.38499379 0.48652422 137 3019680 51 5 43 1937
1.7312464 -0.29575437 0.43751082 142 3019680 47 6 74 1810
1.6630995 -0.22109061 0.40105367 174 3019680 52 7 61 1725
1.8468596 -0.45932487 0.43856549 147 3019680 56 8 43 1953
1.7082199 -0.35771954 0.3839148 158 3019680 50 9 26 1787
1.63693 -0.28055361 0.3486532 158 3019680 46 10 67 1697
1.5064168 -0.20159937 0.30424708 157 3019680 38 11 45 1550
1.7107989 -0.42520043 0.33822647 155 3019680 50 12 62 1795
1.6110096 -0.3380084 0.29887757 153 3019680 43 13 46 1673
1.537691 -0.2638489 0.26791689 224 3019680 56 14 71 1583
1.4449838 -0.19373739 0.2366789 110 3019680 24 15 54 1477
1.0627387 -0.26415181 0.16874385 46 3019680 6 16 54 1108
1.5633433 -0.32837784 0.23048192 240 3019680 62 17 41 1614
1.4669914 -0.2525349 0.20041592 109 3019680 25 18 89 1502
1.6235812 -0.21869268 0.20483807 158 3019680 43 19 81 1651
1.0053562 -0.24990761 0.12105478 133 3019680 15 20 75 1043
1.0781342 -0.22663724 0.11800979 89 3019680 11 21 75 1108
1.6682954 -0.28799787 0.16507256 193 3019680 56 22 75 1701
1.5369887 -0.20787561 0.13675724 16 3019680 4 23 136 1557
0.93637007 -0.23295018 0.077262066 54 3019680 5 24 54 968
1.0161561 -0.21388647 0.073214591 72 3019680 8 25 72 1041
1.0957239 -0.18919422 0.067755789 53 3019680 7 26 126 1114
1.2260988 -0.16656913 0.063699692 10 3019680 2 27 92 1239
0.994591 -0.24795058 0.0445567 38 3019680 4 28 61 1026
1.0258427 -0.21629934 0.035530008 61 3019680 7 29 46 1049
1.0568601 -0.18350969 0.026459111 68 3019680 8 30 52 1073
1.7853096 -0.24320601 0.026920913 202 3019680 66 31 83 1802
0.97802818 -0.24387588 0.0070371106 32 3019680 3 32 95 1008
0.98427749 -0.20791212 -0.0025459093 58 3019680 6 33 67 1006
1.8274841 -0.3175483 -0.022144562 174 3019680 60 34 104 1855
1.8225809 -0.24948227 -0.039465152 205 3019680 69 35 81 1840
0.9668346 -0.24158663 -0.029594639 39 3019680 4 36 152 997
1.0263865 -0.21759301 -0.04103969 36 3019680 4 37 46 1050
1.8833755 -0.32807294 -0.093064703 201 3019680 74 38 102 1914
4.9464469 -0.67700177 -0.29040471 256 3019680 641 39 80 5001
1.1449684 -0.28705317 -0.078340225 19 3019680 3 40 99 1183
1.742008 -0.37013024 -0.13493776 115 3019680 37 41 92 1786
4.4405146 -0.77478915 -0.38485274 292 3019680 597 42 158 4524
4.7448921 -0.65203118 -0.4545106 293 3019680 679 43 73 4811
3.7384777 -0.93865484 -0.39791745 365 3019680 548 44 98 3875
3.9810326 -0.8475337 -0.45856592 324 3019680 544 45 79 4096
4.2669172 -0.74680197 -0.52934301 361 3019680 688 46 123 4364
4.5639663 -0.62830514 -0.60832429 341 3019680 736 47 133 4647
3.649065 -0.91945565 -0.52813536 375 3019680 542 48 111 3800
3.8783274 -0.82743758 -0.59499991 349 3019680 562 49 69 4010
4.1383767 -0.72653812 -0.67156929 323 3019680 586 50 65 4255
4.4095907 -0.60830754 -0.75544715 317 3019680 647 51 66 4515
3.5189905 -0.89001268 -0.64695728 385 3019680 524 52 99 3687
3.7529452 -0.80267358 -0.72121054 339 3019680 517 53 101 3905
4.0008903 -0.70369655 -0.80347371 348 3019680 597 54 87 4141
4.288578 -0.59153748 -0.90125948 293 3019680 574 55 70 4422
3.43681 -0.87127036 -0.76916182 366 3019680 482 56 132 3628
3.6569428 -0.78414333 -0.84800673 353 3019680 520 57 66 3835
3.8438029 -0.67682803 -0.92477322 330 3019680 530 58 56 4011
4.1377664 -0.57110351 -1.0337013 328 3019680 608 59 89 4303
3.3114984 -0.84362489 -0.87696046 378 3019680 470 60 32 3528
3.528033 -0.75959378 -0.96240675 369 3019680 514 61 47 3735
3.7486157 -0.66080922 -1.055326 292 3019680 456 62 73 3950
3.9682815 -0.54601705 -1.1554956 256 3019680 444 63 57 4169
2.2333026 -0.57166994 0.71956873 132 3117250 77 0 88 2415
2.0690932 -0.44644669 0.63532537 147 3117250 72 1 102 2210
1.8406805 -0.32535669 0.54125309 125 3117250 47 2 56 1946
1.7430815 -0.24081834 0.49153152 150 3117250 50 3 37 1827
2.0007403 -0.51106095 0.55783188 133 3117250 61 4 56 2139
1.8779655 -0.40606481 0.4985806 171 3117250 67 5 14 1985
1.7408648 -0.30840275 0.44041145 167 3117250 56 6 76 1822
1.650152 -0.22968206 0.39826372 173 3117250 51 7 53 1713
1.8893278 -0.48221576 0.4493444 155 3117250 62 8 64 2001
1.740361 -0.37561172 0.39164898 173 3117250 57 9 43 1823
1.6236149 -0.28853747 0.34618777 150 3117250 43 10 58 1685
1.528457 -0.21410339 0.30895802 155 3117250 38 11 34 1574
1.7195771 -0.43860236 0.3404876 169 3117250 55 12 89 1807
1.6319858 -0.35287762 0.30316508 145 3117250 42 13 37 1697
1.524399 -0.27120745 0.26588595 201 3117250 50 14 78 1571
1.5024178 -0.21083018 0.24629347 108 3117250 25 15 51 1537
1.0036377 -0.25601059 0.1596061 52 3117250 6 16 48 1048
1.5380826 -0.33293864 0.22705467 239 3117250 61 17 72 1590
1.5122451 -0.2698893 0.20682068 83 3117250 20 18 67 1550
1.6457903 -0.2319745 0.20781574 161 3117250 45 19 72 1675
1.0038038 -0.25607166 0.12105478 89 3117250 10 20 86 1043
1.0417395 -0.22566982 0.11417554 91 3117250 11 21 71 1072
1.5724441 -0.28139764 0.15575629 154 3117250 40 22 78 1605
1.5593557 -0.22065204 0.13886526 17 3117250 4 23 135 1581
1.0276427 -0.26236311 0.084924422 49 3117250 6 24 75 1064
1.0616177 -0.23026699 0.076590486 121 3117250 14 25 88 1089
1.0945424 -0.1959139 0.067755789 52 3117250 6 26 105 1114
1.1182693 -0.15891434 0.058147173 19 3117250 2 27 105 1131
1.0975826 -0.28079057 0.049246881 34 3117250 4 28 58 1134
0 -0 0 0 3117250 0 29 40 0
1.0439075 -0.18786624 0.026163204 133 3117250 15 30 62 1061
1.7719051 -0.2524634 0.026741639 193 3117250 62 31 89 1790
0.93001276 -0.23797368 0.0067020101 38 3117250 4 32 105 960
1.0064342 -0.21905175 -0.0026066466 42 3117250 4 33 72 1030
1.7192187 -0.30961508 -0.020855283 174 3117250 53 34 108 1747
1.8091396 -0.25896075 -0.039207771 211 3117250 71 35 87 1828
0.88400203 -0.2266607 -0.027101209 39 3117250 3 36 138 913
0.97817343 -0.2136519 -0.039163589 44 3117250 4 37 67 1002
1.8577368 -0.33536434 -0.091897756 209 3117250 75 38 124 1890
4.8354697 -0.69206434 -0.28413323 261 3117250 625 39 110 4893
1.0736086 -0.2761752 -0.073572263 22 3117250 3 40 89 1111
1.2020128 -0.26311424 -0.093232475 37 3117250 6 41 104 1234
4.3768482 -0.79138422 -0.37974861 336 3117250 669 42 163 4464
4.6935019 -0.67433727 -0.44997585 314 3117250 713 43 68 4763
3.7326479 -0.96157604 -0.39791745 327 3117250 491 44 132 3875
3.9524617 -0.86683577 -0.455879 339 3117250 563 45 71 4072
4.2270937 -0.76659274 -0.52497625 349 3117250 654 46 115 4328
4.5246983 -0.65121293 -0.60361159 312 3117250 663 47 150 4611
3.5743227 -0.9239834 -0.51812857 367 3117250 510 48 101 3728
3.8384058 -0.84357709 -0.58965826 347 3117250 549 49 64 3974
4.0638909 -0.73919362 -0.66020548 338 3117250 592 50 66 4183
4.3472266 -0.62690961 -0.745408 329 3117250 654 51 80 4455
3.4791577 -0.90268725 -0.64064038 390 3117250 520 52 115 3651
3.7249146 -0.82061148 -0.71677798 382 3117250 576 53 93 3881
3.9270098 -0.71557045 -0.78950363 343 3117250 568 54 89 4069
4.226728 -0.60945731 -0.88903064 311 3117250 593 55 68 4362
3.3973503 -0.88348728 -0.76152956 367 3117250 473 56 125 3592
3.5720694 -0.78890049 -0.82943237 345 3117250 486 57 79 3751
3.8166034 -0.69620955 -0.91923982 317 3117250 504 58 73 3987
4.0765381 -0.58816445 -1.0192876 349 3117250 629 59 69 4243
3.2950141 -0.86098951 -0.87397766 378 3117250 467 60 51 3516
3.4667065 -0.76867729 -0.94694638 339 3117250 457 61 53 3675
3.6876121 -0.67341107 -1.0392956 328 3117250 497 62 73 3890
3.9420314 -0.56707221 -1.1488436 282 3117250 485 63 65 4145
2.2408321 -0.58827108 0.72314417 117 3215050 69 0 97 2427
2.0438755 -0.45414793 0.62842596 151 3215050 72 1 99 2186
1.8953395 -0.34702435 0.55794126 127 3215050 51 2 58 2006
1.7873265 -0.25811693 0.50444531 162 3215050 57 3 33 1875
2.0648062 -0.54094315 0.57660884 115 3215050 56 4 90 2211
1.9321268 -0.43020222 0.51365107 149 3215050 62 5 20 2045
1.7962043 -0.32958621 0.45491457 118 3215050 42 6 86 1882
1.6718109 -0.24316265 0.40384361 184 3215050 55 7 53 1737
1.9202703 -0.50268334 0.45742854 135 3215050 56 8 57 2037
1.7380235 -0.38628331 0.39164898 151 3215050 50 9 26 1823
1.6680139 -0.30699745 0.35604951 150 3215050 45 10 44 1733
1.620255 -0.23710795 0.3278017 129 3215050 36 11 22 1670
1.7852616 -0.46704146 0.35405436 164 3215050 58 12 79 1879
1.664364 -0.37058285 0.30959642 137 3215050 41 13 35 1733
1.5575997 -0.28698492 0.27197883 136 3215050 35 14 117 1607
1.4424976 -0.21145497 0.2366789 114 3215050 25 15 64 1477
1.0135218 -0.26516587 0.16143365 60 3215050 7 16 31 1060
1.5012332 -0.33461809 0.22191381 226 3215050 55 17 59 1554
1.463782 -0.27051812 0.20041592 76 3215050 17 18 74 1502
1.5029721 -0.22125784 0.18994978 97 3215050 23 19 80 1531
0.95609075 -0.25015813 0.11548371 153 3215050 15 20 78 995
1.0519809 -0.23465523 0.11545363 94 3215050 11 21 78 1084
1.5824314 -0.29321671 0.15692084 177 3215050 46 22 98 1617
1.534322 -0.22672117 0.13675724 46 3215050 11 23 128 1557
1.0723 -0.28078383 0.088755608 34 3215050 4 24 82 1112
1.0017724 -0.22373107 0.072370619 124 3215050 13 25 61 1029
1.1522058 -0.21353962 0.071405113 52 3215050 7 26 108 1174
1.1172732 -0.16577293 0.058147173 33 3215050 4 27 96 1131
0.99147338 -0.26013708 0.0445567 37 3215050 4 28 69 1026
1.0231111 -0.22887173 0.035530008 56 3215050 6 29 41 1049
1.1017022 -0.20525391 0.027642744 100 3215050 13 30 34 1121
1.7109822 -0.25450414 0.025845272 208 3215050 62 31 57 1730
0.9981752 -0.26195133 0.0072046611 31 3215050 3 32 93 1032
0.96994239 -0.21735111 -0.0025155405 43 3215050 4 33 61 994
1.670103 -0.31136161 -0.02028227 104 3215050 30 34 88 1699
1.8312478 -0.27360216 -0.039722536 200 3215050 69 35 79 1852
0.87099421 -0.22903021 -0.026745005 29 3215050 2 36 99 901
0.96514535 -0.21701929 -0.038694564 58 3215050 6 37 56 990
1.8792077 -0.35116014 -0.093064703 240 3215050 88 38 144 1914
4.8192835 -0.71995121 -0.28343639 267 3215050 637 39 93 4881
1.0024282 -0.26443303 -0.068804301 34 3215050 4 40 89 1039
0.93189627 -0.20998733 -0.072379827 38 3215050 3 41 106 958
4.3366523 -0.81162649 -0.3766861 313 3215050 613 42 150 4428
4.6065764 -0.69072312 -0.44204015 311 3215050 681 43 89 4679
3.6920555 -0.97531509 -0.39422068 244 3215050 359 44 141 3839
3.9354372 -0.88844544 -0.45453557 337 3215050 556 45 63 4060
4.1637754 -0.78152847 -0.51769841 320 3215050 583 46 110 4268
4.4617939 -0.67012876 -0.59575719 315 3215050 652 47 115 4551
3.5570991 -0.94285285 -0.51646078 396 3215050 547 48 88 3716
3.7637091 -0.85140306 -0.57897496 338 3215050 515 49 78 3902
4.059279 -0.76411527 -0.66020548 341 3215050 597 50 84 4183
4.3082004 -0.64829051 -0.73938447 327 3215050 639 51 71 4419
3.4507198 -0.91794384 -0.63642907 379 3215050 499 52 116 3627
3.6623013 -0.83041191 -0.70569664 364 3215050 532 53 93 3821
3.8878407 -0.73310864 -0.78251857 344 3215050 560 54 91 4033
4.1880569 -0.63013673 -0.88169348 342 3215050 641 55 66 4326
3.3578711 -0.89525312 -0.75389731 352 3215050 445 56 121 3556
3.5671616 -0.81080341 -0.82943237 377 3215050 531 57 67 3751
3.7548892 -0.7087853 -0.9054063 304 3215050 469 58 74 3927
4.0152588 -0.60449576 -1.0048739 337 3215050 590 59 73 4183
3.2672138 -0.87517613 -0.86801189 356 3215050 434 60 55 3492
3.4506204 -0.78735477 -0.94385433 355 3215050 477 61 67 3663
3.6152344 -0.68314242 -1.0200592 315 3215050 460 62 59 3818
3.8928695 -0.58440262 -1.1355399 307 3215050 515 63 43 4097
2.2814264 -0.61391574 0.73744619 143 3310940 88 0 87 2475
2.0074375 -0.45899487 0.61807674 183 3310940 85 1 82 2150
1.9158248 -0.36293831 0.56461656 118 3310940 48 2 49 2030
1.785709 -0.26907891 0.50444531 155 3310940 54 3 30 1875
2.0950131 -0.56261623 0.58599734 113 3310940 57 4 80 2247
1.9181287 -0.43945545 0.51063693 164 3310940 68 5 31 2033
1.7712685 -0.33625782 0.44911331 154 3310940 53 6 90 1858
1.6356701 -0.24816397 0.39547381 168 3310940 48 7 52 1701
1.9171498 -0.51445645 0.45742854 153 3310940 64 8 67 2037
1.7927448 -0.41000476 0.40453923 151 3310940 53 9 36 1883
1.6776357 -0.31942302 0.35851496 164 3310940 50 10 66 1745
1.5606103 -0.23816931 0.31602439 149 3310940 39 11 39 1610
1.7595967 -0.47188163 0.34953213 154 3310940 53 12 72 1855
1.6735677 -0.38342497 0.31174019 161 3310940 49 13 17 1745
1.5325738 -0.29210809 0.26791689 137 3310940 34 14 84 1583
1.4762998 -0.22567157 0.24244764 92 3310940 21 15 42 1513
0.96605492 -0.25909084 0.15412346 63 3310940 6 16 36 1012
1.4528459 -0.33320317 0.21505934 156 3310940 35 17 85 1506
1.4620945 -0.27949464 0.20041592 79 3310940 18 18 83 1502
1.4780474 -0.2268628 0.18697213 80 3310940 18 19 85 1507
1.0005859 -0.2683706 0.12105478 99 3310940 11 20 95 1043
1.0272623 -0.23576751 0.11289746 85 3310940 10 21 69 1060
1.3460047 -0.25796038 0.13363017 120 3310940 23 22 81 1377
1.6274163 -0.25069049 0.1451893 123 3310940 34 23 121 1653
1.0012403 -0.26875216 0.083008833 43 3310940 5 24 76 1040
1.0587121 -0.24327734 0.076590486 86 3310940 10 25 86 1089
1.1155829 -0.21384066 0.069215514 93 3310940 12 26 115 1138
1.151765 -0.17811997 0.059998013 33 3310940 5 27 100 1167
1.0245904 -0.27555665 0.046120096 44 3310940 5 28 63 1062
1.01 -0.23245518 0.035123568 42 3310940 4 29 41 1037
1.0297438 -0.19839291 0.025867295 69 3310940 8 30 37 1049
1.7449594 -0.2705121 0.026383091 100 3310940 31 31 80 1766
0.97337347 -0.26183686 0.0070371106 35 3310940 4 32 103 1008
1.1439892 -0.26373482 -0.0029710708 41 3310940 6 33 61 1174
1.1850914 -0.22847274 -0.014408886 34 3310940 5 34 88 1207
1.7939712 -0.27929664 -0.038950391 203 3310940 67 35 82 1816
1.0201311 -0.27494931 -0.031375661 26 3310940 3 36 120 1057
0.97547793 -0.22563949 -0.039163589 48 3310940 5 37 59 1002
1.806409 -0.34904087 -0.089563839 199 3310940 68 38 107 1842
4.7437525 -0.73845214 -0.27925539 268 3310940 621 39 80 4809
0.8852002 -0.23932815 -0.060857702 63 3310940 5 40 95 919
1.0238435 -0.23731653 -0.079632916 36 3310940 4 41 92 1054
4.2728972 -0.82686245 -0.37158194 334 3310940 637 42 151 4368
4.5668416 -0.71344376 -0.43863907 331 3310940 714 43 83 4643
1.9577382 -0.53003949 -0.2093816 150 3310940 62 44 137 2039
3.8486028 -0.89369518 -0.44513136 317 3310940 502 45 87 3976
4.1004357 -0.7957164 -0.51042056 350 3310940 620 46 100 4208
4.3635683 -0.68278015 -0.58319014 307 3310940 609 47 120 4455
3.528311 -0.95843077 -0.51312518 433 3310940 590 48 98 3692
3.7352974 -0.86910206 -0.57541388 349 3310940 525 49 80 3878
3.9847257 -0.77542734 -0.64884168 363 3310940 614 50 72 4111
4.2457013 -0.66555184 -0.72934532 319 3310940 607 51 83 4359
3.4336245 -0.93599278 -0.63432348 413 3310940 540 52 118 3615
3.6341662 -0.84751081 -0.70126408 359 3310940 518 53 116 3797
3.8486061 -0.75019342 -0.77553356 336 3310940 537 54 98 3997
4.0912604 -0.64126867 -0.86212742 323 3310940 577 55 56 4230
3.3183768 -0.90656805 -0.74626505 367 3310940 455 56 126 3520
3.5279322 -0.82468432 -0.82147193 348 3310940 481 57 90 3715
3.7275484 -0.72733897 -0.89987284 292 3310940 445 58 72 3903
3.9539344 -0.62009758 -0.99046028 371 3310940 631 59 94 4123
3.2505736 -0.89213061 -0.86502904 335 3310940 406 60 60 3480
3.4118598 -0.80056643 -0.93457812 337 3310940 443 61 52 3627
3.5769267 -0.6986618 -1.0104411 342 3310940 490 62 64 3782
3.8322535 -0.5993697 -1.1189101 281 3310940 457 63 44 4037
2.3107455 -0.63703591 0.7481727 127 3409530 80 0 81 2511
2.1164672 -0.49760899 0.65257406 161 3409530 83 1 80 2270
1.9474967 -0.38133141 0.57462943 109 3409530 46 2 43 2066
1.7954421 -0.28182295 0.50767374 175 3409530 62 3 44 1887
1.8346189 -0.50477636 0.51401901 18 3409530 7 4 86 1971
1.8927846 -0.44588992 0.50460875 160 3409530 64 5 36 2009
1.8263035 -0.35832927 0.46361643 150 3409530 55 6 85 1918
1.6802292 -0.2654815 0.40663356 173 3409530 53 7 71 1749
1.9139571 -0.52621013 0.45742854 148 3409530 62 8 73 2037
1.7787865 -0.41831416 0.40196118 152 3409530 53 9 36 1871
1.652598 -0.32517609 0.35358408 128 3409530 38 10 57 1721
1.6172233 -0.25697312 0.3278017 129 3409530 36 11 25 1670
1.6316652 -0.44832313 0.32465973 47 3409530 14 12 95 1723
1.6941682 -0.39910117 0.31602773 137 3409530 43 13 46 1769
1.6003762 -0.31521976 0.28010264 140 3409530 38 14 84 1655
1.4397941 -0.22914071 0.2366789 108 3409530 23 15 54 1477
0.96444696 -0.26501355 0.15412346 90 3409530 9 16 43 1012
1.0114959 -0.2385239 0.14994177 100 3409530 11 17 63 1050
1.4370176 -0.28385139 0.19721353 89 3409530 20 18 71 1478
1.4883857 -0.23780631 0.18846095 68 3409530 16 19 73 1519
1.021906 -0.2808215 0.12384032 61 3409530 7 20 64 1067
1.0025707 -0.23658548 0.11034129 168 3409530 18 21 90 1036
1.0280679 -0.20357576 0.10218778 103 3409530 11 22 57 1053
1.6966647 -0.2720255 0.15151332 202 3409530 60 23 116 1725
0.99957234 -0.27489057 0.083008833 45 3409530 5 24 68 1040
0.97565228 -0.23050295 0.070682675 72 3409530 7 25 82 1005
1.0437527 -0.20671946 0.064836331 122 3409530 14 26 132 1066
1.0559955 -0.1699501 0.055062447 51 3409530 6 27 97 1071
0.96509057 -0.26591519 0.043514442 46 3409530 5 28 60 1002
1.0669088 -0.25245604 0.037155788 55 3409530 7 29 34 1097
1.0049759 -0.2000241 0.02527548 51 3409530 5 30 41 1025
1.2694457 -0.20477976 0.019212149 13 3409530 2 31 63 1286
0.9948855 -0.27418074 0.0072046611 31 3409530 3 32 80 1032
0.95552564 -0.22646998 -0.0024851719 46 3409530 4 33 66 982
1.0895231 -0.2169902 -0.013262861 59 3409530 7 34 73 1111
1.8159094 -0.29413551 -0.039465152 202 3409530 68 35 79 1840
1.0184249 -0.28120354 -0.031375661 36 3409530 4 36 119 1057
1.0673996 -0.25381187 -0.042915791 44 3409530 5 37 57 1098
1.8394952 -0.36715636 -0.091314279 161 3409530 57 38 96 1878
4.6563525 -0.75413853 -0.27437758 180 3409530 402 39 109 4725
0.95295066 -0.26393074 -0.065625668 106 3409530 10 40 83 991
0.99908841 -0.23804753 -0.077819653 37 3409530 4 41 100 1030
4.2091203 -0.84134698 -0.36647782 346 3409530 643 42 184 4308
4.5152121 -0.73378676 -0.43410438 295 3409530 624 43 71 4595
1.9544491 -0.54204196 -0.2093816 204 3409530 85 44 97 2039
3.8198493 -0.91175598 -0.44244447 336 3409530 525 45 80 3952
4.083797 -0.81852037 -0.50896496 355 3409530 625 46 137 4196
4.32407 -0.70380795 -0.5784775 326 3409530 636 47 133 4419
3.4880178 -0.9705056 -0.50812179 400 3409530 535 48 100 3656
3.7068107 -0.88648462 -0.57185274 332 3409530 494 49 82 3854
3.9334235 -0.79052341 -0.64126587 367 3409530 605 50 53 4063
4.1948314 -0.68397486 -0.72131401 292 3409530 544 51 62 4311
3.3823023 -0.94433588 -0.62590086 390 3409530 496 52 97 3567
3.5944915 -0.86154705 -0.6946153 335 3409530 474 53 87 3761
3.7862282 -0.7621783 -0.76389182 380 3409530 590 54 69 3937
4.0524635 -0.660689 -0.85479021 339 3409530 597 55 78 4194
3.2901647 -0.92059225 -0.74117684 380 3409530 464 56 129 3496
3.4659097 -0.83264714 -0.80820459 360 3409530 481 57 90 3655
3.6772289 -0.74097103 -0.88880599 362 3409530 537 58 51 3855
3.9270618 -0.64059603 -0.98469472 351 3409530 590 59 77 4099
3.2002792 -0.89947885 -0.85309762 335 3409530 395 60 63 3432
3.3617964 -0.81061459 -0.92220986 336 3409530 430 61 48 3579
3.5839081 -0.72288269 -1.0136472 320 3409530 461 62 75 3794
3.7829826 -0.61546671 -1.1056062 315 3409530 501 63 45 3989
2.3178172 -0.6543144 0.75174814 59 3506760 38 0 80 2523
2.158062 -0.52138251 0.66637295 171 3506760 92 1 97 2318
2.0016098 -0.40469518 0.59131765 123 3506760 55 2 57 2126
1.8050857 -0.29469648 0.51090223 166 3506760 60 3 32 1899
0 -0 0 3 3506760 0 4 69 0
1.9577487 -0.4738915 0.52269334 161 3506760 70 5 34 2081
1.8240705 -0.3695285 0.46361643 160 3506760 59 6 91 1918
1.7016021 -0.27957058 0.41221344 182 3506760 57 7 53 1773
1.9332041 -0.54428214 0.46281797 140 3506760 60 8 85 2061
1.7761863 -0.42922071 0.40196118 153 3506760 53 9 38 1871
1.7196252 -0.3493382 0.36837667 162 3506760 52 10 44 1793
1.5807884 -0.26113802 0.32073531 134 3506760 36 11 30 1634
0.93686813 -0.26361084 0.18673117 42 3506760 4 12 109 991
1.6916875 -0.40948886 0.31602773 164 3506760 51 13 37 1769
1.5868224 -0.32267684 0.27807167 151 3506760 41 14 107 1643
1.5318495 -0.25343812 0.25206223 115 3506760 28 15 44 1573
0.95138597 -0.26771373 0.15229589 157 3506760 16 16 22 1000
0.96384132 -0.23353837 0.1430873 169 3506760 17 17 79 1002
1.4352487 -0.29266343 0.19721353 60 3506760 13 18 76 1478
1.4986448 -0.24888515 0.18994978 91 3506760 21 19 86 1531
1.031637 -0.29031521 0.12523308 38 3506760 4 20 84 1079
1.0242918 -0.24835585 0.11289746 117 3506760 13 21 80 1060
1.0267996 -0.20988004 0.10218778 100 3506760 11 22 87 1053
1.6595905 -0.27653673 0.14835131 178 3506760 51 23 135 1689
1.0208944 -0.28750369 0.084924422 37 3506760 4 24 63 1064
1.009117 -0.24495621 0.073214591 67 3506760 7 25 88 1041
0.9603191 -0.19632621 0.059727274 79 3506760 8 26 114 982
1.0431126 -0.17444958 0.054445498 48 3506760 5 27 97 1059
0.98651713 -0.27834278 0.0445567 44 3506760 5 28 71 1026
0.98376399 -0.2391656 0.034310676 52 3506760 5 29 44 1013
1.0389826 -0.21342842 0.026163204 43 3506760 5 30 39 1061
0 -0 0 0 3506760 0 31 88 0
0.87769789 -0.24768938 0.0063669099 37 3506760 3 32 102 912
0.96577734 -0.23516776 -0.0025155405 40 3506760 4 33 64 994
1.0294039 -0.21159182 -0.012546594 55 3506760 6 34 91 1051
1.8259014 -0.30726311 -0.039722536 207 3506760 71 35 63 1852
0.98205352 -0.27765712 -0.030307047 41 3506760 4 36 117 1021
0.9260422 -0.22621141 -0.037287489 47 3506760 4 37 52 954
1.2267617 -0.25269392 -0.060973428 50 3506760 8 38 93 1254
1.9108632 -0.3215262 -0.11271257 128 3506760 48 39 89 1941
0.98587155 -0.27957299 -0.068009645 52 3506760 5 40 104 1027
0.96274102 -0.23563911 -0.075099736 54 3506760 5 41 107 994
4.1219087 -0.85024941 -0.359332 338 3506760 603 42 142 4224
4.4399467 -0.74954599 -0.4273023 330 3506760 676 43 69 4523
1.9281212 -0.54750293 -0.20691708 204 3506760 83 44 109 2015
3.8026016 -0.9323374 -0.44110101 288 3506760 447 45 97 3940
4.0087104 -0.82908779 -0.50023156 348 3506760 592 46 109 4124
4.2844796 -0.72437704 -0.57376486 300 3506760 576 47 140 4383
3.4362819 -0.97886682 -0.50145066 363 3506760 473 48 103 3608
3.666728 -0.90071958 -0.56651109 344 3506760 502 49 75 3818
3.8704853 -0.80261338 -0.631796 330 3506760 529 50 83 4003
4.1205668 -0.69784796 -0.70926702 328 3506760 590 51 90 4239
3.3423674 -0.9553315 -0.61958396 373 3506760 465 52 105 3531
3.5547824 -0.87512857 -0.68796647 334 3506760 464 53 83 3725
3.7469025 -0.77821416 -0.75690675 346 3506760 527 54 98 3901
3.9904175 -0.67573458 -0.84256142 326 3506760 556 55 56 4134
3.2506325 -0.93107557 -0.73354465 369 3506760 441 56 142 3460
3.4380112 -0.84829092 -0.80289763 361 3506760 476 57 83 3631
3.661181 -0.76114339 -0.88603926 365 3506760 540 58 74 3843
3.8541481 -0.65300477 -0.96739841 371 3506760 602 59 101 4027
3.1723595 -0.91267121 -0.84713191 342 3506760 397 60 45 3408
3.3229947 -0.8228659 -0.91293365 359 3506760 450 61 53 3543
3.5680838 -0.74250358 -1.0104411 323 3506760 462 62 79 3782
3.7336605 -0.63098192 -1.0923023 287 3506760 445 63 50 3941
0 -0 0 0 3604130 0 0 84 0
2.1659775 -0.53738195 0.66982269 139 3604130 76 1 86 2330
1.999089 -0.41696921 0.59131765 128 3604130 58 2 47 2126
1.7918485 -0.30383456 0.50767374 169 3604130 60 3 28 1887
0 -0 0 6 3604130 0 4 82 0
1.9660765 -0.48869699 0.52570742 135 3604130 59 5 35 2093
1.8103708 -0.3783319 0.46071583 141 3604130 51 6 102 1906
1.6883496 -0.28804332 0.40942347 185 3604130 57 7 72 1761
1.929828 -0.55613381 0.46281797 151 3604130 64 8 61 2061
1.7962689 -0.44575658 0.40711728 116 3604130 42 9 29 1895
1.705955 -0.35747448 0.36591125 178 3604130 56 10 42 1781
1.6023508 -0.27481061 0.32544625 146 3604130 40 11 20 1658
0.88993412 -0.25630796 0.17768666 52 3604130 5 12 106 943
1.6662265 -0.41416493 0.31174019 146 3604130 44 13 37 1745
1.6426876 -0.34454632 0.28822646 130 3604130 38 14 87 1703
1.5185916 -0.26082751 0.25013933 193 3604130 47 15 60 1561
0.94972545 -0.27354628 0.15229589 97 3604130 10 16 33 1000
0.97391576 -0.24231562 0.14480092 143 3604130 15 17 73 1014
1.4101499 -0.2965692 0.19401115 73 3604130 16 18 62 1454
1.4032159 -0.24189356 0.17803915 75 3604130 16 19 83 1435
1.0756491 -0.309836 0.13080417 43 3604130 6 20 80 1127
1.0111704 -0.25175345 0.11161938 99 3604130 11 21 79 1048
1.1423576 -0.2408119 0.11383311 85 3604130 12 22 70 1173
1.6107473 -0.27856636 0.14413528 178 3604130 48 23 115 1641
0.93865502 -0.27057061 0.078219861 36 3604130 4 24 61 980
1.0308249 -0.25693348 0.074902534 60 3604130 7 25 88 1065
1.0880177 -0.22939658 0.067755789 99 3604130 12 26 127 1114
1.1364837 -0.19724077 0.059381068 34 3604130 5 27 87 1155
0 -0 0 0 3604130 0 28 64 0
0.94736981 -0.23648356 0.033091344 48 3604130 5 29 46 977
1.0376536 -0.21979949 0.026163204 55 3604130 6 30 42 1061
1.065877 -0.18538918 0.016164498 64 3604130 8 31 77 1082
0.99144596 -0.28636888 0.0072046611 40 3604130 4 32 85 1032
0.89446634 -0.22362603 -0.0023333284 48 3604130 4 33 73 922
1.0867782 -0.23034398 -0.013262861 65 3604130 8 34 90 1111
1.8003447 -0.31433392 -0.039207771 193 3604130 65 35 60 1828
0.9918533 -0.28701174 -0.030663252 50 3604130 5 36 134 1033
0.99442065 -0.2493903 -0.04010164 47 3604130 5 37 67 1026
1.0844966 -0.23033512 -0.053971693 46 3604130 6 38 95 1110
1.9206556 -0.33530521 -0.1134094 152 3604130 58 39 72 1953
0.98413759 -0.2856169 -0.068009645 38 3604130 4 40 89 1027
0.96127707 -0.24154194 -0.075099736 144 3604130 14 41 89 994
4.1049194 -0.87303776 -0.35831121 277 3604130 492 42 177 4212
4.3764277 -0.76647055 -0.42163393 323 3604130 644 43 80 4463
1.878876 -0.54599953 -0.20198804 157 3604130 61 44 94 1967
3.7274261 -0.93818843 -0.43304029 321 3604130 481 45 65 3868
3.9802489 -0.84870124 -0.49732044 313 3604130 526 46 101 4100
4.2448001 -0.74448687 -0.56905216 319 3604130 603 47 118 4347
3.4188023 -0.9966073 -0.49978283 392 3604130 507 48 86 3596
3.6151044 -0.91159481 -0.55938894 349 3604130 495 49 54 3770
3.8539 -0.82386994 -0.62990201 342 3604130 545 50 67 3991
4.0929027 -0.71902406 -0.70525134 373 3604130 663 51 71 4215
3.313765 -0.96918929 -0.61537272 360 3604130 443 52 100 3507
3.5264776 -0.89114505 -0.68353397 339 3604130 465 53 90 3701
3.7075236 -0.79379636 -0.74992174 329 3604130 492 54 72 3865
3.9746251 -0.698174 -0.84011567 319 3604130 542 55 86 4122
3.211097 -0.9411087 -0.72591239 370 3604130 434 56 129 3424
3.4213965 -0.86649704 -0.80024415 328 3604130 430 57 84 3619
3.6221893 -0.77625322 -0.87773913 322 3604130 467 58 67 3807
3.8271232 -0.67260844 -0.96163291 367 3604130 589 59 80 4003
3.1443989 -0.92555499 -0.84116614 355 3604130 406 60 42 3384
3.295408 -0.83752781 -0.90674949 365 3604130 451 61 53 3519
3.4956212 -0.74983102 -0.99120486 319 3604130 440 62 73 3710
3.7070053 -0.64989734 -1.0856504 280 3604130 430 63 69 3917
0 -0 0 0 3701610 0 0 63 0
2.1180873 -0.53931791 0.65602374 149 3701610 78 1 71 2282
2.0415688 -0.43891847 0.60466814 120 3701610 57 2 41 2174
1.8354819 -0.32283163 0.52058756 170 3701610 64 3 35 1935
0 -0 0 3 3701610 0 4 87 0
1.9742956 -0.50362241 0.52872145 143 3701610 63 5 42 2105
1.8421646 -0.39678851 0.46941769 148 3701610 56 6 74 1942
1.7095358 -0.30246419 0.41500336 178 3701610 57 7 59 1785
2.0048926 -0.59111303 0.48168102 168 3701610 77 8 71 2145
1.8389289 -0.4683398 0.41742948 145 3701610 55 9 44 1943
1.7611263 -0.38033062 0.37823841 149 3701610 50 10 46 1841
1.6006345 -0.28463727 0.32544625 157 3701610 43 11 39 1658
0.97878063 -0.28841192 0.19577566 46 3701610 5 12 105 1039
1.6407727 -0.41854414 0.30745265 131 3701610 39 13 64 1721
1.6174228 -0.34962162 0.28416455 134 3701610 38 14 121 1679
1.5402856 -0.27429384 0.25398514 256 3701610 64 15 51 1585
0.99353462 -0.29277825 0.1596061 111 3701610 12 16 38 1048
1.006934 -0.2571018 0.14994177 130 3701610 14 17 60 1050
1.292075 -0.28002638 0.17799923 91 3701610 16 18 71 1334
1.4485915 -0.25887802 0.18399446 93 3701610 21 19 87 1483
1.0165639 -0.29958388 0.12384032 51 3701610 6 20 72 1067
1.0096066 -0.25795314 0.11161938 133 3701610 15 21 89 1048
1.0474889 -0.22753504 0.10451684 82 3701610 10 22 82 1077
1.5384115 -0.27578881 0.13781126 173 3701610 43 23 155 1569
0.94845039 -0.27970856 0.079177655 41 3701610 4 24 67 992
0.94805032 -0.24249001 0.068994731 45 3701610 4 25 70 981
1.0397707 -0.22589651 0.064836331 87 3701610 10 26 104 1066
1.0408933 -0.18723704 0.054445498 55 3701610 6 27 94 1059
0.92554021 -0.27344382 0.041951045 42 3701610 4 28 52 966
1.0388452 -0.26609966 0.0363429 50 3701610 6 29 38 1073
1.0480058 -0.22872017 0.026459111 58 3701610 7 30 37 1073
1.1473777 -0.20682575 0.017419413 55 3701610 8 31 66 1166
0.8976078 -0.26524252 0.00653446 42 3701610 4 32 86 936
0.99768949 -0.25594735 -0.0026066466 55 3701610 6 33 59 1030
0.99156129 -0.21652846 -0.012116836 59 3701610 6 34 85 1015
1.7629654 -0.31896687 -0.038435627 192 3701610 62 35 80 1792
0.93256694 -0.27606851 -0.028882232 34 3701610 3 36 135 973
0.94642156 -0.24353464 -0.038225539 50 3701610 5 37 66 978
0.94255739 -0.2062411 -0.046969961 40 3701610 4 38 82 966
1.8949853 -0.34281859 -0.11201574 167 3701610 62 39 82 1929
0 -0 -0 18 3701610 0 40 94 0
1.0292981 -0.2653586 -0.080539562 81 3701610 9 41 93 1066
4.0761266 -0.89309061 -0.35626954 59 3701610 103 42 167 4188
4.3363791 -0.78691024 -0.41823286 298 3701610 585 43 76 4427
0 -0 -0 0 3701610 0 44 99 0
3.6869619 -0.9520973 -0.42900991 331 3701610 486 45 87 3832
3.9051621 -0.85777497 -0.48858702 327 3701610 531 46 114 4028
4.1933322 -0.76201034 -0.5627687 326 3701610 602 47 126 4299
3.3898468 -1.0107746 -0.49644724 330 3701610 421 48 100 3572
3.5749762 -0.92484295 -0.55404729 351 3701610 490 49 58 3734
3.814055 -0.8398568 -0.62422013 365 3701610 571 50 73 3955
4.0418553 -0.73565006 -0.69722003 336 3701610 584 51 79 4167
3.2851195 -0.98273236 -0.61116141 343 3701610 416 52 87 3483
3.4752784 -0.9009282 -0.67466885 340 3701610 454 53 81 3653
3.6910875 -0.81399518 -0.74759334 335 3701610 498 54 91 3853
3.9009166 -0.7099278 -0.82544118 363 3701610 596 55 74 4050
3.2389622 -0.97089571 -0.73354465 348 3701610 416 56 137 3460
3.3820345 -0.87864584 -0.79228371 317 3701610 407 57 73 3583
3.5603471 -0.78587979 -0.86390561 350 3701610 492 58 72 3747
3.7656229 -0.68564516 -0.94721919 357 3701610 555 59 107 3943
3.0941408 -0.93142939 -0.82923472 346 3701610 386 60 69 3336
3.2789874 -0.85480744 -0.90365744 333 3701610 409 61 45 3507
3.4683714 -0.7662763 -0.98479271 325 3701610 442 62 73 3686
3.6802592 -0.66850954 -1.0789984 293 3701610 445 63 64 3893
1.0115166 -0.3057597 0.32983956 25 3798930 3 0 54 1107
2.2037017 -0.57553864 0.68362159 148 3798930 84 1 95 2378
2.0163295 -0.44645336 0.5979929 107 3798930 50 2 58 2150
1.8675774 -0.34030345 0.5302729 162 3798930 63 3 32 1971
0 -0 0 0 3798930 0 4 63 0
2.0048795 -0.52454698 0.53776377 135 3798930 62 5 49 2141
1.8851666 -0.41817087 0.48102018 156 3798930 62 6 93 1990
1.7306079 -0.31715572 0.42058325 199 3798930 65 7 61 1809
2.0236192 -0.61015505 0.48707044 110 3798930 52 8 77 2169
1.8927171 -0.49442494 0.43031973 153 3798930 61 9 42 2003
1.7358315 -0.38603058 0.37330753 158 3798930 52 10 56 1817
1.5988579 -0.29445323 0.32544625 162 3798930 44 11 38 1658
0.89800566 -0.27060986 0.17994779 30 3798930 3 12 78 955
1.5467938 -0.40469569 0.29030249 121 3798930 32 13 42 1625
1.5806141 -0.35183036 0.27807167 133 3798930 36 14 108 1643
1.573519 -0.29018426 0.25975388 262 3798930 69 15 52 1621
0.88951933 -0.26806948 0.14315814 52 3798930 5 16 43 940
0.95937932 -0.25123996 0.1430873 137 3798930 14 17 86 1002
1.1510462 -0.25686616 0.15878491 110 3798930 16 18 77 1190
1.4352673 -0.2655949 0.18250564 98 3798930 21 19 84 1471
0.96905905 -0.29205835 0.11826924 57 3798930 6 20 82 1019
0.96183658 -0.25204492 0.10650703 96 3798930 10 21 82 1000
1.0111068 -0.22613771 0.10102323 126 3798930 14 22 72 1041
1.2076094 -0.22414283 0.10829909 88 3798930 13 23 133 1233
1.0039773 -0.30279243 0.083966628 41 3798930 5 24 69 1052
0.90023047 -0.2361532 0.065618843 62 3798930 5 25 87 933
1.0851208 -0.24273095 0.067755789 65 3798930 8 26 112 1114
1.0868512 -0.20239632 0.056913279 78 3798930 10 27 74 1107
0.96975029 -0.2929869 0.044035573 32 3798930 3 28 52 1014
0.9443965 -0.24809143 0.033091344 51 3798930 5 29 32 977
0.95294619 -0.21410806 0.024091847 52 3798930 5 30 44 977
1.0281365 -0.19185221 0.015626678 56 3798930 6 31 75 1046
0.80406976 -0.2429764 0.0058642589 31 3798930 2 32 84 840
0.97289008 -0.2559579 -0.0025459093 52 3798930 5 33 75 1006
1.0253348 -0.23050395 -0.012546594 53 3798930 6 34 92 1051
1.7727674 -0.33198658 -0.038693011 180 3798930 59 35 83 1804
0.90789503 -0.27483493 -0.028169824 39 3798930 3 36 138 949
0 -0 -0 0 3798930 0 37 63 0
1.034817 -0.23309103 -0.051637784 44 3798930 5 38 80 1062
1.8104204 -0.33900517 -0.10713791 184 3798930 63 39 84 1845
0 -0 -0 0 3798930 0 40 91 0
0.94667232 -0.25026193 -0.074193098 49 3798930 5 41 98 982
1.0030631 -0.22623284 -0.087791346 50 3798930 5 42 155 1032
4.2492819 -0.79806721 -0.41029716 298 3798930 563 43 78 4343
0.99264449 -0.30171975 -0.10710398 14 3798930 2 44 110 1043
3.669523 -0.97164983 -0.42766646 354 3798930 517 45 71 3820
3.8765891 -0.87646687 -0.48567584 357 3798930 573 46 109 4004
4.1301188 -0.77673173 -0.55491424 322 3798930 578 47 145 4239
3.3722138 -1.0280898 -0.49477944 324 3798930 411 48 100 3560
3.5462933 -0.94067597 -0.55048621 306 3798930 422 49 63 3710
3.7741604 -0.85538602 -0.6185382 323 3798930 497 50 60 3919
3.9907596 -0.75167704 -0.6891886 349 3798930 593 51 78 4119
3.2338386 -0.98905015 -0.60273886 363 3798930 428 52 121 3435
3.4354916 -0.91314662 -0.66802007 332 3798930 434 53 107 3617
3.6515834 -0.82881099 -0.74060833 339 3798930 494 54 74 3817
3.8849421 -0.73167562 -0.82299542 372 3798930 606 55 57 4038
3.1880937 -0.97700679 -0.72336829 353 3798930 411 56 114 3412
3.3539624 -0.8933568 -0.78697675 328 3798930 416 57 66 3559
3.5326848 -0.80253738 -0.85837221 336 3798930 466 58 66 3723
3.7270038 -0.70226687 -0.93857104 349 3798930 533 59 76 3907
3.0883672 -0.95039719 -0.82923472 351 3798930 390 60 43 3336
3.2624788 -0.87191707 -0.90056533 362 3798930 443 61 60 3495
3.4523287 -0.78497952 -0.98158669 315 3798930 426 62 76 3674
3.619431 -0.68042755 -1.0623686 321 3798930 472 63 58 3833
1.0533992 -0.32548729 0.34414157 18 3895590 2 0 68 1155
2.2112312 -0.59202194 0.68707132 151 3895590 86 1 93 2390
2.013552 -0.45881695 0.5979929 106 3895590 49 2 39 2150
1.8540969 -0.34961471 0.52704448 172 3895590 66 3 59 1959
0 -0 0 0 3895590 0 4 88 0
2.0913737 -0.56091005 0.56187648 129 3895590 64 5 57 2237
1.8598609 -0.42454746 0.47521892 152 3895590 59 6 87 1966
1.7515628 -0.33211705 0.42616311 184 3895590 62 7 74 1833
1.7516431 -0.53989661 0.42239717 36 3895590 13 8 101 1881
1.8330432 -0.49087101 0.41742948 154 3895590 58 9 34 1943
1.7563264 -0.4019137 0.37823841 141 3895590 48 10 44 1841
1.6201383 -0.3086623 0.33015716 153 3895590 43 11 42 1682
0.98643041 -0.30387086 0.19803677 40 3895590 4 12 108 1051
0.9284696 -0.24901716 0.17453878 103 3895590 10 13 63 977
1.624539 -0.37208402 0.28619552 120 3895590 34 14 97 1691
1.5251685 -0.29095525 0.25206223 222 3895590 55 15 46 1573
0.88785774 -0.27352241 0.14315814 42 3895590 4 16 31 940
0.94634879 -0.25404257 0.14137368 238 3895590 23 17 77 990
0.98717338 -0.22666414 0.13636823 144 3895590 15 18 69 1022
1.4102206 -0.26991963 0.17952797 80 3895590 17 19 92 1447
0.8647337 -0.26641512 0.10573433 53 3895590 4 20 82 911
1.0178883 -0.27341843 0.11289746 59 3895590 7 21 84 1060
1.0213395 -0.23501575 0.10218778 153 3895590 17 22 66 1053
1.06534 -0.20450623 0.095651031 76 3895590 9 23 125 1089
0.89922333 -0.27723002 0.075346485 34 3895590 3 24 77 944
0.91032422 -0.24478079 0.066462815 60 3895590 5 25 73 945
1.0369204 -0.23863909 0.064836331 71 3895590 8 26 118 1066
1.0738211 -0.20679505 0.056296334 64 3895590 8 27 98 1095
0 -0 0 0 3895590 0 28 60 0
0.9196952 -0.24764487 0.032278456 53 3895590 5 29 49 953
0.98667908 -0.22805583 0.024979569 59 3895590 6 30 39 1013
1.097628 -0.21179701 0.01670232 51 3895590 6 31 86 1118
0.85988969 -0.26561305 0.0062831347 38 3895590 3 32 92 900
0.94812906 -0.25567397 -0.0024851719 59 3895590 6 33 76 982
0.97713882 -0.22597651 -0.011973582 49 3895590 5 34 101 1003
1.2877796 -0.24935113 -0.02814037 63 3895590 11 35 87 1312
0 -0 -0 0 3895590 0 36 137 0
0.97808671 -0.26452166 -0.039632615 49 3895590 5 37 68 1014
1.0800731 -0.25025812 -0.053971693 58 3895590 7 38 102 1110
1.831829 -0.35466155 -0.10853157 217 3895590 76 39 84 1869
0 -0 -0 0 3895590 0 40 95 0
1.0375135 -0.28109881 -0.081446193 84 3895590 10 41 103 1078
1.0249503 -0.2377875 -0.089832999 32 3895590 4 42 149 1056
4.1973958 -0.81501681 -0.4057624 323 3895590 597 43 62 4295
0 -0 -0 15 3895590 0 44 100 0
3.5944419 -0.97540945 -0.41960573 337 3895590 474 45 86 3748
3.8479345 -0.89484066 -0.48276472 360 3895590 570 46 112 3980
4.090241 -0.7952475 -0.55020159 328 3895590 579 47 147 4203
3.3091145 -1.0310862 -0.48644048 337 3895590 413 48 94 3500
3.5060997 -0.95307904 -0.54514456 319 3895590 431 49 75 3674
3.7226801 -0.86776751 -0.61096239 334 3895590 501 50 70 3871
3.9396214 -0.76710498 -0.68115729 332 3895590 551 51 84 4071
3.216433 -1.0053495 -0.6006332 336 3895590 394 52 102 3423
3.3729289 -0.9187122 -0.65693873 356 3895590 451 53 84 3557
3.6120379 -0.84317297 -0.73362327 359 3895590 514 54 88 3781
3.8227215 -0.74427354 -0.81076664 350 3895590 554 55 82 3978
3.1148915 -0.97552097 -0.70810378 340 3895590 379 56 106 3340
3.3032577 -0.90159351 -0.77636284 352 3895590 434 57 71 3511
3.4822121 -0.81357217 -0.84730536 304 3895590 411 58 64 3675
3.7226245 -0.72512215 -0.93857104 359 3895590 548 59 87 3907
3.0270374 -0.95189518 -0.81432045 362 3895590 389 60 71 3276
3.2123353 -0.87966937 -0.88819712 346 3895590 411 61 51 3447
3.3798869 -0.7903496 -0.96235037 310 3895590 403 62 76 3602
3.5925519 -0.69822371 -1.0557168 342 3895590 497 63 63 3809
1.6630955 -0.52507615 0.5443694 18 3994030 6 0 75 1827
2.1964729 -0.60253811 0.68362159 117 3994030 66 1 110 2378
2.0668113 -0.48431194 0.61468107 117 3994030 57 2 57 2210
1.8746048 -0.36540711 0.53350133 186 3994030 73 3 51 1983
0 -0 0 0 3994030 0 4 72 0
2.0654924 -0.56757659 0.5558483 46 3994030 22 5 50 2213
1.8798931 -0.44127327 0.48102018 146 3994030 58 6 88 1990
1.7380388 -0.3406136 0.42337319 169 3994030 56 7 71 1821
1.7148371 -0.54009587 0.41431302 27 3994030 9 8 73 1845
1.9204135 -0.5269174 0.43805388 149 3994030 62 9 36 2039
1.7538272 -0.41268277 0.37823841 159 3994030 54 10 54 1841
1.6413038 -0.32314345 0.33486807 162 3994030 47 11 21 1706
0.97330606 -0.30637923 0.19577566 38 3994030 4 12 98 1039
0.96107894 -0.26409486 0.18097009 127 3994030 13 13 57 1013
1.6682731 -0.39288956 0.29431933 144 3994030 44 14 97 1739
1.581461 -0.3117629 0.26167682 163 3994030 43 15 50 1633
0.89747542 -0.28252628 0.14498569 42 3994030 4 16 37 952
1.0020311 -0.27559263 0.14994177 152 3994030 17 17 73 1050
0.99733847 -0.23544954 0.13796942 148 3994030 16 18 66 1034
1.4319 -0.28318784 0.18250564 74 3994030 16 19 63 1471
0.88582033 -0.27887428 0.10851987 44 3994030 4 20 81 935
0.92415905 -0.25433132 0.10267279 69 3994030 6 21 97 964
1.0547459 -0.24952696 0.10568138 90 3994030 11 22 60 1089
1.0406146 -0.20638818 0.093543015 84 3994030 10 23 132 1065
1.0800487 -0.34024924 0.090671189 30 3994030 4 24 62 1136
0.9549666 -0.26307863 0.069838703 59 3994030 6 25 76 993
1.0820603 -0.25602877 0.067755789 67 3994030 8 26 121 1114
1.0607781 -0.2110416 0.055679392 82 3994030 10 27 91 1083
0.95464903 -0.30125728 0.043514442 34 3994030 3 28 59 1002
0.90659708 -0.25009406 0.031872012 49 3994030 4 29 43 941
0.98526114 -0.23410569 0.024979569 50 3994030 5 30 49 1013
1.0610062 -0.21149126 0.016164498 57 3994030 7 31 63 1082
0.89257348 -0.2817196 0.00653446 41 3994030 4 32 86 936
0.93497568 -0.25829139 -0.0024548031 47 3994030 4 33 65 970
0.90569121 -0.21531615 -0.011114063 49 3994030 4 34 91 931
1.0156474 -0.20313188 -0.022220597 50 3994030 5 35 88 1036
0.96163762 -0.30403489 -0.029950844 21 3994030 2 36 120 1009
0.96488971 -0.26731673 -0.039163589 76 3994030 8 37 74 1002
0.97358048 -0.23188685 -0.048720397 70 3994030 7 38 80 1002
1.7943769 -0.35884705 -0.10644108 193 3994030 65 39 92 1833
1.0567285 -0.33501229 -0.073572263 23 3994030 3 40 96 1111
0.96658969 -0.26826003 -0.076006375 98 3994030 10 41 83 1006
0.988581 -0.23575139 -0.08677052 32 3994030 3 42 148 1020
4.1454635 -0.8313601 -0.40122771 316 3994030 571 43 70 4247
1.1367705 -0.36082461 -0.12312336 15 3994030 2 44 115 1199
3.5539224 -0.98786557 -0.41557536 345 3994030 476 45 74 3712
3.7960312 -0.90735769 -0.47694242 354 3994030 547 46 128 3932
4.0153008 -0.80627698 -0.54077631 342 3994030 583 47 129 4131
3.2687547 -1.040557 -0.48143709 330 3994030 396 48 125 3464
3.4544566 -0.96184152 -0.53802234 355 3994030 467 49 80 3626
3.6827152 -0.88231069 -0.60528046 383 3994030 564 50 73 3835
3.9000447 -0.78426653 -0.67513382 379 3994030 618 51 61 4035
3.1764419 -1.0142856 -0.5943163 335 3994030 385 52 97 3387
3.3558683 -0.93622166 -0.65472245 321 3994030 404 53 91 3545
3.561008 -0.85433489 -0.72430992 364 3994030 508 54 85 3733
3.7720125 -0.75845182 -0.80098367 350 3994030 541 55 70 3930
3.0976775 -0.99104172 -0.70555967 361 3994030 400 56 118 3328
3.2638509 -0.9123928 -0.7684024 332 3994030 401 57 91 3475
3.4544466 -0.82947075 -0.8417719 341 3994030 455 58 66 3651
3.6495862 -0.7341665 -0.9212746 357 3994030 525 59 80 3835
3.0432725 -0.97756034 -0.82028615 341 3994030 371 60 49 3300
3.162221 -0.88683951 -0.8758288 331 3994030 382 61 56 3399
3.3749738 -0.8110733 -0.96235037 325 3994030 422 62 79 3602
3.5655911 -0.71571583 -1.0490648 338 3994030 485 63 61 3785
2.1940446 -0.70754188 0.71956873 27 4090960 15 0 55 2415
1.9050418 -0.53518265 0.59392858 15 4090960 7 1 80 2066
2.0638008 -0.49698454 0.61468107 128 4090960 62 2 48 2210
1.9176486 -0.38602582 0.54641521 181 4090960 75 3 50 2031
0 -0 0 0 4090960 0 4 71 0
0 -0 0 9 4090960 0 5 39 0
1.9450669 -0.46918246 0.4984239 126 4090960 54 6 103 2062
1.7702341 -0.35821602 0.431743 192 4090960 66 7 61 1857
0 -0 0 6 4090960 0 8 85 0
1.9284272 -0.54186124 0.44063196 130 4090960 55 9 60 2051
1.7512621 -0.42343628 0.37823841 153 4090960 52 10 59 1841
1.6738824 -0.34023958 0.34193447 150 4090960 45 11 42 1742
1.0387239 -0.33399028 0.20934241 32 4090960 4 12 121 1111
0.970806 -0.27318522 0.18311387 93 4090960 10 13 56 1025
1.654336 -0.40033677 0.29228836 144 4090960 43 14 100 1727
1.5563042 -0.31673619 0.25783098 126 4090960 32 15 52 1609
0.99734086 -0.32070321 0.16143365 49 4090960 5 16 44 1060
1.0003213 -0.28173578 0.14994177 114 4090960 13 17 81 1050
0.9727599 -0.23595774 0.13476703 129 4090960 13 18 60 1010
1.3834689 -0.28244132 0.17655033 64 4090960 13 19 62 1423
0.88409251 -0.28430432 0.10851987 31 4090960 3 20 88 935
0.95703429 -0.26970649 0.10650703 77 4090960 8 21 105 1000
0.94874591 -0.23060623 0.095200576 118 4090960 11 22 75 981
1.0627502 -0.2175642 0.095651031 82 4090960 10 23 136 1089
0.80465996 -0.25893104 0.067684129 29 4090960 2 24 67 848
0.90725183 -0.25593343 0.066462815 70 4090960 6 25 83 945
0.98735851 -0.24002807 0.061916865 66 4090960 7 26 123 1018
1.0007672 -0.20549399 0.052594658 114 4090960 12 27 106 1023
0.99842483 -0.32182106 0.045598965 35 4090960 4 28 63 1050
0.95121139 -0.26869282 0.033497788 62 4090960 6 29 36 989
0.96049786 -0.23445718 0.024387754 58 4090960 6 30 48 989
1.0244309 -0.21074434 0.015626678 49 4090960 5 31 84 1046
0.97077423 -0.31296459 0.0071208864 35 4090960 4 32 79 1020
0 -0 -0 0 4090960 0 33 63 0
1.0092618 -0.2464911 -0.012403342 52 4090960 6 34 88 1039
0.955634 -0.19723487 -0.02093369 53 4090960 5 35 80 976
0 -0 -0 0 4090960 0 36 133 0
0.88248134 -0.25032642 -0.035880413 96 4090960 8 37 63 918
0.9837817 -0.24070483 -0.049303874 54 4090960 6 38 99 1014
1.6865486 -0.34805885 -0.10016959 73 4090960 22 39 75 1725
0 -0 -0 0 4090960 0 40 94 0
0.99945563 -0.28399768 -0.078726284 45 4090960 5 41 93 1042
1.0219551 -0.25034732 -0.089832999 61 4090960 7 42 147 1056
4.1402845 -0.85678053 -0.40122771 326 4090960 588 43 86 4247
1.0436966 -0.33834493 -0.11326528 14 4090960 2 44 98 1103
3.5592632 -1.0129174 -0.41691881 286 4090960 397 45 89 3724
3.7672567 -0.92495227 -0.47403127 355 4090960 542 46 123 3908
3.9986286 -0.82848555 -0.53920537 343 4090960 582 47 132 4119
3.217103 -1.0458977 -0.47476587 352 4090960 411 48 97 3416
3.4484897 -0.98301959 -0.53802234 334 4090960 440 49 63 3626
3.6312065 -0.89356488 -0.59770459 355 4090960 510 50 64 3787
3.8719907 -0.80337489 -0.67111814 366 4090960 589 51 87 4011
3.1364632 -1.022769 -0.5879994 372 4090960 418 52 103 3351
3.3273807 -0.95031768 -0.65028995 331 4090960 410 53 102 3521
3.5214088 -0.86771923 -0.71732485 339 4090960 464 54 77 3697
3.7212749 -0.77203614 -0.79120064 358 4090960 540 55 82 3882
3.0692437 -1.0027462 -0.70047152 351 4090960 383 56 119 3304
3.2356887 -0.92596263 -0.7630955 321 4090960 383 57 80 3451
3.4379549 -0.84785533 -0.83900517 307 4090960 406 58 57 3639
3.5993907 -0.74707693 -0.90974367 358 4090960 514 59 60 3787
3.0151284 -0.98896992 -0.81432045 333 4090960 357 60 42 3276
3.1567199 -0.90622586 -0.8758288 327 4090960 377 61 51 3399
3.325026 -0.82068241 -0.94952613 341 4090960 431 62 61 3554
3.538552 -0.73290354 -1.0424129 311 4090960 440 63 72 3761
2.1134996 -0.69591296 0.69454026 76 4188480 41 0 87 2331
0 -0 0 12 4188480 0 1 85 0
2.071902 -0.51240569 0.61801875 105 4188480 52 2 49 2222
1.9265598 -0.40013528 0.54964358 162 4188480 67 3 42 2043
0 -0 0 0 4188480 0 4 75 0
0 -0 0 6 4188480 0 5 35 0
1.9308492 -0.4783085 0.49552333 126 4188480 53 6 101 2050
1.7794276 -0.37145618 0.43453294 172 4188480 60 7 63 1869
0 -0 0 0 4188480 0 8 87 0
1.9475924 -0.5601626 0.44578803 141 4188480 61 9 45 2075
1.7486309 -0.43417385 0.37823841 133 4188480 45 10 45 1841
1.6487309 -0.34567493 0.33722353 173 4188480 51 11 21 1718
0.91348809 -0.29991898 0.18447004 37 4188480 4 12 112 979
0.93507439 -0.269333 0.17668255 178 4188480 17 13 80 989
