# .PCD v0.7 - Point Cloud Data file format
VERSION 0.7
FIELDS x y z intensity t reflectivity ring noise range
SIZE 4 4 4 4 4 2 1 2 4
TYPE F F F F U U U U U
COUNT 1 1 1 1 1 1 1 1 1
WIDTH 764
HEIGHT 1
VIEWPOINT 0 0 0 1 0 0 0
POINTS 764
DATA ascii
-0.87161434 -2.1823735 -0.0059472034 339 30834860 187 33 88 2350
-0.56058192 -1.5655425 -0.01985251 229 30834860 63 34 117 1663
-0.48833191 -1.5358648 -0.034574907 251 30834860 65 35 67 1612
-0.98099834 -2.2165484 -0.07198295 377 30834860 221 36 161 2425
-0.62155217 -1.5529546 -0.065428987 242 30834860 68 37 30 1674
-0.55218607 -1.5400622 -0.079644717 275 30834860 74 38 118 1638
-0.48910567 -1.5383914 -0.093898103 251 30834860 66 39 84 1617
-0.95431429 -2.1516883 -0.1562169 435 30834860 242 40 107 2359
-0.85835409 -2.1417887 -0.17482977 358 30834860 192 41 123 2314
-0.54116845 -1.5080082 -0.13679115 281 30834860 73 42 163 1608
-0.48192385 -1.5129669 -0.15068476 254 30834860 65 43 75 1595
-0.95372075 -2.1483264 -0.24265264 413 30834860 231 44 112 2363
-0.8584798 -2.1396148 -0.2597346 353 30834860 190 45 70 2320
-0.57886243 -1.6103927 -0.20911717 226 30834860 67 46 140 1724
-0.47426894 -1.4876776 -0.20617832 237 30834860 59 47 143 1575
-0.95006776 -2.1352723 -0.32799986 397 30834860 221 48 98 2360
-0.84569192 -2.1050849 -0.3403815 362 30834860 191 49 68 2294
-0.74897128 -2.0802126 -0.35338277 390 30834860 196 50 75 2239
-0.45766836 -1.4342211 -0.25549674 256 30834860 60 51 107 1527
-0.94437784 -2.1174078 -0.41323143 335 30834860 186 52 71 2355
-0.8249982 -2.0505733 -0.41536555 376 30834860 190 53 96 2249
-0.74271715 -2.0608106 -0.43326652 371 30834860 185 54 88 2233
-0.65175629 -2.0425684 -0.44634965 369 30834860 177 55 82 2190
-0.9246791 -2.070132 -0.49185655 384 30834860 207 56 132 2320
-0.82045382 -2.0361984 -0.49774787 379 30834860 192 57 72 2251
-0.7337991 -2.0348411 -0.51253325 375 30834860 185 58 70 2223
-0.64670706 -2.0261338 -0.52633971 418 30834860 201 59 79 2191
-0.92205745 -2.0577974 -0.57867461 415 30834860 225 60 42 2328
-0.81311321 -2.0131137 -0.5789901 403 30834860 203 61 54 2247
-0.7189135 -1.9923642 -0.58724213 375 30834860 181 62 73 2198
-0.63168943 -1.9819492 -0.60005951 381 30834860 179 63 58 2165
-1.0577663 -2.3534446 0.80538064 524 30933100 383 0 96 2703
-0.85393876 -2.1114769 0.68362159 200 30933100 113 1 109 2378
-0.63917011 -1.7687981 0.54459071 55 30933100 21 2 48 1958
-0.55988365 -1.7533172 0.51413065 86 30933100 31 3 43 1911
-1.1159854 -2.4863422 0.73621291 420 30933100 335 4 104 2823
-0.71242791 -1.7593635 0.49255243 85 30933100 33 5 34 1961
-0.63317561 -1.7501066 0.46361643 81 30933100 30 6 95 1918
-0.55115253 -1.7199646 0.431743 109 30933100 38 7 78 1857
-0.79333311 -1.7684027 0.44664967 66 30933100 26 8 78 1989
-0.72474736 -1.791764 0.42516363 83 30933100 32 9 27 1979
-0.63789272 -1.7601672 0.393031 87 30933100 32 10 66 1913
-0.55146909 -1.7157987 0.36077815 92 30933100 31 11 34 1838
-0.76952612 -1.7160568 0.36083773 79 30933100 29 12 102 1915
-0.71088856 -1.7555619 0.34389678 65 30933100 24 13 56 1925
-0.61249638 -1.6890775 0.30853602 58 30933100 19 14 101 1823
-0.54438061 -1.6923246 0.28859761 82 30933100 27 15 62 1801
-0.78294444 -1.7458984 0.29484484 56 30933100 21 16 49 1936
-0.68465698 -1.6896801 0.26304072 65 30933100 22 17 94 1842
-0.62595904 -1.7232935 0.24685051 70 30933100 24 18 89 1850
-0.5208863 -1.6159006 0.21228223 53 30933100 16 19 88 1711
-0.75556654 -1.684769 0.21576303 65 30933100 23 20 87 1859
-0.68733126 -1.6955148 0.19597293 74 30933100 25 21 81 1840
-0.60732579 -1.669543 0.17322429 82 30933100 26 22 73 1785
-0.53542399 -1.6579273 0.15362135 54 30933100 17 23 124 1749
-1.0316051 -2.2991004 0.20177531 274 30933100 175 24 62 2528
-0.68287176 -1.6832483 0.12807278 56 30933100 19 25 92 1821
-0.58900076 -1.6189916 0.1049789 59 30933100 18 26 118 1726
-0.52486283 -1.621933 0.08776059 97 30933100 28 27 91 1707
-1.0194979 -2.2691476 0.10813468 425 30933100 264 28 72 2490
-0.75094527 -1.8491932 0.067639112 41 30933100 16 29 49 1997
-0.58972847 -1.616249 0.042438146 54 30933100 16 30 42 1721
-0.51099265 -1.5770978 0.02476963 265 30933100 73 31 71 1658
-1.0131772 -2.2547636 0.017257676 355 30933100 217 32 107 2472
-0.90758413 -2.2325668 -0.0060990467 356 30933100 207 33 98 2410
-0.5866347 -1.6071602 -0.020425523 224 30933100 66 34 96 1711
-0.50145191 -1.5442502 -0.034832288 242 30933100 64 35 84 1624
-1.0093453 -2.2433028 -0.073051564 372 30933100 225 36 163 2461
-0.64011681 -1.5713211 -0.066367038 238 30933100 69 37 45 1698
-0.5616253 -1.5366451 -0.079644717 251 30933100 67 38 135 1638
-0.49113643 -1.512573 -0.092504442 247 30933100 63 39 77 1593
-0.98226351 -2.1785386 -0.15860088 410 30933100 235 40 111 2395
-0.87599909 -2.1475613 -0.17573641 298 30933100 161 41 95 2326
-0.55451882 -1.5158882 -0.137812 257 30933100 67 42 146 1620
-0.49119818 -1.5099813 -0.15068476 243 30933100 62 43 72 1595
-0.98161507 -2.1750736 -0.24634942 406 30933100 234 44 124 2399
-0.87159204 -2.1343069 -0.2597346 389 30933100 210 45 78 2320
-0.76494271 -2.0877352 -0.27170676 359 30933100 180 46 125 2240
-0.4944371 -1.5186764 -0.21089098 246 30933100 64 47 123 1611
-0.95335692 -2.1077478 -0.32466426 386 30933100 211 48 111 2336
-0.86308384 -2.1108406 -0.34216201 321 30933100 171 49 60 2306
-0.76580364 -2.0867019 -0.35527676 402 30933100 204 50 91 2251
-0.48112273 -1.4763803 -0.26352808 213 30933100 53 51 87 1575
-0.94271755 -2.0792944 -0.40691453 400 30933100 215 52 92 2319
-0.85097176 -2.0782146 -0.42201436 393 30933100 205 53 90 2285
-0.75534809 -2.0562146 -0.43326652 355 30933100 177 54 127 2233
-0.66791689 -2.049701 -0.44879544 387 30933100 188 55 79 2202
-0.94221216 -2.0750973 -0.49440059 383 30933100 208 56 119 2332
-0.84181291 -2.0527816 -0.5030548 348 30933100 180 57 76 2275
-0.73821396 -2.0083807 -0.50699985 375 30933100 181 58 77 2199
-0.659127 -2.0221276 -0.52633971 415 30933100 199 59 70 2191
-0.92503077 -2.0309453 -0.5727089 394 30933100 209 60 63 2304
-0.82104182 -1.9973626 -0.57589805 403 30933100 201 61 55 2235
-0.73511642 -1.9987683 -0.59044814 359 30933100 175 62 76 2210
-0.64383852 -1.9780359 -0.60005951 379 30933100 177 63 54 2165
-1.0721869 -2.34691 0.80538064 524 31030530 383 0 98 2703
-0.88437647 -2.1487112 0.69742054 194 31030530 114 1 100 2426
-0.64204383 -1.7432106 0.53791547 66 31030530 25 2 42 1934
-0.56704801 -1.7388607 0.51090223 82 31030530 29 3 36 1899
-1.1312203 -2.4794478 0.73621291 434 31030530 346 4 79 2823
-0.71878421 -1.7442199 0.48953834 81 31030530 31 5 45 1949
-0.64390218 -1.7461885 0.46361643 80 31030530 29 6 115 1918
-0.55806589 -1.7054579 0.42895305 85 31030530 29 7 66 1845
-0.81872398 -1.7954202 0.45473382 71 31030530 29 8 80 2025
-0.71788299 -1.7439334 0.41485143 72 31030530 27 9 48 1931
-0.63240457 -1.712154 0.38316929 69 31030530 24 10 53 1865
-0.58033228 -1.7682821 0.37255546 72 31030530 26 11 37 1898
-0.77515322 -1.7005793 0.3585766 71 31030530 26 12 102 1903
-0.71714854 -1.7402506 0.34175301 56 31030530 21 13 64 1913
-0.61054903 -1.652007 0.30244315 83 31030530 27 14 93 1787
-0.54736167 -1.6664456 0.2847518 67 31030530 21 15 56 1777
-0.78380382 -1.7194779 0.29118973 72 31030530 26 16 37 1912
-0.73123384 -1.7732881 0.27674967 53 31030530 20 17 78 1938
-0.62826359 -1.6971142 0.24364811 76 31030530 25 18 78 1826
-0.54195952 -1.6466054 0.21674871 72 31030530 22 19 88 1747
-0.79555315 -1.7451725 0.22411963 51 31030530 19 20 79 1931
-0.72502398 -1.7574455 0.20364144 60 31030530 22 21 94 1912
-0.62171012 -1.6769837 0.17438883 61 31030530 20 22 90 1797
-0.55307341 -1.6773156 0.15572935 67 31030530 21 23 136 1773
-1.0456928 -2.2927272 0.20177531 363 31030530 232 24 92 2528
-0.706891 -1.7122198 0.13060471 52 31030530 18 25 68 1857
-0.6197437 -1.6715006 0.10862822 64 31030530 20 26 137 1786
-0.51976645 -1.5731653 0.085292801 75 31030530 21 27 84 1659
-1.0234414 -2.2410388 0.10709243 153 31030530 93 28 78 2466
-0.92717689 -2.2435722 0.082271114 265 31030530 156 29 39 2429
-0.6163587 -1.6575767 0.043621778 61 31030530 19 30 50 1769
-0.50935483 -1.539758 0.02423181 254 31030530 67 31 61 1622
-1.0469347 -2.2921648 0.017592777 336 31030530 213 32 90 2520
-0.92126584 -2.2269559 -0.0060990467 340 31030530 198 33 90 2410
-0.57975137 -1.5585454 -0.01985251 224 31030530 62 34 93 1663
-0.5071426 -1.5297567 -0.034574907 265 31030530 69 35 60 1612
-1.0181022 -2.2261593 -0.07269536 381 31030530 228 36 156 2449
-0.63137889 -1.5230567 -0.064490944 180 31030530 49 37 51 1650
-0.56267643 -1.5107061 -0.078477763 261 31030530 68 38 132 1614
-0.51925594 -1.5663872 -0.095988601 242 31030530 66 39 69 1653
-1.0006007 -2.1833553 -0.15939553 420 31030530 243 40 119 2407
-0.90750867 -2.1863515 -0.17936295 250 31030530 141 41 90 2374
-0.56380969 -1.5124573 -0.137812 279 31030530 73 42 181 1620
-0.48915848 -1.4729265 -0.14728372 250 31030530 61 43 72 1559
-0.98996574 -2.15816 -0.24511716 401 31030530 229 44 109 2387
-0.88467151 -2.1289186 -0.2597346 210 31030530 113 45 67 2320
-0.79440427 -2.1276381 -0.27752906 371 31030530 194 46 102 2288
-0.49624163 -1.4930351 -0.20774922 241 31030530 61 47 135 1587
-0.97123557 -2.1126554 -0.32633203 376 31030530 207 48 111 2348
-0.88969541 -2.138375 -0.34750366 355 31030530 195 49 65 2342
-0.79519552 -2.1263592 -0.3628526 388 31030530 205 50 62 2299
-0.66943568 -2.012244 -0.35990405 321 31030530 149 51 96 2151
-0.9702906 -2.1056592 -0.41323143 389 31030530 216 52 120 2355
-0.86824334 -2.0838406 -0.42423064 352 31030530 186 53 118 2297
-0.7720775 -2.062566 -0.43559489 404 31030530 204 54 90 2245
-0.68048102 -2.0455642 -0.44879544 394 31030530 191 55 70 2202
-0.96475476 -2.0905731 -0.4994888 378 31030530 210 56 114 2356
-0.85889941 -2.0583782 -0.50570834 367 31030530 192 57 74 2287
-0.76690578 -2.0475528 -0.5180667 374 31030530 189 58 77 2247
-0.67519999 -2.0290978 -0.52922237 419 31030530 203 59 84 2203
-0.96188843 -2.0779717 -0.58762318 388 31030530 217 60 58 2364
-0.85117793 -2.0350745 -0.58826625 377 31030530 196 61 47 2283
-0.75954109 -2.0267053 -0.6000663 372 31030530 188 62 77 2246
-0.6523276 -1.9631065 -0.59673357 385 31030530 179 63 58 2153
-1.091391 -2.3506768 0.80895615 501 31127800 369 0 94 2715
-0.933061 -2.2280552 0.72501838 222 31127800 141 1 111 2522
-0.68512803 -1.8255707 0.56461656 64 31127800 26 2 52 2030
-0.58135742 -1.7463146 0.51413065 98 31127800 36 3 40 1911
-1.1561589 -2.4934797 0.74247187 504 31127800 409 4 87 2847
-0.73396438 -1.7504884 0.49255243 56 31127800 21 5 50 1961
-0.67508215 -1.7967054 0.47811955 81 31127800 32 6 97 1978
-0.59070605 -1.7684212 0.44569269 89 31127800 33 7 73 1917
-1.1198214 -2.4163265 0.61372221 155 31127800 116 8 112 2733
-0.71951479 -1.7178758 0.40969533 64 31127800 23 9 35 1907
-0.63876158 -1.6972499 0.38070384 71 31127800 24 10 48 1853
-0.56874543 -1.697745 0.3584227 98 31127800 33 11 37 1826
-0.80043423 -1.7278711 0.36535999 67 31127800 25 12 115 1939
-0.71411657 -1.7031518 0.33532169 55 31127800 19 13 47 1877
-0.66235334 -1.758911 0.32275268 76 31127800 28 14 94 1907
-0.55381119 -1.6518252 0.28282887 70 31127800 22 15 63 1765
-0.79932499 -1.7253976 0.2930173 76 31127800 28 16 33 1924
-0.71453047 -1.7030553 0.26646793 71 31127800 25 17 96 1866
-0.61767936 -1.6375901 0.23564215 72 31127800 23 18 78 1766
-0.5634287 -1.677111 0.2212152 63 31127800 20 19 70 1783
-0.78620499 -1.6969997 0.21854857 67 31127800 24 20 89 1883
-0.70808607 -1.6869525 0.19597293 56 31127800 19 21 94 1840
-0.63620847 -1.6843103 0.17555337 60 31127800 20 22 83 1809
-0.5671677 -1.6852196 0.15678336 66 31127800 21 23 138 1785
-1.0698018 -2.3079729 0.2036909 357 31127800 233 24 83 2552
-0.70347643 -1.6747416 0.12807278 52 31127800 17 25 81 1821
-0.62998819 -1.6676664 0.10862822 53 31127800 17 26 132 1786
-0.55621493 -1.6494374 0.089611426 57 31127800 17 27 103 1743
-1.0674554 -2.2999642 0.11021921 375 31127800 242 28 60 2538
-0.91768348 -2.1825628 0.080238894 237 31127800 133 29 45 2369
-0.63926774 -1.6874185 0.0445095 47 31127800 15 30 47 1805
-0.52263123 -1.5479718 0.024411082 270 31127800 72 31 83 1634
-1.0508748 -2.2639291 0.017425226 369 31127800 230 32 105 2496
-0.93025762 -2.2102008 -0.0060686776 353 31127800 203 33 95 2398
-0.5807988 -1.5325179 -0.019566003 238 31127800 64 34 91 1639
-0.52036446 -1.5379804 -0.034832288 257 31127800 68 35 67 1624
-1.036798 -2.2307477 -0.073051564 347 31127800 210 36 133 2461
-0.91563606 -2.1710091 -0.092163414 231 31127800 129 37 65 2358
-0.57618767 -1.5184312 -0.07906124 229 31127800 60 38 133 1626
-0.52117884 -1.5404758 -0.094594933 247 31127800 66 39 84 1629
-1.0038683 -2.1554663 -0.15780622 409 31127800 232 40 109 2383
-0.90694189 -2.1476727 -0.17664304 374 31127800 204 41 113 2338
-0.57732439 -1.5201468 -0.13883282 241 31127800 64 42 166 1632
-0.49435234 -1.4585832 -0.14615004 275 31127800 66 43 78 1547
-0.998146 -2.1412263 -0.24388488 389 31127800 219 44 136 2375
-0.90700436 -2.145417 -0.26242152 342 31127800 188 45 79 2344
-0.81167912 -2.133857 -0.27898464 405 31127800 214 46 126 2300
-0.51303637 -1.5124946 -0.21089098 247 31127800 64 47 138 1611
-0.99424011 -2.1281896 -0.32966766 362 31127800 204 48 104 2372
-0.90742528 -2.1438041 -0.34928423 248 31127800 138 49 59 2354
-0.79557163 -2.0882204 -0.3571707 354 31127800 181 50 77 2263
-0.69698387 -2.0529099 -0.36793539 363 31127800 176 51 65 2199
-0.99822211 -2.131763 -0.41954836 395 31127800 226 52 112 2391
-0.89021838 -2.1001906 -0.42866313 348 31127800 188 53 88 2321
-0.78891313 -2.0687892 -0.43792325 373 31127800 190 54 114 2257
-0.69679618 -2.0524747 -0.45124114 408 31127800 200 55 62 2214
-0.96760583 -2.0633786 -0.49440059 365 31127800 198 56 138 2332
-0.88523185 -2.085387 -0.51366872 392 31127800 212 57 70 2323
-0.766967 -2.0100801 -0.50976658 381 31127800 186 58 62 2211
-0.68014628 -2.0028567 -0.52345693 435 31127800 207 59 100 2179
-0.9548313 -2.029959 -0.57569176 403 31127800 216 60 44 2316
-0.8591094 -2.0191443 -0.58517426 378 31127800 195 61 47 2271
-0.77608693 -2.03281 -0.60327238 372 31127800 190 62 76 2258
-0.67176646 -1.9809051 -0.60338545 384 31127800 182 63 61 2177
-1.1302313 -2.3957355 0.82683361 197 31226460 152 0 85 2775
-1.0593293 -2.4866364 0.81126159 389 31226460 310 1 115 2822
-0.66338736 -1.7352005 0.53791547 53 31226460 20 2 50 1934
-0.5771904 -1.6989415 0.50121683 98 31226460 34 3 47 1863
-1.181312 -2.5072985 0.74873084 434 31226460 358 4 90 2871
-0.88140166 -2.0664735 0.58297509 81 31226460 44 5 62 2321
-0.69025618 -1.8034041 0.48102018 71 31226460 28 6 87 1990
-0.60154575 -1.7647635 0.44569269 88 31226460 32 7 54 1917
-1.1944095 -2.5363603 0.64605886 172 31226460 143 8 91 2877
-0.75301129 -1.7673384 0.42258561 75 31226460 29 9 43 1967
-0.65757167 -1.7152302 0.38563472 69 31226460 24 10 47 1877
-0.58295792 -1.7053573 0.36077815 103 31226460 35 11 41 1838
-0.82105958 -1.7442527 0.36988223 69 31226460 27 12 96 1963
-0.73845011 -1.7313191 0.34175301 66 31226460 24 13 54 1913
-0.64771879 -1.6885597 0.31056696 76 31226460 26 14 100 1835
-0.56010205 -1.6371888 0.28090596 87 31226460 27 15 51 1753
-0.80989677 -1.7204605 0.2930173 64 31226460 24 16 39 1924
-0.72030461 -1.6877153 0.26475433 62 31226460 21 17 97 1854
-0.64477718 -1.6781752 0.24204692 74 31226460 24 18 82 1814
-0.57370865 -1.6736223 0.2212152 65 31226460 21 19 86 1783
-0.81690919 -1.7352784 0.22411963 51 31226460 19 20 80 1931
-0.75122136 -1.7593894 0.20491955 48 31226460 18 21 90 1924
-0.64224243 -1.6692281 0.17438883 65 31226460 21 22 80 1797
-0.58914435 -1.7156246 0.15994538 57 31226460 19 23 132 1821
-1.0992339 -2.3338296 0.20656429 382 31226460 256 24 100 2588
-0.70433241 -1.6483786 0.12638484 56 31226460 18 25 73 1797
-0.63160586 -1.641412 0.10716849 58 31226460 18 26 137 1762
-0.52733552 -1.532672 0.083441965 58 31226460 15 27 87 1623
-1.0713202 -2.2716844 0.10917695 460 31226460 291 28 70 2514
-0.97822016 -2.2871597 0.084303334 300 31226460 186 29 61 2489
-0.64097208 -1.6610802 0.043917686 53 31226460 17 30 42 1781
-0.53993529 -1.5674249 0.02476963 274 31226460 75 31 64 1658
-1.0647463 -2.2574384 0.017425226 360 31226460 224 32 124 2496
-0.96269345 -2.2485771 -0.0061901528 289 31226460 173 33 85 2446
-0.6117968 -1.5848958 -0.02028227 248 31226460 72 34 84 1699
-0.53370625 -1.5460991 -0.035089668 250 31226460 67 35 79 1636
-1.0299776 -2.1809597 -0.071626745 332 31226460 193 36 139 2413
-0.92893988 -2.16535 -0.092163414 366 31226460 204 37 69 2358
-0.60277766 -1.5595865 -0.081395149 245 31226460 69 38 107 1674
-0.54234761 -1.5712212 -0.096685432 238 31226460 66 39 81 1665
-1.0375619 -2.1925583 -0.16098486 431 31226460 255 40 110 2431
-0.9389928 -2.1860449 -0.1802696 353 31226460 201 41 118 2386
-0.79369074 -2.0518379 -0.18783265 290 31226460 141 42 144 2208
-0.53062081 -1.5345554 -0.15408579 275 31226460 73 43 75 1631
-1.0419229 -2.1997874 -0.25127846 401 31226460 240 44 116 2447
-0.92957264 -2.1617208 -0.26510841 328 31226460 184 45 80 2368
-0.81615072 -2.1066222 -0.27607349 377 31226460 195 46 114 2276
-0.52230722 -1.5093182 -0.21089098 239 31226460 62 47 128 1611
-1.0123755 -2.1327844 -0.33133543 384 31226460 218 48 92 2384
-0.92056233 -2.138196 -0.34928423 278 31226460 154 49 66 2354
-0.82122934 -2.1164408 -0.3628526 370 31226460 196 50 79 2299
-0.72118354 -2.0821323 -0.37395889 376 31226460 188 51 83 2235
-0.99605721 -2.0935938 -0.41323143 397 31226460 220 52 118 2355
-0.89841896 -2.0838587 -0.42644686 332 31226460 177 53 105 2309
-0.80585402 -2.074883 -0.44025159 351 31226460 181 54 86 2269
-0.71322173 -2.0592618 -0.45368692 398 31226460 197 55 70 2226
-0.98529243 -2.0679896 -0.4969447 313 31226460 172 56 132 2344
-0.89801085 -2.079916 -0.51366872 366 31226460 198 57 67 2323
-0.78351563 -2.0162199 -0.51253325 352 31226460 174 58 69 2223
-0.69623607 -2.0096526 -0.52633971 428 31226460 206 59 58 2191
-0.97729242 -2.0450366 -0.58165747 435 31226460 238 60 54 2340
-0.87608731 -2.0244758 -0.58826625 391 31226460 204 61 48 2283
-0.78016406 -2.0064542 -0.59686029 387 31226460 193 62 83 2234
-0.69144809 -1.9985384 -0.61003745 379 31226460 184 63 65 2201
-1.14491 -2.3887556 0.82683361 220 31323570 170 0 79 2775
-1.0608588 -2.4484513 0.80091244 432 31323570 336 1 95 2786
-0.77439326 -1.9888822 0.61801875 68 31323570 34 2 59 2222
-0.59138894 -1.7062882 0.50444531 92 31323570 32 3 49 1875
-1.1316512 -2.3641615 0.70804751 487 31323570 359 4 106 2715
-1.0789639 -2.487262 0.70353866 349 31323570 274 5 27 2801
-0.69285065 -1.7774367 0.47521892 69 31323570 27 6 84 1966
-0.60852957 -1.7500155 0.44290274 105 31323570 38 7 59 1905
-1.2149966 -2.5395322 0.64875358 123 31323570 103 8 101 2889
-0.76850122 -1.7734382 0.42516363 76 31323570 30 9 42 1979
-0.65527022 -1.6783438 0.37823841 67 31323570 23 10 52 1841
-0.58178794 -1.6684169 0.35371175 96 31323570 31 11 42 1802
-0.8317467 -1.739182 0.36988223 66 31323570 26 12 92 1963
-0.75845683 -1.7484188 0.34604055 54 31323570 20 13 55 1937
-0.64946055 -1.6625212 0.30650505 68 31323570 22 14 81 1811
-0.58574837 -1.6784551 0.28859761 87 31323570 28 15 52 1801
-0.82043809 -1.7154588 0.2930173 54 31323570 20 16 50 1924
-0.75429219 -1.7377383 0.27332243 64 31323570 24 17 91 1914
-0.66372889 -1.6963376 0.2452493 71 31323570 24 18 77 1838
-0.59575772 -1.7037904 0.22568169 64 31323570 21 19 92 1819
-1.0332481 -2.1603274 0.27983037 67 31323570 39 20 81 2411
-0.7429921 -1.7109693 0.1998072 61 31323570 22 21 77 1876
-0.67425799 -1.7208571 0.18021148 61 31323570 21 22 90 1857
-0.57990193 -1.6555696 0.15467535 65 31323570 20 23 155 1761
-1.1238598 -2.3486209 0.20847988 363 31323570 248 24 88 2612
-0.79076684 -1.8196814 0.13988841 58 31323570 23 25 77 1989
-0.63292545 -1.6152012 0.10570876 59 31323570 18 26 111 1738
-0.56450897 -1.6085637 0.08776059 65 31323570 19 27 104 1707
-1.0852388 -2.2650683 0.10917695 430 31323570 272 28 54 2514
-0.97788417 -2.2481213 0.083084002 342 31323570 206 29 60 2453
-0.6204409 -1.5789589 0.041846327 44 31323570 13 30 46 1697
-0.54158783 -1.5414418 0.024411082 251 31323570 67 31 63 1634
-1.0889486 -2.2725058 0.017592777 357 31323570 227 32 91 2520
-0.98126292 -2.2536302 -0.0062205219 284 31323570 172 33 101 2458
-0.63028938 -1.6034467 -0.020568775 222 31323570 66 34 89 1723
-0.5391987 -1.5314789 -0.034832288 260 31323570 69 35 62 1624
-1.0537174 -2.1962276 -0.072339155 164 31323570 97 36 162 2437
-0.96138859 -2.2035711 -0.094039515 392 31323570 227 37 79 2406
-0.62550431 -1.5893179 -0.083145581 259 31323570 76 38 92 1710
-0.54004359 -1.5339642 -0.094594933 252 31323570 67 39 66 1629
-1.0665594 -2.2185245 -0.16336882 418 31323570 254 40 119 2467
-0.94280869 -2.1583118 -0.17845632 376 31323570 210 41 102 2362
-0.85008436 -2.1581752 -0.19804093 391 31323570 212 42 149 2328
-0.53605348 -1.5200045 -0.15295212 262 31323570 69 43 71 1619
-1.0502254 -2.1825969 -0.25004619 421 31323570 250 44 130 2435
-0.94281924 -2.1559763 -0.26510841 340 31323570 191 45 66 2368
-0.84217477 -2.1348159 -0.28044018 404 31323570 216 46 123 2312
-0.58699089 -1.6631441 -0.23288333 201 31323570 64 47 128 1779
-1.0409279 -2.1586444 -0.33633882 386 31323570 226 48 118 2420
-0.94794339 -2.1651199 -0.35462588 331 31323570 189 49 67 2390
-0.83420014 -2.111362 -0.3628526 352 31323570 186 50 65 2299
-0.73000503 -2.0665126 -0.37195104 357 31323570 177 51 91 2223
-1.0191662 -2.1087162 -0.41744274 391 31323570 221 52 113 2379
-0.91592389 -2.0891082 -0.42866313 344 31323570 185 53 95 2321
-0.82722843 -2.0917935 -0.44490829 363 31323570 191 54 110 2293
-0.73366946 -2.0770013 -0.45857841 406 31323570 206 55 82 2250
-1.028617 -2.1252401 -0.51220918 164 31323570 96 56 123 2416
-0.92487025 -2.1065137 -0.52162915 366 31323570 204 57 88 2359
-0.80876076 -2.0439472 -0.52083337 358 31323570 183 58 61 2259
-0.72019607 -2.0382922 -0.53498787 411 31323570 204 59 79 2227
-0.99489808 -2.0494578 -0.58464026 426 31323570 235 60 57 2352
-0.89316297 -2.029675 -0.59135836 370 31323570 195 61 55 2295
-0.79671746 -2.0123811 -0.6000663 371 31323570 187 62 72 2246
-0.70369786 -1.9942582 -0.61003745 379 31323570 184 63 73 2201
-1.1294601 -2.3198905 0.80538064 218 31423360 159 0 92 2703
-1.0109862 -2.294646 0.75261623 564 31423360 387 1 91 2618
-0.85030174 -2.1448209 0.66808325 168 31423360 97 2 51 2402
-0.62110651 -1.7571114 0.52058756 86 31423360 32 3 51 1935
-1.1208072 -2.3050811 0.69240004 556 31423360 392 4 108 2655
-1.0895174 -2.4699674 0.70052457 410 31423360 319 5 45 2789
-0.69944829 -1.7623291 0.47231832 70 31423360 27 6 100 1954
-0.61535519 -1.7352487 0.44011283 107 31423360 38 7 70 1893
-1.2356672 -2.5425465 0.65144825 167 31423360 141 8 69 2901
-0.76519084 -1.7365152 0.41742948 68 31423360 26 9 36 1943
-0.68724716 -1.7288585 0.39056557 83 31423360 30 10 50 1901
-0.59201425 -1.6648157 0.35371175 78 31423360 25 11 45 1802
-0.82695335 -1.7022445 0.36309883 77 31423360 29 12 79 1927
-0.78823119 -1.7869428 0.35461563 60 31423360 23 13 53 1985
-0.65964937 -1.658505 0.30650505 69 31423360 23 14 96 1811
-0.5920648 -1.6636701 0.28667471 82 31423360 26 15 56 1789
-0.87240946 -1.795734 0.30763769 55 31423360 22 16 32 2020
-0.77453232 -1.7548088 0.27674967 53 31423360 20 17 92 1938
-0.65211868 -1.6369915 0.23724335 55 31423360 17 18 91 1778
-0.59020424 -1.6552403 0.21972635 49 31423360 15 19 72 1771
-1.1923236 -2.4541237 0.3188279 98 31423360 74 20 77 2747
-0.78239453 -1.7718682 0.20747571 46 31423360 18 21 70 1948
-0.65382767 -1.6390345 0.17205976 73 31423360 23 22 78 1773
-0.58602864 -1.6407231 0.15362135 71 31423360 22 23 143 1749
-1.1225615 -2.3094065 0.20560651 230 31423360 153 24 78 2576
-1.0099562 -2.2856016 0.1761792 290 31423360 182 25 91 2505
-0.64282417 -1.6112874 0.10570876 49 31423360 15 26 100 1738
-0.59051925 -1.6502033 0.090228379 81 31423360 25 27 116 1755
-1.104363 -2.2691462 0.10969808 450 31423360 287 28 54 2526
-1.0062135 -2.2749832 0.084303334 295 31423360 183 29 65 2489
-0.80834758 -2.0206487 0.053682651 53 31423360 25 30 45 2177
-0.5591293 -1.560681 0.02476963 263 31423360 72 31 63 1658
-1.0871166 -2.233413 0.017341452 362 31423360 224 32 77 2484
-0.97564059 -2.2036762 -0.0060990467 313 31423360 182 33 77 2410
-0.6401161 -1.5995492 -0.020568775 191 31423360 57 34 103 1723
-0.55669272 -1.5507251 -0.035347052 267 31423360 73 35 79 1648
-1.0934477 -2.2436328 -0.074120179 398 31423360 248 36 130 2497
-0.97489136 -2.1976306 -0.094039515 359 31423360 208 37 80 2406
-0.63078654 -1.574324 -0.082562104 240 31423360 69 38 123 1698
-0.54944563 -1.5306216 -0.094594933 266 31423360 71 39 70 1629
-1.0748979 -2.2011793 -0.16257417 419 31423360 253 40 112 2455
-0.96089113 -2.1634216 -0.17936295 352 31423360 198 41 122 2374
-0.86331069 -2.1529186 -0.19804093 370 31423360 200 42 143 2328
-0.54536998 -1.5166867 -0.15295212 273 31423360 72 43 75 1619
-1.0635977 -2.1761119 -0.25004619 418 31423360 248 44 119 2435
-0.95603031 -2.1501505 -0.26510841 340 31423360 191 45 98 2368
-0.85969698 -2.1406617 -0.28189576 386 31423360 208 46 136 2324
-0.76234204 -2.1184652 -0.29728952 335 31423360 173 47 134 2271
-1.043699 -2.1308725 -0.33300325 401 31423360 230 48 95 2396
-0.9563843 -2.148421 -0.35284531 333 31423360 189 49 73 2378
-0.84271777 -2.0952101 -0.36095867 352 31423360 184 50 62 2287
-0.75068927 -2.0842564 -0.37596673 361 31423360 182 51 90 2247
-1.0529097 -2.1448424 -0.42586526 396 31423360 233 52 127 2427
-0.95273358 -2.1373079 -0.43974447 193 31423360 109 53 101 2381
-0.8488403 -2.1085186 -0.44956499 351 31423360 189 54 100 2317
-0.74241912 -2.0614076 -0.45613268 387 31423360 194 55 63 2238
-1.0364641 -2.1083643 -0.50966507 295 31423360 171 56 103 2404
-0.93300778 -2.0901124 -0.51897568 325 31423360 179 57 70 2347
-0.82128698 -2.0389462 -0.52083337 354 31423360 181 58 86 2259
-0.72479314 -2.0119164 -0.52922237 406 31423360 197 59 92 2203
-1.0177348 -2.0641651 -0.59060603 429 31423360 242 60 49 2376
-0.91033518 -2.0347404 -0.59445047 377 31423360 200 61 50 2307
-0.81337285 -2.0181804 -0.60327238 366 31423360 187 62 63 2258
-0.71982437 -2.0007517 -0.61336333 385 31423360 189 63 71 2213
-1.1132092 -2.2513072 0.78392762 264 31521090 183 0 91 2631
-1.0344439 -2.3093779 0.7595157 535 31521090 374 1 106 2642
-0.85050523 -2.1074965 0.65807033 276 31521090 154 2 49 2366
-0.6475507 -1.7967592 0.53350133 83 31521090 33 3 41 1983
-1.1503186 -2.3293221 0.70178854 513 31521090 372 4 91 2691
-1.1141582 -2.4844325 0.7065528 427 31521090 338 5 59 2813
-0.7146104 -1.7688005 0.47521892 77 31521090 30 6 91 1966
-0.62202263 -1.7204643 0.43732285 94 31521090 33 7 67 1881
-1.2150143 -2.4615171 0.63258529 394 31521090 313 8 83 2817
-0.79499769 -1.7745695 0.42774168 60 31521090 24 9 39 1991
-0.71546268 -1.7681551 0.40042731 60 31521090 23 10 58 1949
-0.64232153 -1.7717724 0.37726638 85 31521090 31 11 30 1922
-0.85824114 -1.7394128 0.37214336 74 31521090 29 12 90 1975
-0.80401212 -1.792846 0.3567594 59 31521090 23 13 55 1997
-0.70088142 -1.7311639 0.32072175 65 31521090 23 14 106 1895
-0.59822196 -1.6488712 0.2847518 73 31521090 23 15 67 1777
-0.8309316 -1.68399 0.28936219 69 31521090 25 16 46 1900
-0.75124788 -1.6741709 0.26475433 61 31521090 21 17 92 1854
-0.69343352 -1.7101071 0.24845169 52 31521090 18 18 74 1862
-0.58407801 -1.6068242 0.21377105 70 31521090 21 19 101 1723
-1.1282458 -2.2864351 0.29793635 306 31521090 202 20 92 2567
-0.76881897 -1.7126081 0.20108528 57 31521090 20 21 89 1888
-0.70880443 -1.7456512 0.18370509 61 31521090 22 22 84 1893
-0.61244398 -1.6820252 0.15783736 54 31521090 17 23 143 1797
-1.1631868 -2.3561041 0.21039547 269 31521090 187 24 101 2636
-1.0239614 -2.2793617 0.1761792 350 31521090 220 25 71 2505
-0.66171187 -1.6295081 0.10716849 50 31521090 15 26 122 1762
-0.58009905 -1.5902567 0.087143645 56 31521090 16 27 111 1695
-1.1235778 -2.2730749 0.11021921 458 31521090 295 28 58 2538
-1.0496639 -2.3343956 0.086741999 77 31521090 50 29 53 2561
-0.93383116 -2.2934165 0.061080355 296 31521090 181 30 52 2477
-0.57692695 -1.579762 0.025128176 240 31521090 68 31 83 1682
-1.106118 -2.2374575 0.017425226 367 31521090 229 32 107 2496
-1.0088446 -2.2414188 -0.0062205219 261 31521090 158 33 92 2458
-0.80381703 -1.9734215 -0.025439385 185 31521090 84 34 87 2131
-0.57032007 -1.5585467 -0.035604432 251 31521090 69 35 74 1660
-1.1178356 -2.2583811 -0.074832588 387 31521090 246 36 154 2521
-0.99328691 -2.2025383 -0.094508544 361 31521090 211 37 81 2418
-0.67211682 -1.6481128 -0.086646453 195 31521090 62 38 111 1782
-0.55059379 -1.5047209 -0.093201272 243 31521090 63 39 64 1605
-1.0830638 -2.1838152 -0.16177951 424 31521090 253 40 115 2443
-0.98399568 -2.1792963 -0.18117622 353 31521090 203 41 123 2398
-0.88102257 -2.1586511 -0.19906177 281 31521090 154 42 146 2340
-0.55877709 -1.5245284 -0.15408579 257 31521090 68 43 87 1631
-1.0875446 -2.1909282 -0.25251073 423 31521090 256 44 132 2459
-0.97902846 -2.1659765 -0.26779535 354 31521090 203 45 78 2392
-0.87732249 -2.1463723 -0.28335136 354 31521090 193 46 127 2336
-0.77942312 -2.1249168 -0.29886037 362 31521090 189 47 137 2283
-1.072632 -2.156348 -0.33800665 403 31521090 238 48 104 2432
-0.98422652 -2.1749475 -0.35818696 313 31521090 183 49 82 2414
-0.86902535 -2.1228988 -0.36664057 367 31521090 198 50 77 2323
-0.77161831 -2.1018231 -0.37998238 389 31521090 201 51 76 2271
-1.0607795 -2.127769 -0.42375967 395 31521090 230 52 99 2415
-0.97069764 -2.142164 -0.44196075 300 31521090 172 53 100 2393
-0.86176199 -2.1032705 -0.44956499 362 31521090 194 54 85 2317
-0.75910223 -2.0678418 -0.45857841 408 31521090 207 55 96 2250
-1.038905 -2.0809803 -0.50457692 370 31521090 209 56 138 2380
-0.940979 -2.0736911 -0.5163222 318 31521090 174 57 82 2335
-0.83821142 -2.0446727 -0.5236001 334 31521090 172 58 80 2271
-0.7451548 -2.0293007 -0.53498787 403 31521090 200 59 97 2227
-1.0251771 -2.047488 -0.58762318 413 31521090 231 60 49 2364
-0.92760295 -2.0396707 -0.59754246 377 31521090 203 61 31 2319
-0.83890587 -2.0452478 -0.61289054 370 31521090 195 62 67 2294
-0.73605698 -2.0071223 -0.61668932 374 31521090 185 63 65 2225
-1.1475631 -2.2853818 0.79822963 228 31618510 164 0 68 2679
-1.0581199 -2.3239076 0.76641518 519 31618510 369 1 110 2666
-0.8809371 -2.144887 0.67142087 247 31618510 144 2 58 2414
-0.66653377 -1.8144497 0.5399583 85 31618510 34 3 40 2007
-1.1697826 -2.3325756 0.70491797 479 31618510 350 4 95 2703
-1.1293813 -2.4775493 0.7065528 506 31618510 401 5 63 2813
-0.69445425 -1.6889969 0.45491457 64 31618510 23 6 102 1882
-0.64467406 -1.7494693 0.44569269 87 31618510 32 7 74 1917
-1.2405751 -2.4749229 0.63797468 391 31618510 316 8 108 2841
-0.7913 -1.7376603 0.42000753 64 31618510 24 9 44 1955
-0.70393926 -1.7094352 0.38810012 72 31618510 26 10 53 1889
-0.63279015 -1.7126117 0.36548907 75 31618510 26 11 46 1862
-0.91113281 -1.8184052 0.39023232 69 31618510 30 12 124 2071
-0.82479239 -1.8093657 0.36104697 72 31618510 29 13 44 2021
-0.72050142 -1.7487009 0.32478365 77 31618510 28 14 99 1919
-0.612436 -1.6562792 0.28667471 75 31618510 24 15 70 1789
-0.88906711 -1.7742898 0.30581015 67 31618510 27 16 31 2008
-0.78615046 -1.7235599 0.27332243 57 31618510 21 17 75 1914
-0.69484043 -1.683833 0.2452493 50 31618510 17 18 95 1838
-0.61460865 -1.6590387 0.2212152 63 31618510 20 19 91 1783
-1.1956509 -2.3860278 0.31186402 382 31618510 276 20 108 2687
-0.77435958 -1.6970034 0.1998072 44 31618510 16 21 81 1876
-0.68757498 -1.6640022 0.17555337 52 31618510 17 22 80 1809
-0.60611874 -1.6334081 0.15362135 58 31618510 18 23 126 1749
-1.1776216 -2.3489227 0.21039547 386 31618510 268 24 85 2636
-1.0528444 -2.3057022 0.17871113 325 31618510 210 25 107 2541
-0.68084705 -1.6475569 0.10862822 46 31618510 15 26 139 1786
-0.62325299 -1.6765317 0.092079215 64 31618510 21 27 85 1791
-1.1482605 -2.2875671 0.11126147 451 31618510 296 28 82 2562
-1.0490115 -2.2951877 0.085522667 313 31618510 199 29 49 2525
-0.94329357 -2.2765605 0.060784444 318 31618510 193 30 55 2465
-0.59497952 -1.5986826 0.025486724 101 31618510 30 31 72 1706
-1.1521286 -2.2949734 0.017927878 379 31618510 250 32 97 2568
-1.0275708 -2.2460988 -0.00625089 386 31618510 236 33 92 2470
-0.9169901 -2.2123151 -0.028590959 333 31618510 191 34 111 2395
-0.57987243 -1.5550178 -0.035604432 243 31618510 67 35 85 1660
-1.126285 -2.2407625 -0.074476376 387 31618510 243 36 161 2509
-1.021772 -2.2291028 -0.095915623 361 31618510 218 37 77 2454
-0.9027313 -2.1753378 -0.11465338 204 31618510 113 38 119 2358
-0.58074397 -1.5574381 -0.096685432 240 31618510 66 39 53 1665
-1.1018288 -2.1878228 -0.16257417 433 31618510 261 40 110 2455
-0.99734902 -2.1732175 -0.18117622 368 31618510 212 41 125 2398
-0.90342301 -2.1752887 -0.20110342 315 31618510 176 42 149 2364
-0.5681209 -1.5210711 -0.15408579 241 31618510 64 43 74 1631
-1.0955945 -2.1735549 -0.25127846 427 31618510 256 44 144 2447
-1.0022564 -2.1815999 -0.27048224 356 31618510 208 45 79 2416
-0.89047587 -2.1409488 -0.28335136 234 31618510 128 46 105 2336
-0.7882815 -2.1089506 -0.29728952 373 31618510 192 47 146 2271
-1.0858428 -2.1497259 -0.33800665 421 31618510 249 48 96 2432
-1.0025121 -2.1796489 -0.35996753 337 31618510 199 49 60 2426
-0.87747848 -2.1065879 -0.36474657 354 31618510 189 50 57 2311
-0.78450036 -2.097049 -0.37998238 396 31618510 204 51 76 2271
-1.0844867 -2.1423004 -0.42797092 396 31618510 236 52 113 2439
-0.96408933 -2.0933192 -0.43309566 356 31618510 196 53 84 2345
-0.87012124 -2.0870779 -0.44723663 334 31618510 178 54 89 2305
-0.7676599 -2.0521419 -0.45613268 361 31618510 181 55 70 2238
-1.0569565 -2.0850265 -0.50712103 410 31618510 235 56 124 2392
-0.95368522 -2.0678785 -0.5163222 356 31618510 194 57 70 2335
-0.85523677 -2.0502675 -0.52636677 366 31618510 191 58 80 2283
-0.76167458 -2.0356002 -0.53787059 385 31618510 193 59 83 2239
-1.0587915 -2.0826042 -0.5995546 415 31618510 242 60 63 2412
-0.94496536 -2.0444658 -0.60063457 405 31618510 220 61 59 2331
-0.84253168 -2.0187187 -0.60647845 368 31618510 190 62 62 2270
-0.74835861 -2.0025682 -0.61668932 363 31618510 180 63 75 2225
-1.1667674 -2.2885027 0.8018052 222 31716650 161 0 77 2691
-1.0675323 -2.3069406 0.76296538 522 31716650 368 1 102 2654
-0.97408193 -2.3308744 0.7314983 326 31716650 226 2 99 2630
-0.64118868 -1.712909 0.51090223 78 31716650 28 3 43 1899
-1.1893299 -2.3356774 0.70804751 534 31716650 394 4 96 2715
-1.1494446 -2.481112 0.70956683 412 31716650 328 5 49 2825
-0.7362625 -1.7598979 0.47521892 76 31716650 29 6 97 1966
-0.65129381 -1.7345544 0.44290274 92 31716650 34 7 67 1905
-1.2663457 -2.4881072 0.64336419 371 31716650 305 8 108 2865
-0.81179208 -1.7540442 0.42516363 68 31716650 27 9 27 1979
-0.74618351 -1.7809054 0.40535817 62 31716650 24 10 52 1973
-0.65572399 -1.7417327 0.37255546 76 31716650 27 11 47 1898
-0.92227322 -1.8127803 0.39023232 71 31716650 30 12 132 2071
-0.80609995 -1.739992 0.34818432 66 31716650 25 13 60 1949
-0.73121768 -1.7442471 0.32478365 74 31716650 27 14 103 1919
-0.6476438 -1.7189963 0.2982122 68 31716650 24 15 65 1861
-1.0935491 -2.1493399 0.37160197 89 31716650 53 16 57 2440
-0.79171622 -1.7079281 0.2716088 62 31716650 23 17 80 1902
-0.72817856 -1.7343651 0.25325528 50 31716650 18 18 64 1898
-0.62477672 -1.6552364 0.2212152 48 31716650 15 19 90 1783
-1.2048639 -2.3680239 0.31047127 264 31716650 189 20 122 2675
-0.82993561 -1.7896401 0.21130995 59 31716650 23 21 102 1984
-0.71165812 -1.6927817 0.17904694 54 31716650 19 22 64 1845
-0.64149356 -1.6967454 0.15994538 39 31716650 13 23 112 1821
-1.1974387 -2.3523128 0.21135327 388 31716650 272 24 82 2648
-1.0720109 -2.3100569 0.1795551 350 31716650 228 25 87 2553
-0.70951301 -1.6875144 0.11154768 44 31716650 15 26 127 1834
-0.62928349 -1.6614686 0.091462262 55 31716650 17 27 108 1779
-1.1677191 -2.2911599 0.1117826 446 31716650 296 28 61 2574
-1.0630747 -2.2887077 0.085522667 367 31716650 234 29 56 2525
-0.94792455 -2.2486215 0.06019263 274 31716650 163 30 54 2441
-0.62179363 -1.6398787 0.026203819 69 31716650 21 31 82 1754
-1.1498401 -2.2557881 0.017676551 377 31716650 242 32 111 2532
-1.0463924 -2.2506328 -0.006281259 368 31716650 227 33 92 2482
-0.95385963 -2.2619281 -0.029307224 323 31716650 195 34 77 2455
-0.58940291 -1.5514306 -0.035604432 243 31716650 67 35 79 1660
-1.15637 -2.265861 -0.075544991 387 31716650 251 36 125 2545
-1.030367 -2.2119219 -0.095446594 346 31716650 207 37 83 2442
-0.93470955 -2.2139261 -0.1169873 357 31716650 206 38 156 2406
-0.58178061 -1.5314476 -0.095291764 251 31716650 68 39 80 1641
-1.1206836 -2.1916816 -0.16336882 451 31716650 275 40 105 2467
-1.0207801 -2.1887457 -0.18298951 356 31716650 209 41 101 2422
-0.91675329 -2.1697044 -0.20110342 364 31716650 203 42 152 2364
-0.76437777 -2.008832 -0.20396765 294 31716650 137 43 81 2159
-1.1252248 -2.1986692 -0.25497523 445 31716650 275 44 95 2483
-1.0156236 -2.1754091 -0.27048224 349 31716650 204 45 75 2416
-0.90359575 -2.1354446 -0.28335136 347 31716650 189 46 125 2336
-0.80967408 -2.1263101 -0.30043128 359 31716650 189 47 141 2295
-1.1044356 -2.1535969 -0.33967441 397 31716650 237 48 106 2444
-0.99576765 -2.1304533 -0.35284531 331 31716650 187 49 71 2378
-0.89501113 -2.1120746 -0.36664057 332 31716650 179 50 56 2323
-0.801566 -2.103251 -0.38199019 370 31716650 193 51 77 2283
-1.0976112 -2.1356058 -0.42797092 398 31716650 237 52 110 2439
-0.98191476 -2.0980458 -0.43531194 333 31716650 185 53 98 2357
-0.89210385 -2.1033745 -0.4518933 338 31716650 183 54 107 2329
-0.78442067 -2.0583708 -0.45857841 382 31716650 193 55 93 2250
-1.0697302 -2.0785019 -0.50712103 411 31716650 235 56 126 2392
-0.97132182 -2.0725849 -0.51897568 328 31716650 181 57 71 2347
-0.87692368 -2.0664792 -0.53190023 361 31716650 192 58 76 2307
-0.77415043 -2.0308883 -0.53787059 381 31716650 191 59 89 2239
-1.0662191 -2.0657394 -0.59657174 445 31716650 256 60 52 2400
-0.97227973 -2.0701137 -0.60991079 414 31716650 232 61 50 2367
-0.86394107 -2.0347991 -0.61289054 380 31716650 200 62 63 2294
-0.76063204 -1.9979386 -0.61668932 353 31716650 175 63 58 2225
-1.1597254 -2.2406082 0.78750318 269 31813680 188 0 84 2643
-1.1012304 -2.3419509 0.77676433 549 31813680 401 1 101 2702
-1.0605201 -2.4945767 0.78490043 360 31813680 287 2 60 2822
-0.65992302 -1.7305405 0.51735914 66 31813680 24 3 34 1923
-1.2089589 -2.3386269 0.71117699 586 31813680 436 4 115 2727
-1.1646467 -2.4740126 0.70956683 322 31813680 257 5 41 2825
-0.77896577 -1.8303469 0.49552333 59 31813680 25 6 87 2050
-0.64941579 -1.6978226 0.43453294 86 31813680 30 7 73 1869
-1.2976923 -2.511456 0.65144825 391 31813680 329 8 87 2901
-0.86742789 -1.8444799 0.44836611 78 31813680 34 9 44 2087
-0.74788743 -1.7546862 0.40042731 78 31813680 29 10 52 1949
-0.67482525 -1.7596492 0.37726638 86 31813680 32 11 31 1922
-1.3065501 -2.529573 0.54624993 128 31813680 108 12 108 2899
-0.80670351 -1.7136481 0.34389678 66 31813680 25 13 61 1925
-0.72334903 -1.6962116 0.31665984 56 31813680 20 14 115 1871
-0.65393519 -1.7039316 0.29628929 76 31813680 26 15 67 1849
-1.215574 -2.3533361 0.408153 89 31813680 64 16 51 2680
-0.80218095 -1.7030381 0.2716088 51 31813680 19 17 69 1902
-0.71545136 -1.6751795 0.2452493 55 31813680 19 18 76 1838
-0.63492131 -1.6513716 0.2212152 63 31813680 20 19 87 1783
-1.2412513 -2.4029443 0.31604233 212 31813680 157 20 87 2723
-1.1155502 -2.3673594 0.28032652 298 31813680 207 21 98 2632
-0.71263921 -1.6664206 0.17671789 57 31813680 19 22 95 1821
-0.66478002 -1.7262424 0.1631074 45 31813680 15 23 144 1857
-1.2118497 -2.3449211 0.21135327 377 31813680 265 24 95 2648
-1.0963757 -2.3250895 0.18124305 352 31813680 234 25 92 2577
-0.85173571 -1.9914886 0.13198389 69 31813680 32 26 130 2170
-0.62652594 -1.6240333 0.089611426 50 31813680 15 27 85 1743
-1.1817554 -2.2839518 0.1117826 451 31813680 299 28 89 2574
-1.0924547 -2.3146794 0.086741999 349 31813680 229 29 53 2561
-0.98061496 -2.2868643 0.061376259 247 31813680 153 30 56 2489
-0.65778065 -1.7031902 0.027279461 70 31813680 23 31 95 1826
-1.1746898 -2.270005 0.017844103 399 31813680 261 32 93 2556
-1.0653082 -2.2550201 -0.006311628 348 31813680 217 33 79 2494
-0.96772057 -2.2560327 -0.029307224 183 31813680 110 34 88 2455
-0.59025222 -1.5254072 -0.035089668 236 31813680 63 35 86 1636
-1.1647335 -2.2480731 -0.075188793 385 31813680 247 36 134 2533
-1.0541794 -2.2272341 -0.096384645 375 31813680 228 37 99 2466
-0.94827634 -2.2081492 -0.1169873 369 31813680 213 38 156 2406
-0.59548944 -1.5390217 -0.095988601 266 31813680 73 39 61 1653
-1.1506599 -2.2166455 -0.1657528 447 31813680 280 40 111 2503
-1.0495627 -2.2148805 -0.18570942 361 31813680 218 41 116 2458
-0.92532802 -2.1530535 -0.20008259 347 31813680 192 42 140 2352
-0.82849264 -2.1377728 -0.21757179 391 31813680 208 43 59 2303
-1.1497008 -2.2129083 -0.25743976 435 31813680 273 44 119 2507
-1.0289525 -2.1691363 -0.27048224 353 31813680 206 45 76 2416
-0.92139047 -2.140801 -0.28480691 340 31813680 187 46 130 2348
-0.80980045 -2.0880265 -0.29571864 359 31813680 183 47 128 2259
-1.1286042 -2.167861 -0.34301001 419 31813680 255 48 99 2468
-1.0342751 -2.1779022 -0.36174807 348 31813680 207 49 77 2438
-0.92671466 -2.1500704 -0.37421641 217 31813680 122 50 73 2371
-0.81873721 -2.1093223 -0.38399804 369 31813680 195 51 59 2295
-1.1052296 -2.1183567 -0.42586526 402 31813680 237 52 114 2427
-1.0048988 -2.1132829 -0.43974447 344 31813680 195 53 90 2381
-0.91898191 -2.1302884 -0.45887834 356 31813680 199 54 69 2365
-0.80553758 -2.0754232 -0.46346995 364 31813680 188 55 70 2274
-1.0878938 -2.082293 -0.50966507 407 31813680 235 56 141 2404
-0.98905194 -2.0771523 -0.52162915 322 31813680 179 57 91 2359
-0.89421403 -2.0717802 -0.53466696 345 31813680 186 58 64 2319
-0.78238136 -2.0152411 -0.53498787 386 31813680 192 59 77 2227
-1.0896628 -2.0797498 -0.60253745 442 31813680 260 60 49 2424
-0.97996986 -2.0536444 -0.60681868 407 31813680 226 61 44 2355
-0.86265647 -1.9976113 -0.60327238 337 31813680 172 62 64 2258
-0.77704513 -2.0039837 -0.62001526 365 31813680 183 63 82 2237
-1.1841073 -2.2537313 0.79465413 267 31911450 190 0 77 2667
-1.1254884 -2.3558912 0.78366381 501 31911450 373 1 93 2726
-1.0895305 -2.519762 0.79491335 374 31911450 305 2 54 2858
-0.68308181 -1.7587793 0.52704448 80 31911450 31 3 41 1959
-1.2394346 -2.3619394 0.7205655 318 31911450 243 4 93 2763
-1.1397126 -2.3829916 0.68545413 457 31911450 341 5 61 2729
-0.79480731 -1.8362187 0.4984239 69 31911450 29 6 116 2062
-0.67253041 -1.7264314 0.44290274 81 31911450 30 7 69 1905
-1.3130778 -2.5034461 0.65144825 419 31911450 353 8 104 2901
-1.1768317 -2.463032 0.60047114 316 31911450 247 9 104 2795
-0.75863993 -1.7500643 0.40042731 75 31911450 28 10 51 1949
-0.6727677 -1.7225945 0.37019998 73 31911450 26 11 52 1886
-1.3329915 -2.5423834 0.55077213 242 31911450 207 12 118 2923
-0.85795712 -1.7938775 0.36104697 53 31911450 22 13 44 2021
-0.74786121 -1.7242922 0.32275268 57 31911450 21 14 113 1907
-0.66437799 -1.699887 0.29628929 70 31911450 24 15 57 1849
-1.2960801 -2.4718781 0.4300836 347 31911450 277 16 40 2824
-0.80236167 -1.6766571 0.26818156 47 31911450 17 17 76 1878
-0.71624047 -1.6489419 0.24204692 57 31911450 19 18 61 1814
-0.67108965 -1.7139708 0.23014818 52 31911450 18 19 97 1855
-1.2670422 -2.4163947 0.3188279 269 31911450 203 20 72 2747
-1.1403594 -2.3819938 0.28288269 384 31911450 271 21 81 2656
-0.72285074 -1.6620165 0.17671789 58 31911450 19 22 68 1821
-0.7015447 -1.7889018 0.16943143 53 31911450 20 23 132 1929
-1.2151012 -2.3162558 0.20943767 367 31911450 253 24 84 2624
-1.1002781 -2.2967277 0.1795551 144 31911450 94 25 95 2553
-1.002488 -2.3047533 0.15314998 334 31911450 212 26 142 2518
-0.66715276 -1.6982385 0.093930058 53 31911450 18 27 113 1827
-1.212471 -2.3084991 0.113346 469 31911450 320 28 86 2610
-1.1014513 -2.2971182 0.086335555 359 31911450 233 29 54 2549
-1.0090144 -2.3137932 0.062263984 313 31911450 199 30 57 2525
-0.82191646 -2.0899386 0.033554032 118 31911450 60 31 62 2246
-1.1997566 -2.2840009 0.018011652 402 31911450 268 32 102 2580
-1.0895091 -2.2700779 -0.0063723652 411 31911450 261 33 100 2518
-0.98154509 -2.2500525 -0.029307224 322 31911450 194 34 112 2455
-0.64358133 -1.6333771 -0.037663482 172 31911450 53 35 50 1756
-1.1785055 -2.2408841 -0.075188793 487 31911450 312 36 138 2533
-1.0678256 -2.2207239 -0.096384645 378 31911450 230 37 87 2466
-0.96660453 -2.213273 -0.11757078 355 31911450 207 38 150 2418
-0.62687868 -1.591068 -0.099472761 223 31911450 66 39 64 1713
-1.1586578 -2.1989503 -0.16495815 446 31911450 277 40 91 2491
-1.0527526 -2.1868358 -0.18389612 376 31911450 223 41 104 2434
-0.9433099 -2.1582911 -0.20110342 363 31911450 203 42 143 2364
-0.8547498 -2.1659861 -0.22097284 387 31911450 212 43 74 2339
-1.1465532 -2.1741371 -0.25374299 431 31911450 263 44 131 2471
-1.0577728 -2.195009 -0.27451262 354 31911450 213 45 68 2452
-0.94883692 -2.1678431 -0.28917363 380 31911450 216 46 125 2384
-0.84007591 -2.1272793 -0.30200216 354 31911450 188 47 121 2307
-1.1418847 -2.1608953 -0.34301001 404 31911450 246 48 109 2468
-1.047619 -2.171515 -0.36174807 325 31911450 193 49 72 2438
-0.93988979 -2.1443439 -0.37421641 346 31911450 195 50 71 2371
-0.84036148 -2.1262641 -0.38801369 352 31911450 189 51 90 2319
-1.1292646 -2.132416 -0.43007657 421 31911450 253 52 120 2451
-1.0229766 -2.1176968 -0.44196075 348 31911450 199 53 110 2393
-0.92730671 -2.1138294 -0.45655003 348 31911450 193 54 92 2353
-0.82257491 -2.0813673 -0.46591565 355 31911450 186 55 66 2286
-1.1006501 -2.0755787 -0.50966507 379 31911450 219 56 128 2404
-1.0017785 -2.0710444 -0.52162915 347 31911450 193 57 69 2359
-0.91160238 -2.0769467 -0.53743368 359 31911450 195 58 79 2331
-0.80757892 -2.042901 -0.54363608 378 31911450 194 59 84 2263
-1.096946 -2.0627623 -0.5995546 461 31911450 269 60 61 2412
-0.99255234 -2.0475926 -0.60681868 399 31911450 221 61 53 2355
-0.9027949 -2.0558076 -0.6225087 355 31911450 193 62 62 2330
-0.81049782 -2.0527995 -0.63664514 361 31911450 191 63 77 2297
-1.1925237 -2.2363157 0.79107869 257 32009850 181 0 88 2655
-1.1549767 -2.3799615 0.79401296 302 32009850 231 1 88 2762
-1.1003314 -2.5024779 0.79157573 366 32009850 296 2 50 2846
-0.68536001 -1.7330595 0.52058756 74 32009850 28 3 56 1935
-1.2702413 -2.3849645 0.72995389 224 32009850 176 4 98 2799
-1.1390857 -2.3446109 0.67641187 543 32009850 393 5 57 2693
-0.98900574 -2.2469485 0.6115483 46 32009850 29 6 122 2530
-0.69171709 -1.7439703 0.44848263 74 32009850 28 7 74 1929
-1.339404 -2.5159862 0.65683776 387 32009850 331 8 91 2925
-1.2328614 -2.540113 0.62109554 123 32009850 102 9 53 2891
-0.7646268 -1.73463 0.39796185 72 32009850 27 10 65 1937
-0.68332469 -1.718434 0.37019998 79 32009850 28 11 40 1886
-1.298739 -2.4405236 0.53042203 436 32009850 346 12 116 2815
-0.86378849 -1.7779593 0.35890317 42 32009850 17 13 57 2009
-0.74888223 -1.6980286 0.31869081 73 32009850 26 14 105 1883
-0.67479581 -1.6957785 0.29628929 74 32009850 25 15 85 1849
-1.3000793 -2.4429395 0.4264285 546 32009850 429 16 61 2800
-0.86455989 -1.7785203 0.28531778 56 32009850 22 17 102 1998
-0.77439392 -1.7533044 0.25805885 53 32009850 20 18 77 1934
-0.68600297 -1.7208816 0.231637 60 32009850 21 19 74 1867
-1.2818451 -2.4085748 0.3188279 392 32009850 296 20 92 2747
-1.1549536 -2.3749518 0.28288269 395 32009850 279 21 106 2656
-0.72337401 -1.635704 0.17438883 53 32009850 17 22 71 1797
-0.68591362 -1.7179545 0.1631074 44 32009850 15 23 151 1857
-1.2292906 -2.3087566 0.20943767 370 32009850 255 24 97 2624
-1.1300634 -2.3222237 0.18208702 349 32009850 234 25 78 2589
-1.011766 -2.2876043 0.1524201 372 32009850 234 26 112 2506
-0.67756039 -1.6941129 0.093930058 42 32009850 14 27 90 1827
-1.2153337 -2.2798572 0.11230374 426 32009850 285 28 63 2586
