# .PCD v0.7 - Point Cloud Data file format
VERSION 0.7
FIELDS x y z intensity t reflectivity ring noise range
SIZE 4 4 4 4 4 2 1 2 4
TYPE F F F F U U U U U
COUNT 1 1 1 1 1 1 1 1 1
WIDTH 770
HEIGHT 1
VIEWPOINT 0 0 0 1 0 0 0
POINTS 770
DATA ascii
-1.8532901 -1.7825422 -0.055165417 222 38645730 147 35 67 2572
-1.9381517 -1.4952875 -0.07269536 73 38645730 44 36 131 2449
-1.9878517 -1.6509471 -0.1010749 146 38645730 97 37 54 2586
-1.9702502 -1.7614988 -0.12865685 217 38645730 152 38 111 2646
-1.8800571 -1.8083506 -0.15173516 153 38645730 104 39 57 2613
-2.054496 -1.5824748 -0.1721101 158 38645730 107 40 77 2599
-2.0795877 -1.7255415 -0.20474878 271 38645730 199 41 96 2710
-2.0327916 -1.8163927 -0.23274913 247 38645730 185 42 147 2736
-1.937524 -1.8616085 -0.25498319 217 38645730 158 43 48 2699
-2.1842616 -1.6812123 -0.2845495 125 38645730 96 44 109 2771
-2.2062361 -1.8291334 -0.32287696 251 38645730 209 45 60 2884
-2.0941982 -1.8692911 -0.3430298 238 38645730 191 46 85 2828
-2.0014391 -1.922079 -0.36640832 178 38645730 139 47 147 2799
-2.2301431 -1.7135535 -0.39471167 477 38645730 385 48 105 2840
-2.2588615 -1.8711013 -0.44009218 207 38645730 182 49 72 2966
-2.1454794 -1.9130476 -0.45944497 213 38645730 180 50 38 2911
-2.0591691 -1.9764148 -0.48438972 152 38645730 128 51 69 2895
-3.14272 -2.4102957 -0.70591515 808 38645730 1308 52 122 4023
-2.3207531 -1.9203887 -0.56607175 173 38645730 163 53 82 3065
-1.3014758 -1.1597458 -0.34478936 137 38645730 43 54 115 1777
-1.1908216 -1.1430047 -0.34362811 244 38645730 69 55 74 1686
-1.2785082 -0.97941285 -0.34938774 391 38645730 106 56 48 1648
-1.2680955 -1.0482119 -0.37303448 170 38645730 49 57 60 1687
-1.2664616 -1.1281085 -0.4018648 36 38645730 11 58 33 1743
-1.2151513 -1.1661536 -0.41679567 69 38645730 21 59 69 1735
-1.3021829 -0.99513495 -0.42058307 56 38645730 16 60 23 1692
-1.0932888 -0.90217555 -0.37800556 82 38645730 18 61 38 1467
-2.5491624 -2.2698047 -0.94632006 174 38645730 218 62 151 3542
-1.7497195 -1.6805753 -0.69983846 186 38645730 118 63 52 2525
-3.682507 -2.8075221 1.4453946 295 38742510 695 0 74 4851
-3.3181689 -2.735646 1.2907742 391 38742510 789 1 79 4490
-2.9812057 -2.6520243 1.155378 314 38742510 542 2 73 4154
-2.6875243 -2.5784757 1.040368 442 38742510 662 3 68 3867
-3.6859596 -2.8131053 1.2525791 350 38742510 808 4 76 4803
-3.3119686 -2.7281077 1.1134548 392 38742510 770 5 38 4433
-2.9488432 -2.6212075 0.98282814 392 38742510 648 6 102 4066
-2.670213 -2.5566807 0.88371307 483 38742510 698 7 85 3801
-3.6689065 -2.8012054 1.0637403 345 38742510 775 8 97 4737
-3.2909691 -2.7129321 0.93819582 390 38742510 744 9 91 4367
-2.9894638 -2.6544209 0.83927423 414 38742510 692 10 76 4085
-2.7063339 -2.5867426 0.74942923 462 38742510 673 11 50 3818
-3.6581545 -2.793906 0.88315743 387 38742510 850 12 110 4687
-3.3301635 -2.7430949 0.78337008 387 38742510 745 13 62 4385
-2.9712708 -2.6372468 0.68223184 408 38742510 663 14 96 4031
-2.7157183 -2.5944431 0.60972458 439 38742510 636 15 66 3805
-3.6791191 -2.8098159 0.71335393 402 38742510 883 16 59 4684
-3.3146372 -2.7290437 0.61947376 403 38742510 759 17 103 4338
-2.9825644 -2.6443875 0.53666633 436 38742510 706 18 68 4022
-2.2190266 -2.1173408 0.38349757 528 38742510 505 19 83 3091
-3.4945645 -2.6687715 0.5138154 168 38742510 330 20 81 4427
-2.3706992 -1.9512455 0.32889372 371 38742510 354 21 108 3088
-2.2418036 -1.9857315 0.29200664 160 38742510 145 22 70 3009
-1.9014484 -1.8123511 0.23161776 120 38742510 83 23 116 2637
-3.105922 -2.3710241 0.31287944 538 38742510 827 24 87 3920
-3.1777315 -2.6140926 0.29011545 346 38742510 589 25 78 4125
-2.1594174 -1.9126213 0.17577578 271 38742510 226 26 126 2890
-1.7988822 -1.7125548 0.1278621 152 38742510 94 27 87 2487
-1.9494804 -1.486703 0.1065713 347 38742510 209 28 72 2454
-1.9864849 -1.6329768 0.087148443 154 38742510 102 29 34 2573
-2.0080314 -1.7751625 0.06611079 137 38742510 98 30 35 2681
-1.8183539 -1.729822 0.037498053 213 38742510 134 31 82 2510
-1.9656646 -1.4988827 0.017257676 71 38742510 44 32 76 2472
-1.9828086 -1.6287372 -0.0064938404 66 38742510 44 33 75 2566
-2.0192053 -1.7846011 -0.032172289 187 38742510 136 34 79 2695
-1.8380997 -1.7463467 -0.054393273 263 38742510 169 35 87 2536
-1.9472902 -1.4833671 -0.07269536 161 38742510 97 36 120 2449
-1.9608594 -1.6083018 -0.099198788 140 38742510 90 37 52 2538
-1.9810215 -1.7493764 -0.12865685 275 38742510 192 38 143 2646
-1.7608453 -1.673007 -0.14128268 142 38742510 84 39 76 2433
-2.0355754 -1.5480943 -0.16972612 142 38742510 93 40 113 2563
-2.1086469 -1.7279172 -0.20656206 200 38742510 150 41 88 2734
-2.0259697 -1.788062 -0.23070748 192 38742510 141 42 133 2712
-1.940245 -1.8414611 -0.25384948 210 38742510 152 43 63 2687
-2.175529 -1.6533334 -0.28208497 150 38742510 113 44 101 2747
-2.1712859 -1.7777901 -0.3161597 205 38742510 164 45 87 2824
-2.1324327 -1.8800379 -0.34739649 215 38742510 177 46 93 2864
-2.0218263 -1.9179499 -0.36797923 148 38742510 117 47 129 2811
-2.3542237 -1.7860264 -0.41472524 259 38742510 230 48 152 2984
-2.2611146 -1.849692 -0.43831167 220 38742510 192 49 67 2954
-2.1393921 -1.8841835 -0.45565701 230 38742510 192 50 58 2887
-2.0798428 -1.9718826 -0.48639753 142 38742510 120 51 71 2907
-3.1386137 -2.3767033 -0.70170385 801 38742510 1281 52 108 3999
-2.341625 -1.9135755 -0.56828803 205 38742510 194 53 88 3077
-1.3262408 -1.1672935 -0.34944606 149 38742510 48 54 105 1801
-1.1978127 -1.1356765 -0.34362811 248 38742510 71 55 84 1686
-1.2657874 -0.9574008 -0.34429955 367 38742510 97 56 69 1624
-1.292635 -1.0552127 -0.37834144 140 38742510 41 57 73 1711
-1.2733597 -1.1203164 -0.4018648 50 38742510 15 58 56 1743
-1.2222837 -1.1586757 -0.41679567 91 38742510 27 59 82 1735
-1.3082645 -0.98712617 -0.42058307 34 38742510 10 60 25 1692
-1.1257683 -0.91742444 -0.38728175 44 38742510 10 61 28 1503
-2.6325088 -2.3152149 -0.97196853 309 38742510 409 62 69 3638
-1.7181766 -1.630129 -0.68320864 88 38742510 53 63 54 2465
-3.7637279 -2.8330967 1.4704231 288 38839980 702 0 82 4935
-3.3527179 -2.7297482 1.2976737 343 38839980 699 1 93 4514
-3.0493755 -2.6793308 1.1754037 137 38839980 244 2 39 4226
-2.7368503 -2.5937376 1.0532818 449 38839980 688 3 50 3915
-3.7494113 -2.8252945 1.2682265 335 38839980 793 4 85 4863
-3.3736982 -2.7443833 1.1285253 384 38839980 776 5 60 4493
-3.0436234 -2.6722064 1.0089338 261 38839980 455 6 103 4174
-2.7452059 -2.5963867 0.90324265 502 38839980 758 7 68 3885
-3.7420509 -2.8208745 1.0799086 338 38839980 782 8 95 4809
-3.3529973 -2.7296839 0.9510861 365 38839980 716 9 76 4427
-3.0410128 -2.6670022 0.84913599 337 38839980 576 10 72 4133
-2.747822 -2.5943217 0.75649565 463 38839980 687 11 50 3854
-3.7316864 -2.8139808 0.89672416 388 38839980 879 12 110 4759
-3.3560913 -2.7300606 0.78551382 396 38839980 766 13 79 4397
-3.0229697 -2.6501517 0.69035566 380 38839980 632 14 106 4079
-2.7402012 -2.5858605 0.61164749 449 38839980 655 15 71 3817
-3.753108 -2.8300316 0.72431922 373 38839980 843 16 57 4756
-3.3773961 -2.7461181 0.6280418 303 38839980 587 17 72 4398
-3.043469 -2.6652119 0.54467231 442 38839980 737 18 63 4082
-2.2579718 -2.1281862 0.38796404 462 38839980 452 19 94 3127
-3.3776402 -2.5468178 0.4943167 346 38839980 628 20 85 4259
-3.1048224 -2.5236819 0.42858431 269 38839980 436 21 113 4024
-2.2988901 -2.0112596 0.29782933 408 38839980 385 22 72 3069
-1.9212363 -1.8088441 0.23267178 106 38839980 74 23 128 2649
-3.1013074 -2.3375225 0.31096387 529 38839980 803 24 84 3896
-3.1844211 -2.5869975 0.2892715 412 38839980 697 25 98 4113
-2.1801274 -1.9072219 0.17650566 208 38839980 175 26 134 2902
-1.8791989 -1.7671634 0.13279766 142 38839980 95 27 93 2583
-2.0351846 -1.5324037 0.11074035 157 38839980 102 28 75 2550
-2.0337117 -1.6509928 0.088774219 131 38839980 90 29 46 2621
-2.045995 -1.7864786 0.066998519 219 38839980 161 30 43 2717
-1.8639091 -1.7514983 0.038215145 236 38839980 155 31 85 2558
-1.9939977 -1.5012282 0.017425226 101 38839980 63 32 83 2496
-1.918211 -1.5560616 -0.00625089 53 38839980 33 33 71 2470
-2.0210779 -1.7642869 -0.032029033 243 38839980 175 34 87 2683
-1.8925215 -1.7760853 -0.055680186 243 38839980 164 35 69 2596
-2.0234578 -1.5218592 -0.075188793 112 38839980 72 36 125 2533
-1.9427378 -1.5735981 -0.097791716 122 38839980 77 37 69 2502
-1.9917183 -1.7371881 -0.12865685 199 38839980 139 38 121 2646
-1.7448717 -1.6375768 -0.13919218 200 38839980 115 39 59 2397
-2.0258861 -1.5211958 -0.16813679 172 38839980 111 40 91 2539
-2.0633998 -1.6697831 -0.20112224 130 38839980 92 41 87 2662
-2.0909801 -1.822737 -0.23683247 80 38839980 62 42 134 2784
-1.9776535 -1.854033 -0.25725052 231 38839980 172 43 74 2723
-2.1569896 -1.6184616 -0.2783882 152 38839980 112 44 119 2711
-2.2099712 -1.7869266 -0.32019007 142 38839980 116 45 71 2860
-2.1259625 -1.8512737 -0.34448537 225 38839980 182 46 92 2840
-2.0682809 -1.9380462 -0.37426278 153 38839980 125 47 120 2859
-3.2591984 -2.4412208 -0.57149804 734 38839980 1241 48 133 4112
-2.3185778 -1.8730706 -0.44721439 188 38839980 171 49 60 3014
-2.1866746 -1.9021292 -0.4632329 243 38839980 210 50 61 2935
-2.1350796 -1.9995191 -0.49643672 158 38839980 139 51 69 2967
-3.1531377 -2.3574002 -0.70170385 811 38839980 1297 52 103 3999
-2.4267442 -1.9584242 -0.58601815 142 38839980 143 53 130 3173
-1.3156097 -1.1436874 -0.34478936 139 38839980 44 54 106 1777
-1.1790341 -1.1042135 -0.33629084 248 38839980 68 55 78 1650
-1.271638 -0.94961607 -0.34429955 381 38839980 101 56 69 1624
-1.3264185 -1.0692961 -0.38630188 126 38839980 38 57 53 1747
-1.1744438 -1.0205731 -0.36866429 29 38839980 8 58 65 1599
-1.2208674 -1.1431921 -0.41391292 81 38839980 24 59 81 1723
-1.249048 -0.93047345 -0.39970306 49 38839980 13 60 23 1608
-1.2578377 -1.0122721 -0.43057075 38 38839980 11 61 37 1671
-2.6553953 -2.3066018 -0.97517455 221 38839980 295 62 92 3650
-1.7449723 -1.6353242 -0.68986052 197 38839980 122 63 45 2489
-3.8362048 -2.8509459 1.4918761 277 38937190 695 0 67 5007
-3.4321043 -2.7595382 1.3218217 371 38937190 785 1 96 4598
-3.1005797 -2.6907892 1.1887542 273 38937190 498 2 42 4274
-2.7780259 -2.6005914 1.0629672 456 38937190 711 3 49 3951
-3.8410339 -2.8575537 1.2932624 330 38937190 811 4 117 4959
-3.4266956 -2.7527285 1.1405816 378 38937190 779 5 37 4541
-3.0951512 -2.6839952 1.0205363 287 38937190 512 6 103 4222
-2.7866707 -2.6033962 0.91161245 448 38937190 689 7 68 3921
-3.8343344 -2.8537133 1.1014663 314 38937190 755 8 117 4905
-3.4062195 -2.7384322 0.96139836 355 38937190 712 9 77 4475
-3.1017039 -2.6867387 0.86146319 400 38937190 704 10 66 4193
-2.8067148 -2.6175385 0.768273 467 38937190 715 11 55 3914
-3.8055999 -2.8332567 0.9102909 389 38937190 908 12 99 4831
-3.4095984 -2.7389939 0.7940889 412 38937190 815 13 79 4445
-3.1107016 -2.6934874 0.70660329 327 38937190 570 14 103 4175
-2.790674 -2.6013043 0.61933917 466 38937190 697 15 66 3865
-3.7894287 -2.8211143 0.72797436 387 38937190 883 16 49 4780
-3.468271 -2.7848322 0.64175081 258 38937190 522 17 75 4494
-3.0867496 -2.6698272 0.54947585 417 38937190 708 18 70 4118
-2.5760131 -2.3982706 0.44007307 346 38937190 436 19 181 3547
-3.230674 -2.405051 0.47063965 488 38937190 803 20 96 4055
-3.4180062 -2.7435894 0.46948299 239 38937190 465 21 100 4408
-2.2660029 -1.9580716 0.29200664 551 38937190 499 22 77 3009
-1.9147924 -1.7807405 0.23056377 78 38937190 54 23 111 2625
-3.1155918 -2.3184493 0.31096387 519 38937190 788 24 79 3896
-3.1908977 -2.5599191 0.28842753 319 38937190 537 25 86 4101
-2.2189786 -1.9173021 0.17869525 554 38937190 478 26 129 2938
-1.898787 -1.7637556 0.1334146 144 38937190 97 27 85 2595
-2.0349274 -1.5127348 0.11021921 145 38937190 94 28 63 2538
-1.997017 -1.6009748 0.086741999 141 38937190 92 29 33 2561
-2.0569181 -1.7738911 0.066998519 224 38937190 165 30 49 2717
-1.8570328 -1.7237033 0.037856601 231 38937190 149 31 83 2534
-1.9550184 -1.4531726 0.017006351 111 38937190 66 32 75 2436
-1.8340682 -1.4692376 -0.0059472034 106 38937190 59 33 62 2350
-1.9319001 -1.6656638 -0.03045325 170 38937190 111 34 82 2551
-1.9121821 -1.7725955 -0.055937562 244 38937190 166 35 72 2608
-2.0327578 -1.5094148 -0.075188793 143 38937190 91 36 160 2533
-2.0085397 -1.6065876 -0.10060587 155 38937190 102 37 52 2574
-1.9750972 -1.701466 -0.12690642 179 38937190 122 38 103 2610
-1.7724576 -1.6431283 -0.14058584 104 38937190 61 39 76 2421
-2.083276 -1.5443902 -0.1721101 148 38937190 100 40 111 2599
-2.1016495 -1.6795008 -0.20384215 128 38937190 93 41 91 2698
-2.0930638 -1.8020715 -0.23581164 243 38937190 187 42 136 2772
-1.9802272 -1.8337466 -0.25611687 198 38937190 146 43 65 2711
-2.1381052 -1.5838803 -0.2746914 146 38937190 105 44 98 2675
-2.286123 -1.8254168 -0.32959425 169 38937190 147 45 75 2944
-2.1734049 -1.8692622 -0.35030767 219 38937190 183 46 101 2888
-2.0364792 -1.8849134 -0.36640832 183 38937190 143 47 138 2799
-3.2741163 -2.4211769 -0.57149804 252 38937190 425 48 168 4112
-2.3114734 -1.8440075 -0.44365332 118 38937190 106 49 65 2990
-2.1623528 -1.857788 -0.45565701 254 38937190 212 50 65 2887
-2.0951996 -1.9381775 -0.48438972 190 38937190 160 51 65 2895
-3.1580381 -2.3309929 -0.69959819 844 38937190 1342 52 130 3987
-2.9828722 -2.3771548 -0.71677798 486 38937190 732 53 107 3881
-1.4119172 -1.2122796 -0.36807284 125 38937190 45 54 137 1897
-1.2202828 -1.1288698 -0.34607384 274 38937190 79 55 72 1698
-1.2774409 -0.94179559 -0.34429955 388 38937190 102 56 60 1624
-1.3054867 -1.0392706 -0.37834144 114 38937190 33 57 49 1711
-1.3047332 -1.1198157 -0.40739822 26 38937190 8 58 58 1767
-1.2107558 -1.1198604 -0.40814748 63 38937190 18 59 52 1699
-1.2921885 -0.95033795 -0.41163453 44 38937190 12 60 21 1656
-1.2821798 -1.0189629 -0.43675485 43 38937190 12 61 20 1695
-2.6958275 -2.3128541 -0.98479271 147 38937190 200 62 73 3686
-1.7295903 -1.6010891 -0.67988265 272 38937190 163 63 57 2453
-3.8905685 -2.8544583 1.506178 304 39033900 776 0 55 5055
-3.4759758 -2.7598679 1.332171 342 39033900 735 1 110 4634
-3.1520381 -2.7017188 1.2021048 299 39033900 558 2 54 4322
-2.8278735 -2.6148832 1.075881 468 39033900 748 3 38 3999
-3.90518 -2.8682201 1.3089099 324 39033900 817 4 86 5019
-3.4617209 -2.746088 1.1466098 378 39033900 787 5 47 4565
-3.1380932 -2.6876767 1.0292382 339 39033900 615 6 92 4258
-2.8369012 -2.6179087 0.92277217 495 39033900 780 7 72 3969
-3.8894653 -2.8578279 1.1122452 319 39033900 783 8 91 4953
-3.4688523 -2.7539158 0.97428858 326 39033900 671 9 82 4535
-3.1449025 -2.6905601 0.86885941 268 39033900 479 10 51 4229
-2.8400311 -2.6162119 0.77298391 461 39033900 714 11 54 3938
-3.8798885 -2.8517299 0.92385763 378 39033900 908 12 131 4903
-3.5003402 -2.7767236 0.81123912 422 39033900 871 13 68 4541
-3.1451466 -2.6897235 0.71066529 381 39033900 672 14 85 4199
-2.850152 -2.624248 0.62895375 465 39033900 715 15 54 3925
-3.8640063 -2.8399525 0.73893964 405 39033900 952 16 54 4852
-3.4945993 -2.7708778 0.64346439 206 39033900 419 17 80 4506
-3.1482856 -2.68946 0.55748183 343 39033900 599 18 75 4178
-2.4942691 -2.2937589 0.42369595 277 39033900 322 19 171 3415
-3.2645783 -2.3992996 0.47342515 453 39033900 754 20 96 4079
-3.2664664 -2.589155 0.4464775 402 39033900 707 21 88 4192
-2.2779748 -1.9441308 0.29200664 492 39033900 446 22 79 3009
-2.1105483 -1.9387779 0.25269789 65 39033900 54 23 150 2877
-3.1490386 -2.3134527 0.31287944 526 39033900 809 24 81 3920
-3.1877794 -2.5254254 0.28673956 392 39033900 652 25 87 4077
-2.2307012 -1.9036506 0.17869525 430 39033900 371 26 149 2938
-1.9272344 -1.7682759 0.1346485 138 39033900 95 27 80 2619
-2.0538363 -1.5073135 0.11074035 130 39033900 84 28 54 2550
-2.0444157 -1.6184676 0.088367783 135 39033900 92 29 47 2609
-2.0221009 -1.7223428 0.065518968 179 39033900 126 30 52 2657
-1.8764182 -1.7203847 0.038035873 135 39033900 88 31 68 2546
-2.0219443 -1.483745 0.017509002 115 39033900 72 32 85 2508
-1.8806939 -1.4877357 -0.0060686776 128 39033900 74 33 69 2398
-1.9329485 -1.6459991 -0.030309994 150 39033900 97 34 87 2539
-1.905326 -1.7446253 -0.055422802 275 39033900 184 35 83 2584
-2.0516546 -1.5040051 -0.075544991 128 39033900 83 36 155 2545
-1.9901308 -1.5719362 -0.099198788 153 39033900 99 37 81 2538
-2.0220151 -1.7203829 -0.12924033 214 39033900 151 38 114 2658
-1.9503757 -1.7859379 -0.15382566 214 39033900 151 39 59 2649
-2.0830507 -1.5245068 -0.17131543 138 39033900 93 40 80 2587
-2.1025219 -1.6591612 -0.2029355 122 39033900 88 41 87 2686
-2.1040816 -1.7891947 -0.23581164 292 39033900 224 42 150 2772
-2.0178864 -1.8457506 -0.25951791 222 39033900 168 43 61 2747
-2.1381485 -1.5636849 -0.27345914 145 39033900 103 44 119 2663
-2.2879167 -1.8039718 -0.3282508 231 39033900 199 45 70 2932
-2.1757553 -1.8481798 -0.3488521 215 39033900 178 46 88 2876
-2.0831277 -1.9044919 -0.37269187 202 39033900 164 47 135 2847
-3.2409208 -2.3660071 -0.56315905 619 39033900 1016 48 167 4052
-2.3693547 -1.866508 -0.45255604 114 39033900 106 49 59 3050
-2.209852 -1.875152 -0.4632329 260 39033900 224 50 56 2935
-2.1332543 -1.9492264 -0.49041322 195 39033900 168 51 64 2931
-3.1818292 -2.3185289 -0.70170385 826 39033900 1321 52 123 3999
-2.9881341 -2.3515141 -0.7145617 724 39033900 1084 53 117 3869
-1.9310955 -1.6375722 -0.50078857 116 39033900 77 54 133 2581
-1.2011684 -1.0975865 -0.33873659 261 39033900 72 55 70 1662
-1.2831956 -0.93393964 -0.34429955 363 39033900 96 56 52 1624
-1.2842375 -1.0095431 -0.37038103 163 39033900 46 57 48 1675
-1.2670439 -1.0740372 -0.3935647 18 39033900 5 58 48 1707
-1.2004045 -1.0966964 -0.40238199 61 39033900 17 59 59 1675
-1.3168068 -0.95604914 -0.41760021 36 39033900 10 60 38 1680
-1.2975295 -1.0182345 -0.43984696 73 39033900 21 61 25 1707
-1.1219239 -0.95065296 -0.4077031 15 39033900 4 62 78 1526
-1.7393819 -1.5904464 -0.67988265 325 39033900 196 63 63 2453
-3.9451187 -2.8574097 1.5204799 285 39131490 743 0 77 5103
-3.5561593 -2.7881281 1.3563192 387 39131490 862 1 86 4718
-3.1949487 -2.70467 1.2121177 329 39131490 624 2 48 4358
-2.8694661 -2.6208658 1.0855664 437 39131490 711 3 49 4035
-3.9602211 -2.8714056 1.3214279 320 39131490 822 4 101 5067
-3.5516572 -2.7820971 1.1707225 376 39131490 816 5 51 4661
-3.2078664 -2.7134917 1.0466419 369 39131490 692 6 99 4330
-2.8701622 -2.6161771 0.92835212 482 39131490 769 7 74 3993
-3.9353244 -2.8545067 1.1203294 301 39131490 749 8 105 4989
-3.5594718 -2.7904246 0.99491292 344 39131490 738 9 99 4631
-3.2151752 -2.716691 0.88365203 323 39131490 598 10 62 4301
-2.8908424 -2.6304123 0.78240573 468 39131490 743 11 42 3986
-3.9450064 -2.8624754 0.93516326 366 39131490 901 12 120 4963
-3.5266068 -2.7624745 0.81338292 384 39131490 797 13 78 4553
-3.1706262 -2.6780057 0.71269614 344 39131490 610 14 86 4211
-2.901252 -2.6385887 0.63664544 451 39131490 712 15 73 3973
-3.4109886 -2.4749041 0.64938974 483 39131490 879 16 60 4264
-3.5489423 -2.7786713 0.65031892 284 39131490 590 17 86 4554
-3.2192667 -2.7161059 0.56708896 368 39131490 665 18 85 4250
-2.7903421 -2.5346072 0.47133851 302 39131490 437 19 174 3799
-3.2985332 -2.3932223 0.47621071 415 39131490 699 20 96 4103
-3.4796047 -2.7235014 0.47331727 152 39131490 300 21 106 4444
-2.2807288 -1.9224195 0.29084215 414 39131490 372 22 74 2997
-2.1489623 -1.9498888 0.25585991 236 39131490 200 23 127 2913
-3.1728575 -2.3011098 0.31383723 496 39131490 767 24 80 3932
-3.0900772 -2.4173121 0.27661189 452 39131490 699 25 103 3933
-2.462147 -2.0751891 0.19621199 256 39131490 266 26 227 3226
-1.9558079 -1.7725127 0.13588239 179 39131490 125 27 83 2643
-3.1018507 -2.2472997 0.16650136 514 39131490 756 28 102 3834
-2.0070643 -1.5689615 0.086335555 87 39131490 56 29 41 2549
-2.041811 -1.7176256 0.065814883 103 39131490 73 30 38 2669
-1.886939 -1.7088389 0.038035873 105 39131490 68 31 73 2546
-1.9921392 -1.4431516 0.017173901 129 39131490 78 32 69 2460
-1.9370713 -1.5131031 -0.0062205219 104 39131490 63 33 58 2458
-1.8328135 -1.541429 -0.028590959 60 39131490 35 34 81 2395
-1.9248929 -1.7409493 -0.055680186 142 39131490 96 35 88 2596
-2.0899959 -1.5124843 -0.076613605 125 39131490 83 36 118 2581
-1.9713734 -1.537572 -0.097791716 146 39131490 92 37 72 2502
-2.0325329 -1.7079437 -0.12924033 136 39131490 96 38 108 2658
-1.9879514 -1.7980449 -0.15591615 247 39131490 178 39 70 2685
-2.1214824 -1.5327331 -0.17369941 154 39131490 106 40 85 2623
-2.0937855 -1.6315198 -0.20112224 137 39131490 97 41 93 2662
-2.0509288 -1.7224249 -0.22866583 194 39131490 140 42 151 2688
-2.0203094 -1.8253255 -0.25838423 220 39131490 165 43 73 2735
-2.1864147 -1.5784843 -0.2783882 145 39131490 107 44 118 2711
-2.1954432 -1.7093173 -0.31347281 121 39131490 95 45 61 2800
-2.1870544 -1.8347948 -0.3488521 198 39131490 164 46 117 2876
-2.0594566 -1.8597808 -0.36640832 245 39131490 192 47 129 2799
-3.2746589 -2.3599725 -0.56649464 832 39131490 1382 48 112 4076
-2.3432951 -1.8227895 -0.44543383 136 39131490 123 49 69 3002
-2.212234 -1.8539461 -0.46133891 243 39131490 208 50 64 2923
-2.1539569 -1.9440269 -0.49242103 220 39131490 191 51 71 2943
-3.1768148 -2.2851648 -0.69749254 848 39131490 1340 52 104 3975
-3.086319 -2.3982625 -0.73450816 682 39131490 1078 53 134 3977
-2.238929 -1.8751206 -0.57762408 118 39131490 105 54 104 2977
-1.2427651 -1.1216815 -0.34851959 263 39131490 77 55 75 1710
-1.2793781 -0.91920578 -0.34175548 401 39131490 104 56 66 1612
-1.3273865 -1.0303479 -0.38099492 200 39131490 59 57 27 1723
-1.2825636 -1.0737381 -0.3963314 34 39131490 10 58 49 1719
-1.1984632 -1.0815063 -0.39949927 54 39131490 15 59 74 1663
-1.2659633 -0.90732491 -0.39970306 33 39131490 8 60 34 1608
-1.2395962 -0.96054 -0.41820243 113 39131490 30 61 25 1623
-1.0567905 -0.88438016 -0.38205469 20 39131490 4 62 51 1430
-1.8004475 -1.6261121 -0.69983846 244 39131490 156 63 72 2525
-4.0184865 -2.8731232 1.5419329 280 39228650 751 0 82 5175
-3.5822878 -2.7732911 1.3597687 367 39228650 822 1 87 4730
-3.238013 -2.707195 1.2221305 325 39228650 627 2 51 4394
-2.9455628 -2.6574028 1.1081654 464 39228650 787 3 57 4119
-4.0437078 -2.8942499 1.3433342 291 39228650 773 4 93 5151
-3.6054118 -2.7886777 1.1827788 410 39228650 908 5 55 4709
-3.2423277 -2.708688 1.0524431 381 39228650 722 6 112 4354
-2.9295287 -2.6375628 0.94230169 484 39228650 796 7 77 4053
-4.0193181 -2.8779604 1.1391925 294 39228650 757 8 111 5073
-3.5765266 -2.7685316 0.99491292 353 39228650 758 9 95 4631
-3.2588346 -2.7194855 0.89104837 386 39228650 727 10 67 4337
-2.9244308 -2.6283557 0.78711665 470 39228650 755 11 48 4010
-4.0487237 -2.8999779 0.95551336 377 39228650 969 12 122 5071
-3.6275444 -2.8057966 0.83267683 378 39228650 822 13 62 4661
-3.250572 -2.7115319 0.72691286 364 39228650 672 14 92 4295
-2.9526341 -2.6523998 0.64433712 459 39228650 743 15 65 4021
-3.3971839 -2.4332099 0.64390701 512 39228650 916 16 74 4228
-3.6129069 -2.793165 0.65888697 197 39228650 420 17 71 4614
-3.2541451 -2.7115281 0.57029134 397 39228650 726 18 72 4274
-2.9476478 -2.6446686 0.49515975 429 39228650 684 19 96 3991
-3.3034656 -2.3659976 0.47481793 509 39228650 853 20 73 4091
-3.6189811 -2.796953 0.48993239 136 39228650 288 21 80 4600
-2.3383772 -1.946595 0.2966648 394 39228650 369 22 80 3057
-2.1875913 -1.9606005 0.25902191 281 39228650 244 23 120 2949
-3.2160954 -2.3024876 0.31671062 534 39228650 841 24 75 3968
-3.0669587 -2.3690364 0.27323601 528 39228650 797 25 99 3885
-3.1836824 -2.6500859 0.2524116 200 39228650 344 26 115 4150
-1.9755762 -1.7684718 0.13649935 209 39228650 147 27 78 2655
-3.076576 -2.2003286 0.16441683 598 39228650 858 28 88 3786
-2.0261474 -1.5639451 0.086741999 54 39228650 35 29 44 2561
-2.006175 -1.6667346 0.064335346 141 39228650 96 30 57 2609
-1.9421035 -1.7372264 0.038932241 156 39228650 106 31 70 2606
-1.9619138 -1.4029809 0.0168388 144 39228650 84 32 100 2412
-1.9178132 -1.4792025 -0.0061294157 66 39228650 39 33 66 2422
-1.8791585 -1.5608209 -0.02916397 109 39228650 65 34 94 2443
-1.9176447 -1.7131199 -0.055165417 154 39228650 102 35 76 2572
-2.0797169 -1.4856873 -0.075901203 125 39228650 82 36 134 2557
-1.9807707 -1.525447 -0.097791716 156 39228650 98 37 61 2502
-2.033751 -1.6877857 -0.12865685 121 39228650 85 38 85 2646
-1.9810787 -1.7698505 -0.15452248 253 39228650 179 39 69 2661
-2.1503439 -1.5335919 -0.17528872 159 39228650 112 40 88 2647
-2.0563395 -1.5821586 -0.19658905 123 39228650 83 41 109 2602
-2.0982707 -1.7403404 -0.23274913 234 39228650 175 42 128 2736
-2.0314713 -1.8128948 -0.25838423 239 39228650 179 43 68 2735
-2.1668971 -1.5442564 -0.2746914 143 39228650 103 44 91 2675
-2.1964359 -1.6885463 -0.31212935 122 39228650 95 45 49 2788
-2.2441323 -1.859338 -0.35612994 210 39228650 181 46 91 2936
-2.0885856 -1.8629473 -0.36955011 226 39228650 180 47 124 2823
-3.2697113 -2.3260577 -0.56315905 833 39228650 1368 48 107 4052
-2.4391387 -1.8734353 -0.46145877 94 39228650 91 49 70 3110
-2.2692108 -1.8781135 -0.47080874 234 39228650 208 50 57 2983
-2.1481824 -1.9150286 -0.48840538 242 39228650 207 51 70 2919
-3.1715114 -2.25195 -0.69328129 792 39228650 1236 52 126 3951
-3.1196899 -2.3936386 -0.73894072 765 39228650 1225 53 107 4001
-2.4771702 -2.0489204 -0.63583273 92 39228650 99 54 125 3277
-1.2496241 -1.1140349 -0.34851959 270 39228650 79 55 78 1710
-1.2754283 -0.90455419 -0.33921137 358 39228650 92 56 70 1600
-1.3151066 -1.0079458 -0.37568799 193 39228650 56 57 40 1699
-1.3431226 -1.1104912 -0.41293165 28 39228650 9 58 56 1791
-1.1007284 -0.98112255 -0.3649064 54 39228650 13 59 76 1519
-1.2715068 -0.89954001 -0.39970306 60 39228650 15 60 28 1608
-1.2915097 -0.98814386 -0.4336628 61 39228650 17 61 27 1683
-1.1869867 -0.98101461 -0.42693943 44 39228650 11 62 64 1598
-2.6105483 -2.3288474 -1.0091532 67 39228650 89 63 71 3641
-4.1015525 -2.8946474 1.5669615 265 39327730 734 0 78 5259
-3.6722872 -2.8070979 1.3873667 349 39327730 814 1 80 4826
-3.3256688 -2.7459877 1.2488317 318 39327730 642 2 62 4490
-2.9790707 -2.6546574 1.1146224 475 39327730 815 3 47 4143
-4.1181598 -2.9094915 1.3621112 310 39327730 846 4 96 5223
-3.6501484 -2.7876527 1.1918212 396 39327730 890 5 53 4745
-3.3127775 -2.7332048 1.0698469 377 39327730 739 6 99 4426
-2.9718218 -2.6428056 0.95067161 463 39327730 775 7 61 4089
-4.1323929 -2.9207366 1.1661396 331 39327730 893 8 97 5193
-3.658627 -2.7963526 1.0129594 331 39327730 737 9 71 4715
-3.3117108 -2.7293148 0.90091008 387 39327730 745 10 73 4385
-2.9757009 -2.6416085 0.79653847 464 39327730 763 11 49 4058
-4.1241784 -2.9159024 0.96908009 348 39327730 920 12 138 5143
-3.6728423 -2.8049841 0.83910811 404 39327730 892 13 79 4697
-3.3310461 -2.7441759 0.74112958 217 39327730 417 14 86 4379
-2.9777131 -2.6420941 0.64625996 446 39327730 724 15 57 4033
-3.9543624 -2.7957344 0.74624985 316 39327730 758 16 139 4900
-3.6771812 -2.806977 0.66745508 383 39327730 837 17 79 4674
-3.2982709 -2.7141809 0.575095 402 39327730 747 18 68 4310
-2.9727311 -2.6344297 0.49664858 390 39327730 625 19 94 4003
-3.3179209 -2.3456833 0.47481793 517 39327730 866 20 95 4091
-3.3609977 -2.5647829 0.45286793 198 39327730 358 21 93 4252
-2.3687289 -1.9473797 0.29899386 413 39327730 392 22 80 3081
-2.2353821 -1.9788338 0.26323795 303 39327730 272 23 144 2997
-3.2106256 -2.268904 0.31479505 532 39327730 828 24 79 3944
-3.0624011 -2.335655 0.27154809 494 39327730 736 25 109 3861
-3.1721253 -2.6076825 0.250222 377 39327730 638 26 114 4114
-1.9325219 -1.7086877 0.13279766 127 39327730 85 27 89 2583
-3.109607 -2.1952379 0.1654591 591 39327730 858 28 85 3810
-2.0261667 -1.5442137 0.086335555 71 39327730 46 29 40 2549
-2.0070901 -1.6467842 0.064039432 144 39327730 97 30 36 2597
-1.9707099 -1.741166 0.03929079 282 39327730 195 31 74 2630
-2.1959639 -1.550076 0.018765628 101 39327730 73 32 84 2688
-2.0032272 -1.5255703 -0.0063723652 55 39327730 35 33 73 2518
-1.814482 -1.4883816 -0.028017944 180 39327730 99 34 76 2347
-1.9551078 -1.7251344 -0.055937562 158 39327730 108 35 68 2608
-2.0985963 -1.4798106 -0.0762574 97 39327730 64 36 138 2569
-1.9614589 -1.491491 -0.096384645 45 39327730 27 37 52 2466
-1.9513673 -1.5992988 -0.12282207 115 39327730 73 38 99 2526
-2.0278316 -1.789367 -0.15730982 287 39327730 211 39 70 2709
-2.1597135 -1.5203687 -0.17528872 146 39327730 102 40 98 2647
-2.104121 -1.5984646 -0.20021559 126 39327730 89 41 99 2650
-2.0996602 -1.7198565 -0.23172832 300 39327730 223 42 122 2724
-1.9887856 -1.7529995 -0.25158215 93 39327730 66 43 64 2663
-2.1958575 -1.544667 -0.27715594 92 39327730 67 44 116 2699
-2.1877589 -1.6606183 -0.30944243 123 39327730 94 45 53 2764
-2.24628 -1.8379903 -0.35467434 245 39327730 210 46 102 2924
-2.0910506 -1.8422325 -0.36797923 212 39327730 168 47 95 2811
-3.2839222 -2.3059514 -0.56315905 789 39327730 1295 48 119 4052
-3.3015957 -2.5038061 -0.6217081 185 39327730 325 49 102 4190
-2.2898669 -1.8716537 -0.47270271 180 39327730 162 50 69 2995
-2.1510129 -1.8939931 -0.48639753 294 39327730 249 51 62 2907
-3.0982006 -2.1714239 -0.67433053 668 39327730 986 52 126 3843
-3.1343184 -2.3744514 -0.73894072 788 39327730 1262 53 95 4001
-3.0822992 -2.5177443 -0.78717524 555 39327730 914 54 100 4057
-1.2476192 -1.0985825 -0.34607384 213 39327730 62 55 68 1698
-1.2905618 -0.90343666 -0.34175548 395 39327730 103 56 72 1612
-1.3212664 -0.99985743 -0.37568799 156 39327730 45 57 55 1699
-1.2504202 -1.0209926 -0.38249782 31 39327730 9 58 73 1659
-1.1154708 -0.98204744 -0.36778915 50 39327730 12 59 81 1531
-1.1245244 -0.78524709 -0.35197732 104 39327730 21 60 30 1416
-1.2975487 -0.98020071 -0.4336628 41 39327730 12 61 22 1683
-3.0026162 -2.4507344 -1.0745623 90 39327730 146 62 81 4022
-2.685344 -2.3661427 -1.0324349 37 39327730 52 63 59 3725
-4.1944308 -2.9218056 1.5955653 246 39426220 707 0 64 5355
-3.7444856 -2.826055 1.4080651 336 39426220 807 1 89 4898
-3.3781874 -2.754667 1.2621822 311 39426220 639 2 57 4538
-3.0560336 -2.6897802 1.1372216 203 39426220 362 3 48 4227
-4.1834474 -2.9173007 1.3777587 312 39426220 871 4 90 5283
-3.7321038 -2.8141551 1.2129197 353 39426220 822 5 43 4829
-3.3565674 -2.7348924 1.0785488 373 39426220 743 6 96 4462
-3.0405948 -2.6707342 0.96741122 380 39426220 658 7 85 4161
-4.1885977 -2.9220877 1.1769185 300 39426220 825 8 77 5241
-3.7318459 -2.8162091 1.0284276 333 39426220 764 9 86 4787
-3.3739378 -2.7460096 0.91323721 397 39426220 785 10 59 4445
-3.0537846 -2.6776021 0.81302673 408 39426220 699 11 46 4142
-4.1903143 -2.924264 0.98038572 381 39426220 1032 12 105 5203
-3.7465477 -2.8250463 0.85197073 378 39426220 861 13 62 4769
-3.3661699 -2.7386131 0.74519151 332 39426220 644 14 101 4403
-3.0295014 -2.6550014 0.65395164 436 39426220 727 15 77 4081
-4.1756883 -2.9139485 0.78462845 367 39426220 976 16 59 5152
-3.7512441 -2.8272529 0.67773682 404 39426220 911 17 91 4746
-3.3979266 -2.7613955 0.58950567 226 39426220 442 18 63 4418
-2.3347743 -2.0436347 0.38796404 304 39426220 297 19 115 3127
-3.3420258 -2.3321016 0.47621071 497 39426220 837 20 79 4103
-3.1860785 -2.400512 0.42730621 506 39426220 815 21 91 4012
-2.9647808 -2.4070716 0.37235942 167 39426220 245 22 162 3837
-2.220485 -1.941476 0.26007593 246 39426220 216 23 139 2961
-3.2244868 -2.2491612 0.31479505 529 39426220 823 24 85 3944
-3.086237 -2.3240211 0.27239203 533 39426220 800 25 103 3873
-3.2903569 -2.6712124 0.25825053 467 39426220 842 26 117 4246
-2.0061557 -1.7519782 0.13711628 105 39426220 75 27 83 2667
-3.1131818 -2.1692624 0.16493796 623 39426220 899 28 63 3798
-2.05477 -1.5461745 0.087148443 109 39426220 72 29 31 2573
-2.0264776 -1.6419903 0.064335346 137 39426220 93 30 34 2609
-2.035599 -1.7763762 0.04036643 306 39426220 224 31 90 2702
-3.0816996 -2.1470859 0.026221616 36 39426220 51 32 118 3756
-1.9933679 -1.4988266 -0.006311628 99 39426220 62 33 68 2494
-1.9168183 -1.552749 -0.029450474 78 39426220 48 34 98 2467
-1.9927895 -1.7367527 -0.056709707 176 39426220 123 35 87 2644
-2.1371715 -1.4874622 -0.077326015 81 39426220 55 36 110 2605
-2.0281086 -1.5226226 -0.099198788 120 39426220 78 37 63 2538
-1.9984101 -1.6174577 -0.12515599 122 39426220 81 38 94 2574
-1.9755552 -1.7217934 -0.15243199 235 39426220 162 39 68 2625
-2.1493356 -1.4934238 -0.17369941 97 39426220 67 40 89 2623
-2.0660279 -1.5496252 -0.19568242 136 39426220 91 41 86 2590
-2.1008775 -1.6994213 -0.23070748 136 39426220 100 42 149 2712
-2.0355451 -1.7721406 -0.25611687 37 39426220 27 43 47 2711
-2.2052941 -1.5311643 -0.27715594 131 39426220 96 44 107 2699
-2.1979072 -1.6471632 -0.30944243 115 39426220 88 45 75 2764
-2.2482507 -1.8166865 -0.35321879 151 39426220 128 46 111 2912
-2.1202643 -1.8449862 -0.37112099 247 39426220 198 47 124 2835
-3.3273108 -2.3060663 -0.56816244 188 39426220 315 48 90 4088
-3.2409012 -2.4265997 -0.60746378 621 39426220 1041 49 73 4094
-2.2644255 -1.8277974 -0.46512684 125 39426220 108 50 56 2947
-2.1804481 -1.8962867 -0.49041322 195 39426220 168 51 59 2931
-3.0628872 -2.1187682 -0.66380239 612 39426220 876 52 106 3783
-3.1299403 -2.3410473 -0.73450816 809 39426220 1280 53 106 3977
-3.1893148 -2.5726945 -0.81045872 220 39426220 384 54 91 4177
-1.2543365 -1.0909066 -0.34607384 190 39426220 55 55 70 1698
-1.2767844 -0.88216835 -0.3366673 385 39426220 97 56 70 1588
-1.3555022 -1.0127453 -0.38364843 118 39426220 36 57 61 1735
-1.3293796 -1.0719368 -0.40463153 31 39426220 10 58 62 1755
-1.270908 -1.1051242 -0.41679567 44 39426220 13 59 54 1735
-1.0910393 -0.75194818 -0.3400459 167 39426220 31 60 16 1368
-1.2477722 -0.9306283 -0.41511038 43 39426220 11 61 29 1611
-1.0278736 -0.82849389 -0.36602443 69 39426220 13 62 81 1370
-2.8824568 -2.5085757 -1.1022803 16 39426220 26 63 59 3977
-4.2594762 -2.9284627 1.613443 243 39523960 714 0 75 5415
-3.8170528 -2.8442302 1.4287634 324 39523960 801 1 83 4970
-3.439914 -2.7700336 1.2788703 307 39523960 650 2 63 4598
-3.1073699 -2.7013085 1.1501353 356 39523960 650 3 49 4275
-4.2394404 -2.9178488 1.3902767 298 39523960 848 4 79 5331
-3.8052025 -2.832819 1.2310042 349 39523960 837 5 52 4901
-3.4458611 -2.7726421 1.1017537 353 39523960 734 6 95 4558
-3.0921886 -2.68262 0.97857094 301 39523960 534 7 65 4209
-4.2931299 -2.9560161 1.201171 302 39523960 865 8 95 5349
-3.8054442 -2.8352704 1.043896 332 39523960 785 9 86 4859
-3.4273386 -2.7546847 0.92309892 391 39523960 790 10 67 4493
-3.0879459 -2.6742201 0.8177377 456 39523960 791 11 54 4166
-4.2955289 -2.9586627 1.0007359 356 39523960 1003 12 153 5311
-3.8490479 -2.8654599 0.8712647 373 39523960 888 13 77 4877
-3.4382293 -2.7623518 0.75737727 368 39523960 737 14 100 4475
-3.0726025 -2.6596189 0.65972036 401 39523960 680 15 72 4117
-4.2716284 -2.9420907 0.79924881 377 39523960 1037 16 42 5248
-3.8256922 -2.8467238 0.68801856 393 39523960 913 17 79 4818
-3.4333565 -2.7553813 0.59270811 393 39523960 776 18 62 4442
-2.3022313 -1.9903332 0.38051993 320 39523960 301 19 83 3067
-3.3562722 -2.3115513 0.47621071 527 39523960 888 20 99 4103
-3.200748 -2.3809173 0.42730621 498 39523960 802 21 98 4012
-3.2963135 -2.6428471 0.41195357 255 39523960 460 22 72 4245
-2.2233088 -1.9200019 0.25902191 388 39523960 337 23 127 2949
-3.2185214 -2.2157679 0.31287944 521 39523960 801 24 89 3920
-3.1196513 -2.3193243 0.27407998 527 39523960 800 25 107 3897
-3.4001384 -2.7258945 0.26554915 456 39523960 869 26 127 4366
-2.1802139 -1.8805286 0.14822131 151 39523960 126 27 104 2883
-3.1066773 -2.1365325 0.16389571 614 39523960 875 28 83 3774
-2.0449641 -1.5192331 0.086335555 103 39523960 67 29 48 2549
-1.9896799 -1.5920503 0.062855795 139 39523960 90 30 48 2549
-2.0737262 -1.7873532 0.04090425 269 39523960 202 31 87 2738
-3.2134669 -2.2097263 0.027226916 149 39523960 227 32 91 3900
-2.002527 -1.4865674 -0.006311628 151 39523960 94 33 76 2494
-1.9169399 -1.5334629 -0.029307224 72 39523960 44 34 68 2455
-1.8397413 -1.5836112 -0.052076846 86 39523960 51 35 93 2428
-2.2352393 -1.5354443 -0.08053185 117 39523960 86 36 117 2713
-2.0374131 -1.5101496 -0.099198788 131 39523960 85 37 66 2538
-2.0457478 -1.6350986 -0.12748989 149 39523960 103 38 98 2622
-1.9860827 -1.7096392 -0.15243199 193 39523960 133 39 75 2625
-2.2177072 -1.5208386 -0.17846738 199 39523960 145 40 80 2695
-2.0947297 -1.5511608 -0.19749568 131 39523960 90 41 94 2614
-2.1299491 -1.7014233 -0.23274913 118 39523960 88 42 128 2736
-2.1188455 -1.8219277 -0.26518628 35 39523960 28 43 62 2807
-2.2638803 -1.5513411 -0.28331721 119 39523960 91 44 94 2759
-2.2367306 -1.6549237 -0.31347281 126 39523960 98 45 56 2800
-2.2593555 -1.8028573 -0.35321879 132 39523960 112 46 109 2912
-2.1586123 -1.8552046 -0.37583363 218 39523960 180 47 120 2871
-3.3315892 -2.2788975 -0.56649464 666 39523960 1107 48 89 4076
-3.2557294 -2.4066682 -0.60746378 767 39523960 1286 49 66 4094
-2.3589928 -1.8803424 -0.48217255 131 39523960 122 50 45 3055
-2.2099917 -1.8982896 -0.49442887 48 39523960 42 51 63 2955
-3.0172894 -2.0599678 -0.65116853 753 39523960 1037 52 99 3711
-3.1442459 -2.3217983 -0.73450816 805 39523960 1273 53 109 3977
-3.1129639 -2.4797301 -0.78717524 614 39523960 1011 54 87 4057
-1.2610065 -1.0831896 -0.34607384 119 39523960 34 55 63 1698
-1.3112401 -0.89413834 -0.34429955 362 39523960 96 56 71 1624
-1.3146007 -0.96967429 -0.37038103 121 39523960 34 57 111 1675
-1.2719898 -1.0128448 -0.38526455 35 39523960 10 58 44 1671
-1.2423174 -1.0669476 -0.40526471 39 39523960 11 59 67 1687
-1.1725192 -0.79753709 -0.36390877 126 39523960 27 60 14 1464
-1.1320812 -0.83358097 -0.37491345 42 39523960 9 61 34 1455
-3.0324643 -2.4137032 -1.0745623 105 39523960 170 62 73 4022
-2.6529725 -2.2804012 -1.0091532 23 39523960 30 63 53 3641
-4.3531961 -2.9537249 1.6420468 246 39621120 748 0 73 5511
-3.8807237 -2.854809 1.446012 341 39621120 864 1 73 5030
-3.4748898 -2.7632229 1.2855457 293 39621120 627 2 74 4622
-3.1326551 -2.6897202 1.1533638 439 39621120 806 3 48 4287
-4.3435111 -2.9503653 1.418442 333 39621120 986 4 84 5439
-3.8880284 -2.857569 1.2521029 358 39621120 888 5 47 4985
-3.4719257 -2.7586904 1.1046544 356 39621120 744 6 107 4570
-3.152904 -2.7015662 0.99252063 353 39621120 644 7 74 4269
-4.3595457 -2.9624798 1.2146446 298 39621120 873 8 85 5409
-3.8794148 -2.8535333 1.0593643 361 39621120 879 9 76 4931
-3.4809718 -2.7628071 0.93296069 414 39621120 855 10 63 4541
-3.1311219 -2.6781671 0.82480401 402 39621120 709 11 54 4202
-4.3428411 -2.9521258 1.0075192 336 39621120 960 12 128 5347
-3.8950987 -2.8627656 0.87769598 367 39621120 887 13 81 4913
-3.4829092 -2.7632551 0.76347005 397 39621120 808 14 102 4511
-3.1608899 -2.702292 0.67510372 428 39621120 760 15 76 4213
-4.3386431 -2.9491615 0.80838656 395 39621120 1114 16 63 5308
-3.4410708 -2.527868 0.61604649 425 39621120 791 17 124 4314
-3.4968019 -2.7711957 0.60071403 86 39621120 175 18 60 4502
-2.8486667 -2.4323571 0.46836081 196 39621120 279 19 250 3775
-3.3506777 -2.2775137 0.47342515 526 39621120 875 20 119 4079
-3.1960626 -2.3471081 0.42475006 498 39621120 792 21 110 3988
-3.4903808 -2.7634301 0.43407968 271 39621120 543 22 68 4473
-2.2259531 -1.8985666 0.25796792 416 39621120 359 23 149 2937
-3.2518446 -2.2094226 0.31479505 542 39621120 844 24 81 3944
-3.1338239 -2.3001387 0.27407998 503 39621120 764 25 90 3897
-3.1820221 -2.5191135 0.24730253 221 39621120 365 26 142 4066
-3.1678329 -2.6986718 0.21423456 237 39621120 411 27 167 4167
-3.1098087 -2.1106975 0.16337457 631 39621120 894 28 80 3762
-2.1026018 -1.5421216 0.088367783 52 39621120 35 29 56 2609
-2.0088239 -1.5872493 0.06315171 134 39621120 88 30 37 2561
-2.0389714 -1.7357073 0.040007886 253 39621120 182 31 73 2678
-3.2666814 -2.2169209 0.027562017 173 39621120 270 32 102 3948
-2.0406477 -1.4955324 -0.0064027342 76 39621120 49 33 60 2530
-1.9639759 -1.5514234 -0.029880235 134 39621120 84 34 87 2503
-1.7854402 -1.5178972 -0.050275173 285 39621120 157 35 84 2344
-3.1183074 -2.1140022 -0.11187784 102 39621120 145 36 220 3769
-2.0466409 -1.4976199 -0.099198788 113 39621120 73 37 72 2538
-1.9992915 -1.5779611 -0.12398903 141 39621120 92 38 106 2550
-2.0239165 -1.7206994 -0.15452248 206 39621120 146 39 81 2661
-2.2468293 -1.5206245 -0.18005669 145 39621120 107 40 79 2719
-2.1235273 -1.552402 -0.19930895 113 39621120 79 41 96 2638
-2.1121862 -1.6661073 -0.22968665 121 39621120 88 42 136 2700
-2.048033 -1.7392948 -0.25498319 45 39621120 33 43 58 2699
-2.2733564 -1.537421 -0.28331721 263 39621120 200 44 90 2759
-2.1986964 -1.6060003 -0.30675554 144 39621120 108 45 55 2740
-2.3077986 -1.8184484 -0.35904106 274 39621120 240 46 94 2960
-2.1790247 -1.8496234 -0.37740451 218 39621120 181 47 104 2883
-3.3061123 -2.2318168 -0.55982351 852 39621120 1382 48 114 4028
-3.2608492 -2.3796506 -0.60568321 774 39621120 1290 49 83 4082
-2.3611751 -1.8585036 -0.48027861 111 39621120 102 50 47 3043
-2.2306194 -1.8923472 -0.49643672 87 39621120 77 51 63 2967
-3.0592647 -2.0612187 -0.65748549 652 39621120 916 52 96 3747
-3.1489027 -2.2955143 -0.73229188 802 39621120 1261 53 110 3965
-3.1373732 -2.4678607 -0.78950363 468 39621120 775 54 94 4069
-1.2765876 -1.083032 -0.34851959 122 39621120 36 55 77 1710
-1.2972431 -0.87298113 -0.33921137 342 39621120 88 56 76 1600
-1.3394467 -0.97536784 -0.37568799 102 39621120 29 57 117 1699
-1.3057177 -1.0266731 -0.3935647 69 39621120 20 58 55 1707
-1.2133076 -1.0291644 -0.39373377 46 39621120 12 59 72 1639
-1.2352951 -0.82919616 -0.3818059 60 39621120 14 60 23 1536
-1.1277959 -0.81980151 -0.3718214 125 39621120 26 61 38 1443
-2.9835758 -2.3450298 -1.0521199 291 39621120 451 62 112 3938
-2.6669147 -2.26408 -1.0091532 185 39621120 245 63 44 3641
-4.4283471 -2.9651985 1.6634998 247 39717260 771 0 89 5583
-3.9632661 -2.8782198 1.4701602 319 39717260 835 1 98 5114
-3.5552385 -2.7916796 1.3089092 286 39717260 632 2 56 4706
-3.1931741 -2.707823 1.169506 407 39717260 768 3 49 4347
-4.486629 -3.007514 1.4591255 293 39717260 918 4 72 5595
-3.9618971 -2.8745861 1.2701875 353 39717260 901 5 51 5057
-3.5345919 -2.7732739 1.1191574 357 39717260 766 6 92 4630
-3.1783304 -2.6897092 0.9953106 444 39717260 814 7 75 4281
-4.4262004 -2.9682388 1.2281182 287 39717260 859 8 93 5469
-3.9537506 -2.8709934 1.0748326 296 39717260 742 9 77 5003
-3.5348322 -2.7703738 0.9428224 377 39717260 793 10 54 4589
-3.2194045 -2.7196507 0.84364772 252 39717260 465 11 42 4298
-4.4391685 -2.9779463 1.0256082 360 39717260 1067 12 103 5443
-3.9603734 -2.8734806 0.88841486 385 39717260 953 13 69 4973
-3.5370388 -2.7710071 0.77159387 381 39717260 792 14 104 4559
-3.1864617 -2.6904879 0.67702663 369 39717260 659 15 59 4225
-4.4354515 -2.9753404 0.82300699 388 39717260 1134 16 73 5404
-3.3315241 -2.4160604 0.59376937 535 39717260 926 17 70 4158
-3.4669108 -2.7130413 0.59270811 140 39717260 277 18 65 4442
-3.2185407 -2.7142074 0.52642512 380 39717260 684 19 93 4243
-3.3546913 -2.250272 0.47203243 521 39717260 862 20 93 4067
-3.2587051 -2.3624701 0.43114048 520 39717260 852 21 115 4048
-3.2438142 -2.5359926 0.40147275 389 39717260 666 22 97 4137
-2.2924139 -1.93108 0.26429194 410 39717260 371 23 134 3009
-3.2454698 -2.1761048 0.31287944 559 39717260 859 24 88 3920
-3.1672647 -2.2949138 0.27576795 529 39717260 813 25 97 3921
-3.0275614 -2.3667574 0.23416497 500 39717260 741 26 126 3850
-3.1568215 -2.6560371 0.2123837 421 39717260 719 27 92 4131
-3.1127405 -2.0849047 0.16285345 629 39717260 885 28 75 3750
-2.2771654 -1.6487601 0.095277332 56 39717260 45 29 71 2813
-2.0185251 -1.5748935 0.06315171 111 39717260 73 30 39 2561
-1.9852945 -1.6691138 0.038752969 181 39717260 122 31 71 2594
-3.1805198 -2.1300619 0.026724264 189 39717260 277 32 86 3828
-2.0303409 -1.4689152 -0.0063419961 129 39717260 81 33 64 2506
-1.9450746 -1.5172036 -0.029450474 124 39717260 76 34 94 2467
-1.8130962 -1.5223426 -0.050789934 127 39717260 71 35 81 2368
-3.3505464 -2.2415612 -0.11971432 229 39717260 372 36 163 4033
-2.094672 -1.5131195 -0.1010749 69 39717260 46 37 45 2586
-1.9805746 -1.5435605 -0.1222386 136 39717260 86 38 102 2514
-2.0527854 -1.7236556 -0.15591615 213 39717260 154 39 70 2685
-2.3556888 -1.5733111 -0.1880033 131 39717260 106 40 85 2839
-2.1136069 -1.5253384 -0.19749568 99 39717260 68 41 71 2614
-2.0846386 -1.6237272 -0.22560334 215 39717260 151 42 143 2652
-2.1135848 -1.7727578 -0.26178524 150 39717260 116 43 66 2771
-3.265677 -2.1794236 -0.40531102 303 39717260 472 44 238 3947
-2.2181814 -1.5994534 -0.30809897 118 39717260 90 45 59 2752
-2.243705 -1.7457376 -0.34739649 180 39717260 148 46 112 2864
-2.2176836 -1.8591472 -0.38211718 224 39717260 191 47 130 2919
-3.309854 -2.2049005 -0.55815572 853 39717260 1376 48 106 4016
-3.2657602 -2.3526609 -0.60390264 804 39717260 1332 49 70 4070
-2.4006021 -1.8657959 -0.48596051 118 39717260 112 50 37 3079
-2.2512572 -1.8862227 -0.49844453 169 39717260 150 51 78 2979
-3.101368 -2.0620315 -0.66380239 660 39717260 945 52 99 3783
-3.1725011 -2.2830386 -0.73450816 811 39717260 1283 53 103 3977
-3.1617537 -2.455785 -0.79183197 652 39717260 1086 54 99 4081
-1.3102238 -1.097814 -0.35585687 99 39717260 30 55 51 1746
-1.3025752 -0.86500496 -0.33921137 341 39717260 87 56 60 1600
-1.2978933 -0.93297666 -0.36242059 95 39717260 26 57 122 1639
-1.2751 -0.98999828 -0.38249782 118 39717260 33 58 68 1659
-1.3088931 -1.0965046 -0.42256114 34 39717260 11 59 58 1759
-1.2597404 -0.83443844 -0.38777164 44 39717260 11 60 27 1560
-1.0574416 -0.75878769 -0.34708485 140 39717260 25 61 20 1347
-2.9979086 -2.3266788 -1.0521199 230 39717260 357 62 109 3938
-2.7426033 -2.2995286 -1.0324349 365 39717260 507 63 65 3725
-4.5611434 -3.0137489 1.7064058 225 39814950 739 0 89 5727
-4.0368981 -2.894027 1.4908586 304 39814950 818 1 105 5186
-3.5996282 -2.7910008 1.318922 314 39814950 705 2 50 4742
-3.2363107 -2.7104416 1.1791915 396 39814950 760 3 51 4383
-4.5339847 -2.9991016 1.4685138 307 39814950 974 4 83 5631
-4.0077901 -2.8705127 1.2792298 314 39814950 813 5 55 5093
-3.606771 -2.7943223 1.1365613 359 39814950 794 6 80 4702
-3.2485056 -2.7150645 1.0120503 462 39814950 876 7 77 4353
-4.5223432 -2.9926493 1.2496759 281 39814950 871 8 80 5565
-4.0284448 -2.8876472 1.0903009 312 39814950 804 9 89 5075
-3.6353533 -2.8133199 0.96501124 383 39814950 846 10 61 4697
-3.2450664 -2.7073836 0.84600323 432 39814950 802 11 40 4310
-4.5261464 -2.9961884 1.0414361 348 39814950 1063 12 123 5527
-4.0355234 -2.8903763 0.90127748 355 39814950 903 13 52 5045
-3.6381664 -2.8143804 0.78987253 367 39814950 799 14 101 4667
-3.2211041 -2.6860571 0.68087244 414 39814950 748 15 76 4249
-4.5030723 -2.9808011 0.83214474 410 39814950 1223 16 50 5464
-3.3462863 -2.3955731 0.59376937 526 39814950 910 17 98 4158
-3.5775986 -2.7644341 0.60872 246 39814950 513 18 60 4562
-3.262583 -2.7172689 0.53089166 403 39814950 738 19 110 4279
-3.3584967 -2.2230668 0.47063965 530 39814950 872 20 93 4055
-3.2537336 -2.3285427 0.42858431 554 39814950 897 21 91 4024
-3.2687678 -2.5233395 0.4026373 387 39814950 667 22 86 4149
-2.340977 -1.9475576 0.26850799 414 39814950 387 23 141 3057
-3.2388096 -2.1429491 0.31096387 528 39814950 802 24 76 3896
-3.1812866 -2.2754366 0.27576795 545 39814950 838 25 81 3921
-3.0230632 -2.3334982 0.23270525 526 39814950 770 26 131 3826
-3.1914937 -2.6519353 0.21361761 393 39814950 678 27 110 4155
-3.1254747 -2.0657661 0.16285345 607 39814950 854 28 89 3750
-3.0970829 -2.2135756 0.12901221 442 39814950 641 29 45 3809
-2.0186472 -1.5551571 0.062855795 90 39814950 58 30 41 2549
-1.977036 -1.6415709 0.038394421 173 39814950 114 31 82 2570
-3.1935298 -2.1105065 0.026724264 171 39814950 251 32 80 3828
-1.9416631 -1.3866884 -0.0060383095 315 39814950 180 33 80 2386
-1.9828664 -1.5272057 -0.029880235 102 39814950 64 34 68 2503
-1.9147545 -1.5877696 -0.053363752 54 39814950 34 35 71 2488
-3.3742473 -2.2275689 -0.12007052 223 39814950 365 36 139 4045
