# .PCD v0.7 - Point Cloud Data file format
VERSION 0.7
FIELDS x y z intensity t reflectivity ring noise range
SIZE 4 4 4 4 4 2 1 2 4
TYPE F F F F U U U U U
COUNT 1 1 1 1 1 1 1 1 1
WIDTH 788
HEIGHT 1
VIEWPOINT 0 0 0 1 0 0 0
POINTS 788
DATA ascii
10.128244 -3.3739188 -2.5294659 131 5368110 1574 58 26 10971
11.287766 -3.2999051 -2.910363 17 5368110 256 59 65 12115
8.9517431 -3.750092 -2.4906871 76 5368110 760 60 30 10020
9.8149748 -3.6868484 -2.7960043 104 5368110 1223 61 18 10851
9.1950026 -3.0649989 -2.687207 88 5368110 888 62 25 10058
10.331071 -3.0155246 -3.104511 68 5368110 850 63 31 11201
11.25986 -4.7321687 3.8123736 74 5466200 1206 0 40 12795
11.157424 -4.1968007 3.5779457 454 5466200 7039 1 71 12446
11.175663 -3.7309761 3.4116192 357 5466200 5366 2 37 12266
11.117764 -3.2517991 3.235714 475 5466200 6866 3 39 12027
5.3971672 -2.2650478 1.5811757 622 5466200 2288 4 66 6063
10.917875 -4.1121345 3.0274014 412 5466200 5980 5 42 12053
10.90913 -3.646651 2.8653331 449 5466200 6315 6 65 11854
10.882172 -3.1948531 2.7111228 462 5466200 6288 7 66 11661
5.6585603 -2.3734701 1.4140538 384 5466200 1524 8 72 6297
10.716034 -4.031415 2.5185413 422 5466200 5794 9 47 11723
10.684232 -3.5779006 2.3653769 459 5466200 6080 10 35 11513
10.668242 -3.1421611 2.2263036 438 5466200 5630 11 39 11342
10.494404 -4.3999152 2.1833038 492 5466200 6608 12 92 11587
10.479266 -3.9469357 2.0331891 472 5466200 6110 13 41 11381
10.484198 -3.5131526 1.8987744 440 5466200 5544 14 58 11219
10.464906 -3.0850508 1.7711657 447 5466200 5456 15 40 11053
10.306791 -4.3214674 1.722162 475 5466200 6069 16 48 11308
8.0742006 -3.0431781 1.244945 61 5466200 460 17 49 8718
10.250306 -3.4409478 1.4557508 496 5466200 5899 18 46 10910
10.261164 -3.0318019 1.3378371 525 5466200 6099 19 56 10783
7.7592549 -3.2534869 0.98317844 566 5466200 4065 20 71 8471
6.4567356 -2.4347115 0.73915887 383 5466200 1847 21 58 6940
10.083858 -3.3903604 1.0373077 502 5466200 5741 22 60 10689
10.095044 -2.9886594 0.92831558 536 5466200 5991 23 86 10569
6.3497987 -2.6639295 0.5513702 380 5466200 1812 24 36 6908
6.3360267 -2.3910894 0.47747731 375 5466200 1726 25 45 6789
6.3672152 -2.1410108 0.40933254 386 5466200 1749 26 94 6730
9.9064808 -2.9392297 0.5319618 574 5466200 6149 27 66 10347
6.2283287 -2.6165495 0.29365733 440 5466200 2010 28 56 6762
6.2649999 -2.3667839 0.22696529 403 5466200 1808 29 35 6701
6.2452865 -2.1065655 0.16257681 383 5466200 1664 30 27 6593
9.5368958 -2.8333783 0.14864767 532 5466200 5262 31 54 9950
6.1177611 -2.5704765 0.046327643 416 5466200 1834 32 67 6636
6.1040239 -2.3085275 -0.01651551 531 5466200 2260 33 52 6526
6.3507023 -2.1429868 -0.080018871 301 5466200 1350 34 57 6703
6.6842942 -1.9905788 -0.14962441 385 5466200 1875 35 75 6976
6.1259356 -2.5774338 -0.19736686 422 5466200 1867 36 89 6649
6.4639587 -2.4500716 -0.27039292 371 5466200 1773 37 55 6918
6.852777 -2.3156052 -0.35212886 397 5466200 2083 38 102 7242
7.2419629 -2.1565146 -0.43952674 352 5466200 2019 39 65 7569
6.604126 -2.7847357 -0.47567019 439 5466200 2267 40 60 7183
7.0123811 -2.6615832 -0.56831008 434 5466200 2458 41 73 7522
7.4300027 -2.5129662 -0.6696642 373 5466200 2311 42 114 7872
7.966599 -2.3769903 -0.78894573 368 5466200 2567 43 219 8351
7.1692095 -3.02596 -0.8033312 388 5466200 2376 44 86 7823
7.6281486 -2.8988044 -0.91937101 374 5466200 2519 45 51 8212
8.8409319 -2.9953282 -1.1406832 180 5466200 1594 46 94 9404
9.6010427 -2.8672135 -1.3230758 471 5466200 4813 47 92 10107
8.7628145 -3.7072363 -1.3353486 30 5466200 281 48 67 9608
8.5865469 -3.2672977 -1.3784412 66 5466200 566 49 53 9290
9.8810005 -3.3534744 -1.6677963 515 5466200 5748 50 28 10567
10.091149 -3.0166464 -1.7874733 69 5466200 784 51 33 10683
7.605104 -3.2254341 -1.4723674 54 5466200 378 52 39 8391
9.8678732 -3.7605786 -1.9844832 64 5466200 745 53 59 10745
9.8542194 -3.3478382 -2.0584526 44 5466200 492 54 37 10609
9.8883924 -2.9558463 -2.1485929 246 5466200 2730 55 39 10542
9.2215042 -3.9170508 -2.173497 53 5466200 561 56 71 10252
9.7372541 -3.7166407 -2.3631415 94 5466200 1069 57 42 10687
9.9194098 -3.3721101 -2.4824317 274 5466200 3173 58 33 10767
11.311946 -3.3824515 -2.9218936 28 5466200 409 59 40 12163
8.6077776 -3.6682436 -2.4012015 73 5466200 679 60 25 9660
9.6405611 -3.6889896 -2.7527153 65 5466200 739 61 30 10683
10.500698 -3.5719686 -3.0751395 187 5466200 2472 62 50 11510
13.626769 -4.0684028 -4.1023006 107 5466200 2335 63 49 14801
11.135816 -4.7606425 3.7801938 32 5564370 508 0 50 12687
11.174393 -4.2816315 3.5917444 457 5564370 7142 1 61 12494
11.130738 -3.7920444 3.4049437 356 5564370 5331 2 29 12242
11.130821 -3.3298929 3.2453995 449 5564370 6529 3 38 12063
5.4044766 -2.3072186 1.5874346 414 5564370 1532 4 53 6087
10.924973 -4.1915302 3.0364437 430 5564370 6278 5 42 12089
10.908591 -3.7210381 2.8711345 434 5564370 6128 6 73 11878
10.88472 -3.2682774 2.7167027 428 5564370 5839 7 44 11685
5.6546459 -2.4127347 1.4167485 353 5564370 1407 8 67 6309
10.70204 -4.101285 2.5211194 415 5564370 5710 9 40 11735
10.650964 -3.6395929 2.3629115 441 5564370 5831 10 20 11501
10.660027 -3.2109544 2.2286589 427 5564370 5501 11 31 11354
10.499729 -4.4780946 2.1900871 486 5564370 6570 12 79 11623
10.487922 -4.023849 2.0396206 485 5564370 6318 13 43 11417
10.484825 -3.5850692 1.9028363 442 5564370 5593 14 60 11243
10.491142 -3.1628804 1.7788575 463 5564370 5699 15 57 11101
10.290991 -4.3892803 1.7239895 399 5564370 5108 16 44 11320
8.0664635 -3.09692 1.2466587 113 5564370 858 17 167 8730
10.274004 -3.5191929 1.4621555 472 5564370 5662 18 53 10958
10.265163 -3.101594 1.3408147 496 5564370 5798 19 61 10807
7.7391458 -3.3010354 0.98317844 539 5564370 3871 20 62 8471
6.4416747 -2.4742835 0.73915887 358 5564370 1726 21 64 6940
6.4365053 -2.2081099 0.66349268 559 5564370 2614 22 97 6837
10.065075 -3.0470815 0.92726153 542 5564370 6045 23 72 10557
6.3443351 -2.7075362 0.55232805 400 5564370 1913 24 53 6920
6.3324089 -2.4342163 0.47832125 392 5564370 1811 25 52 6801
6.3312988 -2.1722648 0.4078728 397 5564370 1786 26 93 6706
9.8997278 -3.0034387 0.53257877 573 5564370 6153 27 65 10359
6.2231808 -2.6594276 0.29417846 423 5564370 1939 28 49 6774
6.2615528 -2.409488 0.22737175 357 5564370 1607 29 40 6713
6.2662735 -2.1565576 0.16346453 364 5564370 1598 30 33 6629
9.519331 -2.8918424 0.14864767 506 5564370 5014 31 69 9950
6.1239424 -2.617398 0.046495195 402 5564370 1781 32 50 6660
6.1121397 -2.3545649 -0.016576247 439 5564370 1882 33 49 6550
6.3374338 -2.1819136 -0.080018871 292 5564370 1310 34 55 6703
6.6604772 -2.0280607 -0.14936702 348 5564370 1686 35 44 6964
6.0769238 -2.6008151 -0.19629826 559 5564370 2446 36 79 6613
6.4376178 -2.485369 -0.2699239 389 5564370 1854 37 43 6906
6.8157768 -2.3497963 -0.35096189 414 5564370 2156 38 124 7218
7.1942139 -2.1904418 -0.43743625 373 5564370 2119 39 61 7533
6.5649066 -2.8157656 -0.47408086 425 5564370 2180 40 71 7159
6.9289536 -2.6786723 -0.56287026 477 5564370 2650 41 63 7450
7.3692336 -2.5429077 -0.66558087 370 5564370 2265 42 111 7824
7.8718781 -2.4014268 -0.78100997 366 5564370 2499 43 48 8267
7.1395388 -3.0651834 -0.80209893 366 5564370 2235 44 82 7811
7.610218 -2.9455552 -0.91937101 353 5564370 2384 45 61 8212
8.5521984 -2.9561265 -1.1057495 72 5564370 594 46 57 9116
9.5832691 -2.9260705 -1.3230758 226 5564370 2311 47 89 10107
8.9363861 -3.8454847 -1.3653688 260 5564370 2510 48 105 9824
8.2011833 -3.1784053 -1.319683 59 5564370 463 49 57 8894
9.8378429 -3.4062858 -1.6640083 422 5564370 4686 50 49 10543
10.049821 -3.0715916 -1.7834576 64 5564370 723 51 39 10659
9.3967152 -4.0534892 -1.8240088 156 5564370 1689 52 85 10395
10.020523 -3.8893332 -2.0199435 9 5564370 113 53 68 10937
9.3218422 -3.2309043 -1.9513487 33 5564370 331 54 31 10057
9.8813047 -3.0198984 -2.1510386 60 5564370 666 55 29 10554
9.0681105 -3.9177465 -2.1429679 76 5564370 779 56 83 10108
9.7688055 -3.797519 -2.3764088 324 5564370 3737 57 48 10747
9.909565 -3.4367371 -2.4851983 252 5564370 2923 58 46 10779
11.068186 -3.3836861 -2.864239 34 5564370 478 59 45 11923
8.4464664 -3.6609004 -2.3624241 78 5564370 702 60 38 9504
9.6825647 -3.7733343 -2.7712677 34 5564370 391 61 19 10755
10.522283 -3.6514971 -3.0879638 34 5564370 461 62 60 11558
13.392027 -4.0879807 -4.0391073 107 5564370 2263 63 48 14573
5.139564 -2.2345994 1.7493118 383 5660430 1319 0 42 5871
11.158618 -4.3542938 3.5951943 502 5660430 7858 1 67 12506
11.150812 -3.8754058 3.4182944 386 5660430 5825 2 36 12290
11.099128 -3.3947473 3.242171 501 5660430 7271 3 41 12051
5.4114704 -2.3495638 1.5936936 385 5660430 1439 4 68 6111
10.931504 -4.2711668 3.0454862 411 5660430 6037 5 38 12125
10.918546 -3.7993822 2.8798363 418 5660430 5938 6 78 11914
10.875619 -3.3384283 2.7194927 472 5660430 6453 7 43 11697
5.607554 -2.4334204 1.4086643 371 5660430 1458 8 54 6273
10.676673 -4.1668744 2.5211194 340 5660430 4679 9 147 11735
10.67279 -3.7203403 2.3727732 446 5660430 5944 10 44 11549
10.640124 -3.2763028 2.2286589 438 5660430 5643 11 26 11354
10.482866 -4.5471253 2.1923482 504 5660430 6830 12 58 11635
10.474031 -4.0924225 2.0417643 464 5660430 6055 13 52 11429
10.451464 -3.6454403 1.9008054 407 5660430 5137 14 82 11231
10.437579 -3.2167277 1.7730887 465 5660430 5688 15 48 11065
10.285625 -4.461782 1.7276447 421 5660430 5413 16 48 11344
10.27069 -4.0156593 1.5910964 471 5660430 5851 17 79 11142
10.263444 -3.5860896 1.4637567 497 5660430 5977 18 36 10970
10.257317 -3.1680353 1.3423035 490 5660430 5730 19 51 10819
7.7296796 -3.3532033 0.98457116 520 5660430 3745 20 78 8483
6.4930429 -2.5398417 0.74682736 357 5660430 1758 21 61 7012
6.4679279 -2.2633412 0.66815084 379 5660430 1795 22 50 6885
10.057609 -3.1123159 0.92831558 522 5660430 5834 23 86 10569
6.3495479 -2.7559383 0.55424356 382 5660430 1844 24 59 6944
6.3507938 -2.4861162 0.4808532 394 5660430 1844 25 60 6837
6.3404622 -2.2189851 0.40933254 394 5660430 1786 26 61 6730
9.8696661 -3.0605762 0.5319618 583 5660430 6245 27 77 10347
6.217741 -2.7023411 0.29469958 420 5660430 1933 28 44 6786
6.2578168 -2.4522383 0.2277782 373 5660430 1685 29 35 6725
6.2189655 -2.1830461 0.16257681 383 5660430 1664 30 34 6593
6.247056 -1.9397177 0.097733967 374 5660430 1599 31 283 6542
6.118772 -2.6597083 0.04657897 416 5660430 1854 32 66 6672
6.1310911 -2.4051712 -0.016667355 451 5660430 1959 33 58 6586
6.3012834 -2.2128069 -0.079732358 320 5660430 1426 34 47 6679
6.6249976 -2.0617607 -0.14885226 364 5660430 1751 35 55 6940
6.0168591 -2.6189053 -0.19487344 760 5660430 3277 36 80 6565
6.3552899 -2.4984996 -0.26710975 380 5660430 1773 37 46 6834
6.778616 -2.3836207 -0.34979492 349 5660430 1807 38 102 7194
7.1348829 -2.220305 -0.4346489 395 5660430 2211 39 48 7485
6.5036058 -2.8368452 -0.47090223 424 5660430 2146 40 76 7111
6.9012527 -2.7167542 -0.56196362 442 5660430 2447 41 75 7438
7.3196568 -2.5761685 -0.66251844 371 5660430 2250 42 124 7788
7.8113761 -2.4354594 -0.77647531 400 5660430 2699 43 45 8219
7.0768394 -3.089828 -0.79716986 390 5660430 2353 44 62 7763
7.5143428 -2.9615881 -0.90996677 365 5660430 2409 45 41 8128
8.4552631 -2.9808238 -1.0955606 245 5660430 2003 46 62 9032
9.462925 -2.9529223 -1.3089379 225 5660430 2251 47 96 9999
8.9017353 -3.8954806 -1.363701 735 5660430 7081 48 62 9812
7.72894 -3.0500631 -1.2466806 226 5660430 1593 49 36 8402
9.7497168 -3.4429119 -1.6526445 445 5660430 4876 50 35 10471
10.030785 -3.1331983 -1.7834576 66 5660430 745 51 45 10659
9.2634802 -4.0636115 -1.8029525 36 5660430 385 52 61 10275
9.9087257 -3.9160671 -2.0022135 162 5660430 1899 53 45 10841
8.7690935 -3.0997238 -1.8395882 319 5660430 2863 54 51 9481
9.8850155 -3.0874767 -2.15593 119 5660430 1328 55 33 10578
8.700326 -3.8223686 -2.0615573 94 5660430 892 56 71 9724
9.7344389 -3.8530805 -2.3737555 399 5660430 4593 57 51 10735
9.9323244 -3.513051 -2.4962652 209 5660430 2447 58 26 10827
10.480169 -3.2743704 -2.7172196 166 5660430 2118 59 56 11311
8.1366673 -3.5860901 -2.2818868 93 5660430 783 60 12 9180
9.5837879 -3.8027401 -2.7496231 91 5660430 1034 61 20 10671
11.68791 -4.1365242 -3.4374235 42 5660430 688 62 52 12866
10.372875 -3.2360795 -3.134445 38 5660430 482 63 34 11309
5.1362329 -2.2707248 1.7528874 438 5758720 1518 0 59 5883
11.153053 -4.4311671 3.6020937 444 5758720 6978 1 66 12530
11.159415 -3.9553049 3.4283071 342 5758720 5190 2 43 12326
11.078089 -3.4627862 3.242171 447 5758720 6488 3 32 12051
5.3651586 -2.3686872 1.5843052 401 5758720 1481 4 69 6075
10.915884 -4.3424544 3.0485003 449 5758720 6609 5 40 12137
10.895028 -3.8663058 2.8798363 429 5758720 6083 6 51 11914
10.85493 -3.405097 2.7194927 445 5758720 6083 7 49 11697
5.5925174 -2.467782 1.4086643 343 5758720 1352 8 62 6273
5.7715468 -2.2934163 1.3661524 535 5758720 2162 9 56 6359
10.660827 -3.7896907 2.3752387 466 5758720 6223 10 49 11561
10.664717 -3.3556542 2.2380807 435 5758720 5650 11 47 11402
10.487117 -4.6256294 2.1991317 455 5758720 6202 12 77 11671
10.492606 -4.1740699 2.0503392 484 5758720 6369 13 57 11477
10.495756 -3.7332816 1.9129909 433 5758720 5535 14 82 11303
10.474135 -3.2985005 1.7827033 461 5758720 5700 15 47 11125
10.225501 -4.5104499 1.722162 154 5758720 1973 16 85 11308
10.245856 -4.0786033 1.5910964 540 5758720 6710 17 58 11142
10.241247 -3.6489973 1.4637567 505 5758720 6073 18 39 10970
10.24904 -3.2344968 1.3437923 511 5758720 6000 19 60 10831
7.7416739 -3.4149995 0.98874938 556 5758720 4038 20 73 8519
6.4551663 -2.5708048 0.74427116 371 5758720 1809 21 56 6988
6.4539185 -2.302985 0.66815084 410 5758720 1942 22 42 6885
10.04972 -3.1775734 0.92936957 545 5758720 6104 23 92 10581
6.3325181 -2.7948465 0.55424356 395 5758720 1903 24 46 6944
6.3576589 -2.5339007 0.48254114 361 5758720 1702 25 58 6861
6.2928843 -2.24577 0.40714294 394 5758720 1767 26 72 6694
9.8735495 -3.1283171 0.53319573 571 5758720 6145 27 75 10371
6.2339396 -2.7549798 0.29626298 433 5758720 2018 28 59 6822
6.2203736 -2.4817011 0.22696529 330 5758720 1480 29 37 6701
6.2732215 -2.2454205 0.16435227 413 5758720 1834 30 28 6665
6.1892891 -1.9634993 0.097016878 643 5758720 2714 31 60 6494
6.1242876 -2.7069044 0.046746518 399 5758720 1787 32 49 6696
6.0939293 -2.4338439 -0.016606616 429 5758720 1846 33 45 6562
6.2424006 -2.235249 -0.079159349 386 5758720 1700 34 59 6631
6.5550556 -2.0841956 -0.14756535 362 5758720 1711 35 56 6880
6.0116444 -2.660629 -0.19522963 794 5758720 3436 36 86 6577
6.3621044 -2.5463591 -0.26804781 398 5758720 1870 37 47 6858
6.6961679 -2.4008968 -0.34629408 392 5758720 1989 38 107 7122
7.0868754 -2.2531528 -0.43255842 492 5758720 2728 39 48 7449
6.4641857 -2.8669882 -0.46931291 418 5758720 2101 40 71 7087
6.8511329 -2.7456944 -0.55924374 423 5758720 2320 41 72 7402
7.2586966 -2.6048782 -0.65843505 376 5758720 2254 42 85 7740
7.7393708 -2.4652143 -0.77080685 415 5758720 2760 43 45 8159
7.0250177 -3.1186626 -0.79347306 361 5758720 2158 44 68 7727
7.5070963 -3.01208 -0.9113102 371 5758720 2456 45 43 8140
8.7058353 -3.129349 -1.1304942 185 5758720 1607 46 114 9320
9.3879538 -2.9928627 -1.3010834 352 5758720 3479 47 89 9939
8.8776655 -3.9500275 -1.363701 742 5758720 7147 48 71 9812
9.0314922 -3.6282909 -1.4603463 98 5758720 953 49 72 9842
9.5723219 -3.4464722 -1.6261289 102 5758720 1079 50 43 10303
10.078997 -3.2162669 -1.7955047 62 5758720 710 51 37 10731
9.1088991 -4.0626292 -1.7776848 36 5758720 365 52 54 10131
9.8735695 -3.9723902 -1.9999971 260 5758720 3055 53 60 10829
9.8463011 -3.5486116 -2.0700943 41 5758720 463 54 36 10669
9.8546944 -3.144501 -2.1534843 81 5758720 900 55 44 10566
8.4839716 -3.7895899 -2.0157638 109 5758720 988 56 85 9508
9.721468 -3.9171112 -2.3764088 363 5758720 4189 57 34 10747
9.8995981 -3.5699675 -2.4934986 162 5758720 1891 58 40 10815
12.768064 -4.0753465 -3.316829 73 5758720 1397 59 82 13807
7.9129739 -3.5456438 -2.2252126 91 5758720 727 60 32 8952
9.4527655 -3.8180497 -2.7187026 74 5758720 821 61 27 10551
10.378785 -3.7450225 -3.0591092 36 5758720 468 62 39 11450
13.813225 -4.4025688 -4.1821237 16 5758720 357 63 39 15089
5.1222034 -2.3021975 1.7528874 333 5855430 1151 0 42 5883
11.157619 -4.5124454 3.612443 472 5855430 7458 1 79 12566
11.134936 -4.0237031 3.4283071 386 5855430 5859 2 39 12326
11.100673 -3.5447581 3.2550848 422 5855430 6172 3 49 12099
5.3399544 -2.3968186 1.5811757 354 5855430 1303 4 65 6063
10.910565 -4.4180703 3.0545282 502 5855430 7420 5 31 12161
10.871099 -3.9330835 2.8798363 440 5855430 6251 6 69 11914
10.844947 -3.475199 2.7222826 489 5855430 6698 7 49 11709
5.57727 -2.5020504 1.4086643 345 5855430 1359 8 62 6273
5.7790956 -2.3375759 1.3713084 369 5855430 1501 9 57 6383
10.648415 -3.8590345 2.3777041 443 5855430 5928 10 53 11573
10.643927 -3.4210286 2.2380807 442 5855430 5744 11 22 11402
10.490798 -4.7043567 2.205915 477 5855430 6543 12 68 11707
10.455853 -4.2339416 2.0481956 493 5855430 6487 13 60 11465
10.450415 -3.7895484 1.908929 447 5855430 5691 14 68 11279
10.419871 -3.351825 1.7769345 460 5855430 5651 15 46 11089
9.2345037 -4.1411939 1.55951 175 5855430 1836 16 105 10240
10.275677 -4.1636953 1.5996644 375 5855430 4708 17 95 11202
10.241021 -3.7198884 1.4669591 469 5855430 5674 18 62 10994
10.229 -3.297323 1.3437923 494 5855430 5801 19 62 10831
7.7423248 -3.4721918 0.99153495 539 5855430 3937 20 68 8543
6.4171553 -2.6013994 0.74171501 517 5855430 2505 21 57 6964
6.4621139 -2.350708 0.67047989 378 5855430 1803 22 33 6909
10.041409 -3.2428513 0.93042362 529 5855430 5938 23 96 10593
6.3370771 -2.8434434 0.5561592 440 5855430 2135 24 44 6968
6.3087149 -2.5593629 0.48000923 406 5855430 1893 25 61 6825
6.3352661 -2.3048153 0.41079226 417 5855430 1903 26 81 6754
6.3309541 -2.0487175 0.34255934 320 5855430 1420 27 369 6663
6.2278533 -2.7980919 0.2967841 439 5855430 2049 28 47 6834
6.2494769 -2.5378718 0.22859108 355 5855430 1616 29 34 6749
6.2480559 -2.279758 0.16405635 390 5855430 1725 30 28 6653
6.2456117 -2.0236294 0.098092519 471 5855430 2029 31 53 6566
6.0966182 -2.7395132 0.046662748 424 5855430 1892 32 56 6684
6.1344633 -2.4937851 -0.016758459 410 5855430 1796 33 52 6622
6.1947522 -2.2611663 -0.078729585 536 5855430 2330 34 45 6595
6.5535545 -2.128083 -0.14782274 407 5855430 1931 35 51 6892
6.0061445 -2.7023876 -0.19558583 532 5855430 2311 36 85 6589
6.324151 -2.5763006 -0.26710975 399 5855430 1861 37 53 6834
6.6587954 -2.4337096 -0.34512711 355 5855430 1789 38 112 7098
7.0045519 -2.2743964 -0.42837745 609 5855430 3312 39 57 7377
6.4137263 -2.8918328 -0.4669289 435 5855430 2165 40 58 7051
6.8119974 -2.7786419 -0.55743045 391 5855430 2130 41 82 7378
7.2088904 -2.6370451 -0.65537262 377 5855430 2239 42 80 7704
7.6786571 -2.4978735 -0.76627213 388 5855430 2551 43 34 8111
6.9839902 -3.1518886 -0.79100859 359 5855430 2133 44 69 7703
7.444315 -3.0400529 -0.90593636 356 5855430 2329 45 36 8092
8.9884453 -3.2933514 -1.1697946 277 5855430 2578 46 95 9644
9.3354769 -3.0393612 -1.2963709 180 5855430 1767 47 93 9903
8.9182272 -4.0338097 -1.3737079 400 5855430 3911 48 71 9884
8.9980764 -3.6791477 -1.4585658 299 5855430 2888 49 19 9830
8.9057951 -3.2683585 -1.5162789 448 5855430 4130 50 55 9607
10.002829 -3.2597213 -1.7854655 49 5855430 553 51 54 10671
8.7717714 -3.9769752 -1.7166213 64 5855430 617 52 61 9783
9.8490095 -4.0328984 -1.9999971 258 5855430 3020 53 57 10829
9.8574915 -3.6211383 -2.0770795 51 5855430 580 54 49 10705
9.9357443 -3.2376678 -2.1754961 65 5855430 737 55 33 10674
8.2149649 -3.7300613 -1.9572498 99 5855430 845 56 92 9232
9.7513895 -3.9988887 -2.3896761 83 5855430 965 57 42 10807
9.9871044 -3.6709275 -2.5211656 65 5855430 774 58 35 10935
10.284147 -3.3521914 -2.6768613 106 5855430 1312 59 38 11143
7.7006674 -3.5074081 -2.1715212 107 5855430 814 60 34 8736
9.0216446 -3.7084641 -2.6012037 79 5855430 804 61 12 10095
10.778878 -3.9643066 -3.1841452 36 5855430 506 62 45 11918
9.2360115 -3.0062649 -2.8018482 34 5855430 345 63 29 10109
5.1079807 -2.3335834 1.7528874 337 5953280 1168 0 66 5883
11.161606 -4.5939455 3.622792 384 5953280 6105 1 67 12602
11.120853 -4.0959339 3.4316447 410 5953280 6234 2 55 12338
11.100689 -3.6199701 3.2615416 425 5953280 6241 3 45 12123
5.3146076 -2.4247303 1.5780461 382 5953280 1400 4 74 6051
5.4921894 -2.2633035 1.5414554 519 5953280 1955 5 95 6137
10.868612 -4.0077705 2.8856378 417 5953280 5950 6 59 11938
10.845604 -3.5489364 2.7278626 474 5953280 6519 7 55 11733
5.5298944 -2.5216699 1.4005802 372 5953280 1445 8 55 6237
5.7538061 -2.3685305 1.3687304 346 5953280 1403 9 55 6371
10.635551 -3.9283683 2.3801696 446 5953280 5980 10 50 11585
10.622735 -3.4862742 2.2380807 484 5953280 6288 11 34 11402
9.3893785 -4.2798395 1.9798027 108 5953280 1192 12 123 10507
10.462426 -4.3115134 2.0546269 471 5953280 6226 13 42 11501
10.460246 -3.8658996 1.9150219 458 5953280 5869 14 66 11315
10.432869 -3.4267859 1.7827033 497 5953280 6157 15 58 11125
9.4139624 -4.291244 1.5942334 198 5953280 2166 16 35 10468
7.8892112 -3.2531984 1.2312362 467 5953280 3468 17 54 8622
8.0989342 -2.9981868 1.1627326 88 5953280 671 18 68 8714
10.219887 -3.3637476 1.3452811 528 5953280 6213 19 61 10843
7.7100291 -3.5146885 0.99014217 552 5953280 4021 20 58 8531
6.3790126 -2.6316247 0.73915887 537 5953280 2588 21 76 6940
6.4363699 -2.3861628 0.66931534 346 5953280 1648 22 64 6897
10.055379 -3.3156331 0.93358564 537 5953280 6067 23 116 10629
6.3195109 -2.8822734 0.5561592 418 5953280 2032 24 63 6968
6.3039565 -2.6025922 0.4808532 395 5953280 1845 25 41 6837
6.3322353 -2.3478084 0.41152212 384 5953280 1759 26 90 6766
6.272748 -2.0724864 0.34009156 512 5953280 2242 27 69 6615
6.1996627 -2.8312724 0.29626298 425 5953280 1976 28 53 6822
6.222703 -2.5715895 0.22818464 384 5953280 1742 29 27 6737
6.2339501 -2.3180523 0.16405635 425 5953280 1880 30 28 6653
6.2444687 -2.0656819 0.098271795 478 5953280 2067 31 45 6578
6.1015239 -2.7868404 0.046830297 419 5953280 1883 32 48 6708
6.1301351 -2.5359657 -0.016788829 423 5953280 1860 33 51 6634
6.1470227 -2.2865839 -0.078299828 650 5953280 2798 34 68 6559
6.4834347 -2.1493783 -0.14653583 393 5953280 1832 35 52 6832
5.9676342 -2.7292125 -0.19487344 621 5953280 2678 36 74 6565
6.2860708 -2.6058729 -0.26617169 379 5953280 1756 37 47 6810
6.6325049 -2.4703379 -0.34454364 370 5953280 1858 38 109 7086
7.0132074 -2.324872 -0.4297711 455 5953280 2490 39 57 7401
6.3958616 -2.9311323 -0.4669289 420 5953280 2090 40 75 7051
6.7616653 -2.8066256 -0.55471057 427 5953280 2304 41 61 7342
7.1477604 -2.6645226 -0.65128922 402 5953280 2358 42 82 7656
7.640512 -2.5374119 -0.76400483 372 5953280 2431 43 41 8087
6.9645195 -3.1946821 -0.79100859 344 5953280 2043 44 80 7703
7.381475 -3.0673697 -0.90056258 372 5953280 2410 45 67 8044
9.0350227 -3.3734405 -1.1785281 721 5953280 6811 46 67 9716
9.2263355 -3.0665667 -1.2838037 166 5953280 1598 47 99 9807
7.640831 -3.5126629 -1.1802435 238 5953280 1720 48 60 8492
8.8767214 -3.6932616 -1.4425409 189 5953280 1782 49 50 9722
8.7412872 -3.2689834 -1.4916573 83 5953280 738 50 38 9451
10.027543 -3.3359747 -1.7934968 221 5953280 2535 51 48 10719
8.5111551 -3.9219515 -1.6702973 61 5953280 556 52 72 9519
9.791419 -4.0796471 -1.9933482 156 5953280 1823 53 59 10793
9.8461123 -3.6856816 -2.0794079 69 5953280 790 54 30 10717
9.8711014 -3.2837381 -2.1657131 58 5953280 650 55 45 10626
7.9470172 -3.6673782 -1.8987358 119 5953280 958 56 61 8956
9.3594551 -3.9054196 -2.299458 31 5953280 330 57 51 10399
9.9315872 -3.7198513 -2.5128653 14 5953280 164 58 26 10899
9.8875923 -3.2901824 -2.5788481 112 5953280 1288 59 30 10735
7.5418773 -3.491118 -2.1327441 139 5953280 1021 60 35 8580
8.8917513 -3.7190101 -2.5702832 74 5953280 733 61 39 9975
9.7473145 -3.6529665 -2.8859823 37 5953280 428 62 41 10802
9.0970335 -3.0228853 -2.7652626 52 5953280 515 63 32 9977
5.0831761 -2.3600576 1.7493118 360 6051870 1239 0 54 5871
11.154411 -4.6712246 3.6296916 381 6051870 6080 1 70 12626
11.138679 -4.1802931 3.4449954 374 6051870 5732 2 42 12386
11.089234 -3.6916652 3.26477 450 6051870 6622 3 35 12135
5.2681003 -2.4426751 1.5686578 400 6051870 1445 4 56 6015
5.4781985 -2.2969604 1.5414554 450 6051870 1694 5 26 6137
10.865617 -4.0825748 2.891439 402 6051870 5758 6 71 11962
10.845764 -3.6228125 2.7334425 476 6051870 6575 7 41 11757
5.5037079 -2.5506363 1.3978854 362 6051870 1405 8 62 6225
5.7391648 -2.4037905 1.3687304 319 6051870 1293 9 56 6371
10.644221 -4.0059624 2.3875656 455 6051870 6139 10 54 11621
10.623458 -3.5588636 2.2427917 468 6051870 6107 11 20 11426
10.314651 -4.7782497 2.1810427 315 6051870 4214 12 171 11575
10.435775 -4.3756285 2.0546269 485 6051870 6422 13 61 11501
10.436329 -3.9300096 1.9150219 404 6051870 5166 14 57 11315
10.422875 -3.4945014 1.7846261 498 6051870 6171 15 54 11137
9.4412613 -4.3738532 1.6033713 228 6051870 2524 16 31 10528
7.8800535 -3.3061395 1.2329499 482 6051870 3596 17 67 8634
8.0136204 -3.0226417 1.1531254 87 6051870 647 18 40 8642
10.221629 -3.4339764 1.3482589 539 6051870 6371 19 61 10867
7.7423916 -3.586982 0.99710608 469 6051870 3459 20 47 8591
6.4067526 -2.689188 0.74427116 230 6051870 1125 21 82 6988
6.4439535 -2.4340513 0.67164445 378 6051870 1809 22 46 6921
10.046175 -3.3810821 0.93463963 293 6051870 3315 23 373 10641
6.290854 -2.9159644 0.55520141 409 6051870 1982 24 58 6956
6.3209772 -2.6551309 0.48338509 405 6051870 1911 25 53 6873
6.3289151 -2.3908508 0.41225201 395 6051870 1816 26 78 6778
6.3507605 -2.1415713 0.34502715 412 6051870 1857 27 70 6711
6.1930475 -2.8743064 0.2967841 452 6051870 2110 28 40 6834
6.2178626 -2.6143713 0.22859108 351 6051870 1597 29 41 6749
6.2420459 -2.3647594 0.16464818 422 6051870 1880 30 28 6677
6.2203083 -2.1001203 0.098092519 431 6051870 1856 31 56 6566
6.0843091 -2.8242261 0.046830297 432 6051870 1946 32 67 6708
6.0923386 -2.5642214 -0.01672809 452 6051870 1973 33 54 6610
6.1216564 -2.3200059 -0.078156576 725 6051870 3109 34 78 6547
6.4473953 -2.1814294 -0.14602107 385 6051870 1782 35 47 6808
5.9290209 -2.7556667 -0.19416103 643 6051870 2752 36 91 6541
6.225769 -2.6257553 -0.26429558 410 6051870 1873 37 46 6762
6.59481 -2.5024831 -0.34337667 376 6051870 1875 38 107 7062
6.9534183 -2.3525033 -0.42698377 398 6051870 2150 39 49 7353
6.3451934 -2.9551561 -0.46454492 449 6051870 2212 40 64 7015
6.7222705 -2.8387516 -0.55289727 388 6051870 2080 41 66 7318
7.1200995 -2.7040856 -0.65026844 391 6051870 2285 42 102 7644
7.6247988 -2.5842454 -0.76400483 387 6051870 2528 43 50 8087
6.8906913 -3.2121391 -0.78484726 382 6051870 2234 44 76 7643
7.329565 -3.0986736 -0.89653218 338 6051870 2171 45 62 8008
9.0475531 -3.4415195 -1.1828948 749 6051870 7127 46 71 9752
9.2298784 -3.1307638 -1.2869455 361 6051870 3484 47 57 9831
7.554534 -3.5293007 -1.1702367 363 6051870 2577 48 64 8420
7.6626883 -3.243448 -1.2484611 40 6051870 281 49 33 8414
8.3445768 -3.1791224 -1.4272623 59 6051870 480 50 40 9043
9.9956827 -3.3936362 -1.791489 63 6051870 718 51 40 10707
7.844995 -3.6735077 -1.5439591 34 6051870 266 52 70 8799
9.6793365 -4.102829 -1.9756181 45 6051870 510 53 47 10697
9.7243176 -3.708276 -2.0584526 31 6051870 346 54 33 10609
9.5726538 -3.2498274 -2.1045692 46 6051870 487 55 38 10326
7.7650986 -3.6413846 -1.8605744 131 6051870 1012 56 70 8776
9.1090918 -3.8667443 -2.2437351 76 6051870 779 57 44 10147
9.8431187 -3.7557445 -2.4962652 38 6051870 443 58 21 10827
9.9223671 -3.3695176 -2.5932617 235 6051870 2734 59 45 10795
7.3415089 -3.4532239 -2.0820353 147 6051870 1030 60 26 8376
8.5700274 -3.6463916 -2.4837053 67 6051870 620 61 33 9639
9.8003407 -3.7415776 -2.9084249 50 6051870 590 62 27 10886
9.2530203 -3.1378932 -2.8184781 59 6051870 608 63 26 10169
5.0789595 -2.3960905 1.7528874 359 6148130 1244 0 61 5883
11.125539 -4.7395787 3.6296916 336 6148130 5357 1 114 12626
11.11282 -4.2485604 3.4449954 417 6148130 6393 2 35 12386
11.099204 -3.7707913 3.2744555 433 6148130 6410 3 34 12171
5.2634931 -2.4798913 1.5717872 416 6148130 1513 4 61 6027
5.4746857 -2.3350878 1.5444696 338 6148130 1277 5 27 6149
10.883861 -4.1658173 2.9030414 402 6148130 5792 6 51 12010
10.856471 -3.7005889 2.741812 464 6148130 6460 7 59 11793
5.4879537 -2.5843585 1.3978854 382 6148130 1478 8 57 6225
5.7027435 -2.4297724 1.3635743 355 6148130 1428 9 54 6347
10.652338 -4.0838108 2.3949621 469 6148130 6368 10 44 11657
10.645958 -3.6392052 2.2522137 444 6148130 5842 11 29 11474
9.7626619 -4.5955076 2.0702477 333 6148130 4015 12 158 10987
10.452171 -4.4581079 2.0632019 475 6148130 6330 13 53 11549
10.456187 -4.0109148 1.9231458 404 6148130 5222 14 63 11363
10.412445 -3.5622234 1.786549 492 6148130 6120 15 70 11149
10.154652 -4.7802434 1.7294722 245 6148130 3163 16 85 11356
10.262837 -4.3801045 1.6099461 198 6148130 2516 17 236 11274
7.9838209 -3.0674899 1.1515242 150 6148130 1115 18 33 8630
10.245422 -3.5120754 1.3542142 443 6148130 5283 19 67 10915
7.7310205 -3.6394975 0.99849886 431 6148130 3193 20 68 8603
7.7727695 -3.318805 0.90530974 317 6148130 2287 21 51 8500
6.4511905 -2.4821224 0.6739735 405 6148130 1951 22 52 6945
6.4074478 -2.2003133 0.59735775 499 6148130 2309 23 101 6801
6.3161292 -2.9748971 0.55903256 385 6148130 1891 24 67 7004
6.3155742 -2.6985691 0.48422909 403 6148130 1913 25 58 6885
6.2917686 -2.4210362 0.41079226 390 6148130 1780 26 80 6754
6.3261681 -2.1765995 0.34441018 419 6148130 1882 27 65 6699
6.2078252 -2.9275935 0.2983475 459 6148130 2165 28 45 6870
6.2127309 -2.6571903 0.22899751 346 6148130 1580 29 33 6761
6.2050347 -2.3943779 0.16405635 401 6148130 1774 30 30 6653
6.2186494 -2.1421556 0.098271795 437 6148130 1893 31 61 6578
6.088572 -2.8717437 0.046997845 423 6148130 1919 32 58 6732
6.0875216 -2.6062779 -0.016758459 438 6148130 1919 33 55 6622
6.152082 -2.3748085 -0.078729585 490 6148130 2129 34 57 6595
6.4112082 -2.2131195 -0.14550631 374 6148130 1719 35 56 6784
5.9662309 -2.8176053 -0.19594204 563 6148130 2454 36 103 6601
6.1985216 -2.6591792 -0.26382658 408 6148130 1857 37 57 6750
6.5457916 -2.529938 -0.34162626 364 6148130 1798 38 91 7026
6.9275289 -2.3912156 -0.42628697 391 6148130 2105 39 43 7341
6.2944727 -2.9786689 -0.46216097 422 6148130 2058 40 63 6979
6.6937313 -2.8752227 -0.55199063 410 6148130 2191 41 61 7306
7.1033735 -2.7477226 -0.65026844 368 6148130 2151 42 93 7644
7.5523462 -2.6114614 -0.75833642 395 6148130 2542 43 49 8027
6.8708525 -3.254359 -0.78484726 375 6148130 2193 44 67 7643
7.2885041 -3.1341672 -0.89384526 344 6148130 2190 45 55 7984
9.0262661 -3.4969695 -1.1828948 629 6148130 5981 46 137 9752
9.0868263 -3.1445422 -1.2696658 358 6148130 3369 47 101 9699
7.4897952 -3.5552049 -1.1635656 383 6148130 2688 48 63 8372
8.8743305 -3.8206856 -1.449663 486 6148130 4636 49 41 9770
7.883029 -3.0588026 -1.3515037 83 6148130 607 50 32 8563
10.041746 -3.4781375 -1.8035359 91 6148130 1053 51 41 10779
7.4595952 -3.5490091 -1.4723674 35 6148130 250 52 59 8391
9.4590406 -4.0780988 -1.9357255 20 6148130 215 53 49 10481
9.8330612 -3.8190162 -2.0863929 50 6148130 575 54 34 10753
8.9530706 -3.1008804 -1.9724987 57 6148130 531 55 32 9678
7.5414572 -3.5931227 -1.8122369 145 6148130 1063 56 64 8548
8.9347744 -3.8576193 -2.2065864 86 6148130 853 57 42 9979
9.7219343 -3.7780046 -2.471365 183 6148130 2098 58 44 10719
9.8794928 -3.4227104 -2.5874965 213 6148130 2467 59 44 10771
7.0999479 -3.3929589 -2.0193954 143 6148130 942 60 31 8124
8.2921047 -3.5883894 -2.4094956 112 6148130 978 61 23 9351
9.05509 -3.5208657 -2.6936193 253 6148130 2568 62 39 10082
9.2444887 -3.1983793 -2.821804 56 6148130 578 63 25 10181
5.0744915 -2.4321601 1.7564628 358 6246890 1242 0 51 5895
5.1904354 -2.248899 1.6978424 624 6246890 2175 1 49 5906
11.097282 -4.3208494 3.448333 363 6246890 5575 2 35 12398
11.086778 -3.8426087 3.277684 430 6246890 6379 3 31 12183
5.2168293 -2.4971352 1.5623987 423 6246890 1517 4 42 5991
5.4495988 -2.3640134 1.5414554 389 6246890 1464 5 30 6137
10.858095 -4.2325211 2.9030414 402 6246890 5804 6 70 12010
10.844584 -3.7709668 2.744602 476 6246890 6628 7 48 11805
5.4719934 -2.6179831 1.3978854 343 6246890 1327 8 54 6225
5.6554666 -2.4507382 1.3558402 359 6246890 1432 9 63 6311
10.62708 -4.1490955 2.3949621 454 6246890 6164 10 45 11657
10.623427 -3.7044592 2.2522137 457 6246890 6013 11 33 11474
5.6835723 -2.7181127 1.2087593 552 6246890 2272 12 106 6415
10.446284 -4.5315547 2.0674896 432 6246890 5780 13 55 11573
10.442396 -4.0793009 1.9251767 428 6246890 5542 14 74 11375
10.412759 -3.6338515 1.7903949 468 6246890 5836 15 50 11173
10.157228 -4.8578119 1.7349547 267 6246890 3463 16 132 11392
10.203085 -4.4288068 1.6048054 209 6246890 2642 17 89 11238
7.8430228 -3.068753 1.133911 614 6246890 4431 18 37 8498
10.257399 -3.5866644 1.3586806 346 6246890 4146 19 268 10951
7.7085433 -3.6868658 0.99849886 339 6246890 2513 20 58 8603
7.7194271 -3.3521779 0.90147561 570 6246890 4086 21 68 8464
6.4247189 -2.5173025 0.672809 368 6246890 1767 22 53 6933
6.4389529 -2.255394 0.60157382 384 6246890 1802 23 97 6849
6.3085465 -3.0187595 0.55999035 389 6246890 1913 24 43 7016
6.3208542 -2.7468116 0.48591703 412 6246890 1969 25 61 6909
6.2990994 -2.4683363 0.41225201 369 6246890 1696 26 80 6778
6.3126936 -2.2153752 0.34441018 427 6246890 1918 27 68 6699
6.1897449 -2.9656289 0.2983475 469 6246890 2212 28 45 6870
6.2183051 -2.7048285 0.22981042 355 6246890 1633 29 25 6785
6.2013912 -2.4367936 0.16435227 399 6246890 1771 30 35 6665
6.2053885 -2.1802723 0.098271795 447 6246890 1936 31 61 6578
6.1033006 -2.9246047 0.047249172 403 6246890 1848 32 61 6768
6.1044221 -2.657953 -0.016849566 443 6246890 1962 33 42 6658
6.1150599 -2.4037328 -0.07844308 510 6246890 2204 34 64 6571
6.3522429 -2.2364793 -0.14447679 364 6246890 1653 35 63 6736
5.9812732 -2.8697259 -0.19701065 472 6246890 2080 36 102 6637
6.1601076 -2.6875725 -0.26288852 376 6246890 1699 37 54 6726
6.5189919 -2.565665 -0.34104276 372 6246890 1830 38 117 7014
6.8901262 -2.4257207 -0.42489329 382 6246890 2047 39 72 7317
6.265286 -3.0120471 -0.4613663 447 6246890 2171 40 81 6967
6.6430683 -2.901871 -0.54927075 390 6246890 2063 41 81 7270
7.030757 -2.7693472 -0.64516431 393 6246890 2261 42 94 7584
7.4798489 -2.6378865 -0.75266802 349 6246890 2212 43 52 7967
6.8184867 -3.2809298 -0.78115046 450 6246890 2607 44 67 7607
7.2254343 -3.1597185 -0.88847148 359 6246890 2258 45 49 7936
7.7303982 -3.0496054 -1.0155041 397 6246890 2783 46 117 8372
9.0785789 -3.2041981 -1.2712367 468 6246890 4414 47 106 9711
7.4464316 -3.590771 -1.16023 403 6246890 2811 48 74 8348
8.8507204 -3.8750656 -1.449663 675 6246890 6440 49 36 9770
9.3078089 -3.67752 -1.5996133 137 6246890 1410 50 83 10135
9.7636442 -3.4490521 -1.7573558 66 6246890 723 51 49 10503
7.7248673 -3.7335153 -1.5292195 82 6246890 626 52 66 8715
0 -0 -0 5 6246890 0 53 64 0
9.8532314 -3.8965957 -2.0957062 346 6246890 4032 54 45 10801
9.7535992 -3.445312 -2.1534843 56 6246890 623 55 26 10566
7.3081517 -3.5371482 -1.7613552 140 6246890 969 56 72 8308
8.5680361 -3.7618184 -2.121675 92 6246890 844 57 34 9595
9.6768551 -3.8289938 -2.4658315 473 6246890 5406 58 36 10695
9.880271 -3.4910266 -2.5932617 237 6246890 2767 59 61 10795
6.9535184 -3.3755472 -1.9836011 134 6246890 852 60 31 7980
8.0258398 -3.5317883 -2.338378 109 6246890 895 61 42 9075
9.3558702 -3.7040622 -2.7898006 103 6246890 1119 62 40 10442
9.257308 -3.2665522 -2.8317821 31 6246890 322 63 21 10217
5.0182757 -2.4431939 1.7421608 393 6344210 1345 0 61 5847
5.2080927 -2.2946067 1.7081916 394 6344210 1390 1 50 5942
11.124137 -4.4100995 3.4650211 362 6344210 5614 2 32 12458
11.062991 -3.9105635 3.277684 461 6344210 6838 3 37 12183
5.2326646 -2.5442955 1.5717872 411 6344210 1494 4 67 6027
5.4137363 -2.3880315 1.5354273 406 6344210 1516 5 29 6113
10.853566 -4.3076563 2.9088426 437 6344210 6333 6 77 12034
10.821241 -3.8374369 2.744602 491 6344210 6836 7 52 11805
5.4453092 -2.6463981 1.3951907 385 6344210 1485 8 46 6213
5.6832218 -2.5042968 1.3661524 324 6344210 1308 9 53 6359
10.623248 -4.2229004 2.399893 472 6344210 6436 10 41 11681
10.600497 -3.7695737 2.2522137 476 6344210 6263 11 28 11474
5.6349859 -2.7374861 1.2019758 579 6344210 2358 12 77 6379
10.450689 -4.6098619 2.0739207 438 6344210 5897 13 54 11609
10.40618 -4.1389265 1.9231458 464 6344210 5997 14 62 11363
10.412584 -3.7056174 1.7942407 508 6344210 6364 15 41 11197
10.212571 -4.9615054 1.7495753 378 6344210 4995 16 61 11488
9.349925 -4.126842 1.4745702 186 6344210 1988 17 61 10326
7.9345288 -3.1608315 1.149923 120 6344210 889 18 30 8618
6.477962 -2.3098283 0.85992289 461 6344210 2214 19 243 6931
7.6750555 -3.7288864 0.99710608 283 6344210 2086 20 46 8591
7.687798 -3.3946605 0.90019751 597 6344210 4268 21 64 8452
6.409152 -2.5566764 0.672809 375 6344210 1801 22 43 6933
6.4137359 -2.2908392 0.60051978 389 6344210 1819 23 107 6837
6.3221798 -3.0730991 0.56286377 389 6344210 1937 24 64 7052
6.3148303 -2.7903821 0.486761 396 6344210 1895 25 51 6921
6.3060856 -2.5158172 0.41371173 396 6344210 1833 26 81 6802
6.3215485 -2.2621429 0.34564409 422 6344210 1909 27 61 6723
6.1714315 -3.0035524 0.2983475 447 6344210 2108 28 44 6870
6.2235279 -2.7526348 0.2306233 331 6344210 1533 29 35 6809
6.2197371 -2.4881659 0.16523997 384 6344210 1723 30 31 6701
6.2144847 -2.2264004 0.098630339 446 6344210 1942 31 57 6602
6.0852408 -2.9619987 0.047249172 429 6344210 1967 32 69 6768
6.0770259 -2.690501 -0.016819198 419 6344210 1849 33 38 6646
6.0779157 -2.4322927 -0.078156576 583 6344210 2501 34 78 6547
6.3384004 -2.275414 -0.14447679 368 6344210 1667 35 53 6736
5.9743347 -2.9116273 -0.19736686 441 6344210 1950 36 98 6649
6.0777364 -2.6961458 -0.26007438 402 6344210 1778 37 45 6654
6.4920006 -2.6011586 -0.34045929 388 6344210 1902 38 124 7002
6.8412867 -2.4558096 -0.42280278 369 6344210 1954 39 56 7281
6.2359271 -3.0451791 -0.46057165 451 6344210 2183 40 71 6955
6.5813947 -2.9231489 -0.54564416 399 6344210 2083 41 71 7222
6.991437 -2.8035347 -0.64312261 405 6344210 2316 42 93 7560
7.4185557 -2.6675632 -0.7481333 400 6344210 2506 43 51 7919
6.7767782 -3.3122222 -0.77868593 544 6344210 3130 44 77 7583
7.1623263 -3.1846147 -0.88309765 361 6344210 2243 45 52 7888
7.6452198 -3.0703464 -1.0067706 385 6344210 2655 46 70 8300
9.0251656 -3.2477582 -1.266524 713 6344210 6677 47 81 9675
7.4029145 -3.6259394 -1.1568943 370 6344210 2567 48 66 8324
8.8701429 -3.9486046 -1.4567853 691 6344210 6656 49 52 9818
9.1641388 -3.6859229 -1.5787797 69 6344210 687 50 35 10003
8.974267 -3.2322731 -1.6188153 146 6344210 1371 51 65 9675
7.532136 -3.6975484 -1.4955294 230 6344210 1669 52 33 8523
8.7512035 -3.9009659 -1.8005331 55 6344210 520 53 39 9749
9.7854557 -3.9393957 -2.0863929 161 6344210 1857 54 49 10753
9.8207006 -3.5369406 -2.1730504 49 6344210 554 55 32 10662
7.1284461 -3.504318 -1.7231939 166 6344210 1093 56 56 8128
8.3524351 -3.7284534 -2.0739126 113 6344210 990 57 48 9379
9.6531782 -3.8882976 -2.4658315 287 6344210 3278 58 51 10695
9.8586645 -3.5515852 -2.5932617 260 6344210 3026 59 42 10795
6.7867241 -3.3461885 -1.941841 157 6344210 957 60 28 7812
7.8240924 -3.5004694 -2.2858126 125 6344210 982 61 27 8871
9.1613588 -3.6922374 -2.7385039 67 6344210 700 62 44 10250
9.2479391 -3.3271954 -2.8351078 25 6344210 260 63 19 10229
4.9929223 -2.4688623 1.7385854 519 6440250 1769 0 61 5835
5.1834259 -2.3218212 1.7047418 414 6440250 1458 1 66 5930
11.118245 -4.4869003 3.4716964 408 6440250 6351 2 41 12482
11.060534 -3.9862084 3.2841408 468 6440250 6971 3 26 12207
5.2065673 -2.5712252 1.5686578 390 6440250 1413 4 63 6015
5.4201784 -2.4307103 1.5414554 382 6440250 1437 5 48 6137
10.837727 -4.3785334 2.9117432 300 6440250 4360 6 179 12046
10.819444 -3.9116991 2.7501819 464 6440250 6486 7 50 11829
5.4289689 -2.67976 1.3951907 372 6440250 1438 8 58 6213
5.6249666 -2.5199549 1.3558402 290 6440250 1157 9 65 6311
10.61891 -4.2968144 2.4048238 448 6440250 6135 10 25 11705
10.610353 -3.8465767 2.25928 438 6440250 5798 11 40 11510
5.6603575 -2.7928689 1.2110205 416 6440250 1720 12 63 6427
10.411434 -4.6690679 2.0717771 254 6440250 3410 13 54 11597
10.413475 -4.2160144 1.9292386 467 6440250 6073 14 66 11399
10.367382 -3.7613585 1.7903949 483 6440250 6024 15 45 11173
10.235114 -5.0503149 1.7587129 465 6440250 6197 16 40 11548
9.226903 -4.1403728 1.4591476 187 6440250 1956 17 73 10218
7.85988 -3.1871128 1.1419171 433 6440250 3168 18 46 8558
10.234995 -3.7204041 1.3616583 146 6440250 1760 19 214 10975
7.7161613 -3.8075547 1.0054626 263 6440250 1970 20 53 8663
7.6777096 -3.4466546 0.90147561 553 6440250 3963 21 94 8464
6.4265418 -2.6094337 0.67630255 323 6440250 1571 22 63 6969
6.4332552 -2.3424194 0.6036818 378 6440250 1787 23 87 6873
6.2924786 -3.1065383 0.56190598 464 6440250 2298 24 50 7040
6.2975898 -2.8290765 0.486761 401 6440250 1918 25 55 6921
6.3127251 -2.5634763 0.41517144 376 6440250 1753 26 83 6826
6.2962909 -2.2967818 0.34502715 420 6440250 1893 27 62 6711
6.1743808 -3.0519881 0.29938978 472 6440250 2243 28 17 6894
6.206521 -2.7907698 0.2306233 358 6440250 1658 29 42 6809
6.2043529 -2.5262828 0.16523997 407 6440250 1827 30 19 6701
6.223248 -2.2727218 0.098988883 460 6440250 2018 31 50 6626
6.0669518 -2.9992814 0.047249172 409 6440250 1876 32 61 6768
6.0932307 -2.7425139 -0.016910303 428 6440250 1909 33 55 6682
6.0851021 -2.4785929 -0.07844308 562 6440250 2428 34 80 6571
6.3130527 -2.3101399 -0.1442194 375 6440250 1693 35 57 6724
5.9778571 -2.9588723 -0.19807927 452 6440250 2014 36 91 6673
6.0610785 -2.7333875 -0.26007438 471 6440250 2084 37 39 6654
6.4426227 -2.6273658 -0.33870888 415 6440250 2013 38 120 6966
6.7923384 -2.4853909 -0.42071229 384 6440250 2014 39 46 7245
6.1956711 -3.0727448 -0.45898232 427 6440250 2053 40 71 6931
6.5633349 -2.9634767 -0.54564416 376 6440250 1963 41 63 7222
6.9741035 -2.8463805 -0.64312261 403 6440250 2304 42 106 7560
7.3796153 -2.7048101 -0.74586594 373 6440250 2323 43 42 7895
6.7670193 -3.3590486 -0.77991819 392 6440250 2264 44 70 7595
7.1426511 -3.2285018 -0.88309765 368 6440250 2288 45 32 7888
7.5711079 -3.0946651 -0.99949276 387 6440250 2630 46 73 8240
9.0274057 -3.3112683 -1.2696658 712 6440250 6699 47 95 9699
7.3486066 -3.6554167 -1.151891 365 6440250 2504 48 54 8288
8.8673706 -4.0127411 -1.4603463 543 6440250 5256 49 49 9842
9.1413498 -3.7420835 -1.5787797 127 6440250 1268 50 31 10003
9.1097507 -3.3443589 -1.646925 138 6440250 1335 51 142 9843
7.3824329 -3.6804438 -1.4702618 147 6440250 1035 52 62 8379
8.6411657 -3.9156475 -1.7828029 72 6440250 667 53 52 9653
9.8700304 -4.0439954 -2.1096761 272 6440250 3211 54 42 10873
9.8318996 -3.6092782 -2.1803877 33 6440250 374 55 37 10698
6.9704099 -3.4798954 -1.6901208 174 6440250 1107 56 85 7972
8.0842876 -3.6684079 -2.0128827 102 6440250 843 57 34 9103
9.5751181 -3.9253094 -2.4519978 49 6440250 550 58 39 10635
9.8476219 -3.6160252 -2.5961444 237 6440250 2763 59 48 10807
6.5789843 -3.2940969 -1.8881495 138 6440250 795 60 31 7596
7.6230392 -3.4668112 -2.2332475 105 6440250 786 61 40 8667
8.9245558 -3.6606135 -2.6743827 71 6440250 708 62 37 10010
9.3031244 -3.4116654 -2.8583899 21 6440250 221 63 26 10313
4.9469686 -2.4840307 1.7278588 605 6538600 2036 0 73 5799
5.1690822 -2.3535824 1.7047418 399 6538600 1402 1 57 5930
11.079843 -4.5506568 3.4683588 381 6538600 5919 2 39 12470
11.035868 -4.0539994 3.2841408 442 6538600 6582 3 39 12207
5.1699815 -2.592737 1.5623987 414 6538600 1487 4 66 5991
5.362886 -2.4446509 1.5293992 415 6538600 1537 5 41 6089
5.5336633 -2.2752419 1.4904374 558 6538600 2120 6 48 6166
10.849996 -3.9981899 2.7641318 453 6538600 6397 7 47 11889
5.381063 -2.6973011 1.3871067 380 6538600 1451 8 71 6177
5.6200647 -2.559279 1.3584182 357 6538600 1429 9 61 6323
10.624923 -4.3753052 2.41222 352 6538600 4849 10 147 11741
10.586552 -3.9116082 2.25928 453 6538600 5998 11 30 11510
5.611505 -2.8117094 1.204237 388 6538600 1586 12 87 6391
10.028057 -4.5712514 2.0010326 143 6538600 1789 13 167 11201
10.409281 -4.2888417 1.9333005 449 6538600 5865 14 60 11423
10.399656 -3.8454409 1.8000095 489 6538600 6166 15 38 11233
10.267553 -5.1449003 1.7696784 332 6538600 4478 16 46 11620
9.3742208 -4.2757716 1.4865656 242 6538600 2618 17 46 10410
7.8401761 -3.23528 1.1419171 559 6538600 4091 18 48 8558
8.0234938 -2.9723892 1.0698478 143 6538600 1060 19 45 8623
7.660686 -3.8388097 1.0012844 307 6538600 2282 20 39 8627
7.6998363 -3.5135121 0.90658784 487 6538600 3531 21 75 8512
6.4104095 -2.6488171 0.67630255 341 6538600 1654 22 50 6969
6.4075546 -2.3776906 0.60262781 409 6538600 1927 23 88 6861
6.230526 -3.1236458 0.55807477 651 6538600 3180 24 55 6992
6.3127785 -2.882581 0.48929292 399 6538600 1929 25 45 6957
6.3079472 -2.6067369 0.41590133 385 6538600 1802 26 74 6838
6.2933125 -2.3395476 0.34564409 442 6538600 1996 27 50 6723
6.1555381 -3.0898159 0.29938978 441 6538600 2094 28 45 6894
6.1892805 -2.8287997 0.2306233 351 6538600 1626 29 27 6809
6.2109008 -2.5734887 0.1658318 392 6538600 1771 30 38 6725
6.1979408 -2.306679 0.098809607 479 6538600 2093 31 53 6614
6.0698829 -3.0472186 0.047416721 393 6538600 1811 32 56 6792
6.0872002 -2.7848418 -0.016940672 424 6538600 1898 33 50 6694
6.1141181 -2.5342619 -0.079016097 424 6538600 1860 34 69 6619
6.2425537 -2.3278735 -0.14293249 358 6538600 1588 35 55 6664
5.9810233 -3.0062697 -0.19879168 463 6538600 2078 36 82 6697
6.0659933 -2.780519 -0.26101243 521 6538600 2321 37 57 6678
6.3931689 -2.6530652 -0.33695841 403 6538600 1935 38 118 6930
6.7432861 -2.5144644 -0.41862178 363 6538600 1885 39 47 7209
6.1446185 -3.0945458 -0.45659834 413 6538600 1965 40 70 6895
6.5232778 -2.993711 -0.54383087 405 6538600 2101 41 65 7198
6.9123387 -2.8707757 -0.63903934 479 6538600 2703 42 106 7512
7.3293061 -2.7374997 -0.7424649 408 6538600 2518 43 41 7859
6.6823268 -3.3682706 -0.77252465 376 6538600 2129 44 95 7523
7.1010351 -3.2623112 -0.88041073 368 6538600 2274 45 42 7864
7.5519767 -3.1410623 -0.99949276 369 6538600 2508 46 69 8240
9.0180626 -3.3707623 -1.2712367 729 6538600 6875 47 110 9711
7.3154321 -3.6950803 -1.1502231 343 6538600 2352 48 61 8276
8.8857079 -4.0869102 -1.4674685 105 6538600 1024 49 40 9890
7.8821578 -3.2832351 -1.3647615 32 6538600 238 50 24 8647
7.7261157 -2.8903191 -1.3999616 34 6538600 236 51 34 8367
7.1699867 -3.6296289 -1.4323602 167 6538600 1116 52 62 8163
8.4134464 -3.8748581 -1.7406937 105 6538600 937 53 60 9425
9.7581072 -4.0682416 -2.0910494 175 6538600 2027 54 55 10777
9.666523 -3.6160278 -2.1485929 20 6538600 220 55 22 10542
6.8234062 -3.4589698 -1.6595918 157 6538600 964 56 81 7828
7.8809638 -3.6346231 -1.9677736 126 6538600 994 57 49 8899
9.259882 -3.8626137 -2.3772967 60 6538600 635 58 28 10311
9.8470688 -3.6845455 -2.6019101 233 6538600 2728 59 52 10831
6.392869 -3.2501211 -1.8404238 163 6538600 893 60 14 7404
7.4226999 -3.4308202 -2.1806822 130 6538600 929 61 31 8463
8.7418528 -3.6484964 -2.6262922 74 6538600 711 62 48 9830
9.2604151 -3.4606118 -2.8517377 17 6538600 178 63 25 10289
4.9214287 -2.509135 1.7242833 581 6634990 1944 0 52 5787
5.1545434 -2.3852551 1.7047418 422 6634990 1485 1 74 5930
11.062347 -4.6230001 3.4716964 424 6634990 6600 2 41 12482
11.032434 -4.1297417 3.2905977 432 6634990 6460 3 24 12231
5.164299 -2.6296673 1.5655282 400 6634990 1443 4 62 6003
5.347785 -2.4775109 1.5293992 422 6634990 1563 5 34 6089
5.5625668 -2.3271286 1.5020399 348 6634990 1342 6 53 6214
10.814332 -4.0605865 2.7613418 491 6634990 6919 7 57 11877
5.3644114 -2.730268 1.3871067 353 6634990 1345 8 44 6177
5.5936193 -2.5887923 1.3558402 350 6634990 1392 9 56 6311
5.756125 -2.4117651 1.3101718 552 6634990 2247 10 61 6377
10.595387 -3.98893 2.2663462 476 6634990 6342 11 31 11546
5.6151547 -2.8567758 1.2087593 375 6634990 1545 12 69 6415
9.914115 -4.5929909 1.9838824 359 6634990 4432 13 70 11105
