# .PCD v0.7 - Point Cloud Data file format
VERSION 0.7
FIELDS x y z intensity t reflectivity ring noise range
SIZE 4 4 4 4 4 2 1 2 4
TYPE F F F F U U U U U
COUNT 1 1 1 1 1 1 1 1 1
WIDTH 767
HEIGHT 1
VIEWPOINT 0 0 0 1 0 0 0
POINTS 767
DATA ascii
-0.55524188 -1.2121142 0.068635255 236 32658930 42 27 69 1335
-0.66133052 -1.1061662 0.056021586 437 32658930 73 28 1 1290
-0.63758141 -1.1606468 0.044878229 360 32658930 63 29 1 1325
-0.59569198 -1.1830928 0.03267318 315 32658930 55 30 18 1325
-0.55594319 -1.2124711 0.019929245 276 32658930 49 31 26 1334
-0.69586647 -1.163794 0.0094665894 264 32658930 48 32 26 1356
-0.65812439 -1.1970031 -0.0034569702 240 32658930 45 33 20 1366
-0.59687483 -1.1850816 -0.015841419 332 32658930 58 34 48 1327
-0.55749464 -1.2137853 -0.028655134 276 32658930 49 35 30 1336
-0.67201626 -1.1226599 -0.038855951 333 32658930 57 36 42 1309
-0.63921762 -1.1605995 -0.051827267 303 32658930 53 37 18 1326
-0.59625751 -1.1826227 -0.0644743 250 32658930 44 38 92 1326
-0.56374407 -1.2274481 -0.078567803 256 32658930 47 39 36 1353
-0.64400655 -1.0739524 -0.083108187 402 32658930 63 40 32 1255
-0.63455188 -1.1508919 -0.099578924 316 32658930 55 41 29 1318
-0.60320777 -1.1955771 -0.11433291 286 32658930 52 42 103 1344
-0.57364917 -1.2472351 -0.13027854 244 32658930 46 43 29 1379
-0.63829005 -1.0635778 -0.12805241 378 32658930 59 44 26 1247
-0.63571137 -1.151901 -0.14822786 290 32658930 51 45 14 1324
-0.60513639 -1.1978397 -0.16399445 268 32658930 49 46 87 1352
-0.54836029 -1.1914846 -0.1731898 216 32658930 38 47 71 1323
-0.6654284 -1.1066958 -0.18123381 324 32658930 55 48 40 1304
-0.63219535 -1.1443493 -0.19615707 250 32658930 44 49 1 1322
-0.59682614 -1.1798548 -0.21133521 216 32658930 39 50 68 1339
-0.55555195 -1.2062237 -0.22537926 223 32658930 40 51 50 1347
-0.64167315 -1.0650399 -0.22161838 282 32658930 45 52 43 1263
-0.6188606 -1.1188736 -0.24028039 270 32658930 46 53 27 1301
-0.59062517 -1.1666859 -0.25864053 237 32658930 42 54 101 1333
-0.55778998 -1.2111386 -0.27759281 193 32658930 36 55 51 1362
-0.92882824 -1.5397096 -0.39009309 354 32658930 120 56 30 1840
-0.87643689 -1.5826035 -0.41018316 289 32658930 99 57 8 1855
-0.58167177 -1.1484528 -0.30502993 220 32658930 38 58 47 1323
-0.5389545 -1.1699721 -0.31878263 218 32658930 38 59 55 1327
-0.95045924 -1.5714096 -0.47129169 359 32658930 129 60 1 1896
-0.87902606 -1.5841459 -0.48313594 316 32658930 111 61 5 1875
-0.81626731 -1.6108708 -0.50067866 319 32658930 112 62 58 1874
-0.77797657 -1.6907088 -0.53686613 301 32658930 113 63 47 1937
-0.69641984 -1.1484325 0.419227 192 32755810 38 0 7 1407
-0.62601119 -1.1269871 0.3869448 202 32755810 37 1 23 1346
-0.60578704 -1.1941231 0.3877219 138 32755810 27 2 17 1394
-0.56714237 -1.2307353 0.37853578 173 32755810 34 3 19 1407
-0.66771162 -1.1023492 0.34815595 215 32755810 38 4 6 1335
-0.64584559 -1.1615002 0.34486204 202 32755810 38 5 13 1373
-0.61594844 -1.2129986 0.3388896 163 32755810 32 6 40 1402
-0.55684179 -1.2051712 0.31735551 182 32755810 34 7 33 1365
-0.68890858 -1.1378369 0.30652428 209 32755810 39 8 20 1365
-0.64266849 -1.156832 0.29110494 212 32755810 39 9 1 1355
-0.60370541 -1.1872965 0.27962112 190 32755810 35 10 29 1361
-0.57934684 -1.2510105 0.27598155 180 32755810 36 11 10 1406
-0.69310337 -1.1451713 0.25682601 229 32755810 43 12 59 1363
-0.63355088 -1.1393892 0.23670816 216 32755810 38 13 16 1325
-0.6216017 -1.221912 0.2354216 191 32755810 37 14 47 1391
-0.57313818 -1.2368113 0.22129557 215 32755810 41 15 36 1381
-0.68371522 -1.1296153 0.20346731 243 32755810 43 16 1 1336
-0.64959985 -1.167628 0.19278227 232 32755810 42 17 28 1350
-0.61088055 -1.199231 0.18120161 239 32755810 44 18 55 1358
-0.5794211 -1.2483699 0.17208384 176 32755810 34 19 42 1387
-0.69072968 -1.1411594 0.15587398 242 32755810 44 20 31 1343
-0.62860042 -1.1294649 0.13845915 262 32755810 44 21 22 1300
-0.60093755 -1.1783385 0.12897204 267 32755810 47 22 54 1329
-0.57815528 -1.24388 0.12094717 216 32755810 41 23 56 1377
-0.67948985 -1.1221037 0.10503811 312 32755810 54 24 8 1316
-0.65664989 -1.1791373 0.095157869 414 32755810 76 25 7 1353
-0.60860634 -1.1932728 0.081623219 333 32755810 60 26 87 1342
-0.57784194 -1.2412782 0.070486099 250 32755810 47 27 68 1371
-0.66810536 -1.1020876 0.056021586 422 32755810 70 28 1 1290
-0.64469099 -1.1567129 0.044878229 393 32755810 69 29 1 1325
-0.59201896 -1.1580526 0.032081366 344 32755810 58 30 24 1301
-0.56337231 -1.2090372 0.019929245 308 32755810 55 31 43 1334
-0.6843307 -1.1287191 0.0092152636 230 32755810 40 32 16 1320
-0.6713025 -1.2034222 -0.0034873388 254 32755810 48 33 7 1378
-0.61506152 -1.2027637 -0.016127925 284 32755810 52 34 56 1351
-0.55985755 -1.1994704 -0.028397752 283 32755810 50 35 24 1324
-0.69133931 -1.1390231 -0.039568361 332 32755810 59 36 55 1333
-0.65802509 -1.1775903 -0.052765314 310 32755810 57 37 12 1350
-0.61442584 -1.2002801 -0.065641247 274 32755810 50 38 101 1350
-0.56113166 -1.2022549 -0.077174142 239 32755810 42 39 36 1329
-0.65680474 -1.0802115 -0.083902843 444 32755810 71 40 14 1267
-0.63576013 -1.1365339 -0.098672293 342 32755810 58 41 28 1306
-0.60508108 -1.1812118 -0.11331208 293 32755810 52 42 104 1332
-0.56105781 -1.2004015 -0.12574384 285 32755810 50 43 50 1331
-0.66341907 -1.0902324 -0.1317492 397 32755810 65 44 9 1283
-0.64276731 -1.1479787 -0.14822786 301 32755810 53 45 11 1324
-0.59616625 -1.1623085 -0.15962774 278 32755810 48 46 82 1316
-0.57582074 -1.2312031 -0.17947333 251 32755810 47 47 102 1371
-0.65364856 -1.0721523 -0.17623042 360 32755810 58 48 32 1268
-0.64500725 -1.1508008 -0.19793762 263 32755810 47 49 12 1334
-0.60405439 -1.1761705 -0.21133521 247 32755810 44 50 63 1339
-0.55291253 -1.1813616 -0.22136359 222 32755810 39 51 61 1323
-0.65435475 -1.0711641 -0.22372404 300 32755810 49 52 40 1275
-0.64302838 -1.1459099 -0.24692917 251 32755810 45 53 25 1337
-0.57086617 -1.1106901 -0.24699879 221 32755810 36 54 82 1273
-0.55525124 -1.1864123 -0.27270129 182 32755810 33 55 49 1338
-0.94437736 -1.5439857 -0.39263719 346 32755810 119 56 48 1852
-0.89186341 -1.5873988 -0.41283664 324 32755810 113 57 7 1867
-0.58870763 -1.1448622 -0.30502993 228 32755810 40 58 57 1323
-0.54612315 -1.1666431 -0.31878263 221 32755810 39 59 62 1327
-0.94185388 -1.5358224 -0.46234313 377 32755810 130 60 1 1860
-0.89441752 -1.5888263 -0.48622799 330 32755810 118 61 1 1887
-0.85258651 -1.6572461 -0.51670897 306 32755810 114 62 56 1934
-0.77368444 -1.6545702 -0.52688831 301 32755810 109 63 57 1901
-0.6974538 -1.1343797 0.4156515 180 32853690 35 0 9 1395
-0.64419973 -1.1431508 0.39384428 184 32853690 35 1 32 1370
-0.60254705 -1.1698892 0.38104665 144 32853690 27 2 21 1370
-0.55997926 -1.1958318 0.36885041 190 32853690 36 3 26 1371
-0.68658811 -1.117975 0.35441494 219 32853690 40 4 18 1359
-0.65866721 -1.1676322 0.34787616 179 32853690 34 5 1 1385
-0.60203713 -1.1677973 0.32728711 160 32853690 29 6 45 1354
-0.55926585 -1.1911672 0.31456557 201 32853690 37 7 39 1353
-0.68364203 -1.1136572 0.30113485 219 32853690 39 8 21 1341
-0.64975458 -1.1528668 0.29110494 207 32853690 38 9 1 1355
-0.60020506 -1.1626986 0.27469024 168 32853690 30 10 29 1337
-0.56697178 -1.2048457 0.26655969 189 32853690 35 11 21 1358
-0.6877892 -1.1208078 0.25230378 232 32853690 42 12 36 1339
-0.66953528 -1.1868984 0.24742703 208 32853690 40 13 1 1385
-0.61280632 -1.1865504 0.22932874 220 32853690 40 14 47 1355
-0.58576232 -1.2439876 0.22321847 219 32853690 42 15 21 1393
-0.67822695 -1.1051821 0.1998122 260 32853690 45 16 1 1312
-0.67426544 -1.1946501 0.19792314 204 32853690 39 17 27 1386
-0.60730147 -1.1743327 0.17799923 222 32853690 39 18 43 1334
-0.58199084 -1.2340215 0.17059501 201 32853690 38 19 43 1375
-0.69148445 -1.1267413 0.15448122 285 32853690 50 20 27 1331
-0.65898412 -1.1671467 0.14357148 271 32853690 49 21 25 1348
-0.61364764 -1.1852351 0.13013656 313 32853690 56 22 68 1341
-0.59088153 -1.2511178 0.12200117 239 32853690 46 23 70 1389
-0.68636221 -1.1179134 0.10503811 317 32853690 55 24 3 1316
-0.6638726 -1.175086 0.095157869 374 32853690 68 25 2 1353
-0.6214242 -1.2001526 0.082353085 320 32853690 59 26 71 1354
-0.58032316 -1.2268759 0.069869153 236 32853690 43 27 52 1359
-0.69368827 -1.1286083 0.057584979 353 32853690 62 28 1 1326
-0.64587343 -1.1422955 0.044471789 446 32853690 77 29 1 1313
-0.61016548 -1.1756938 0.03267318 326 32853690 57 30 28 1325
-0.57078022 -1.2055576 0.019929245 291 32853690 52 31 40 1334
-0.70381159 -1.1449443 0.0093828142 255 32853690 46 32 15 1344
-0.67276388 -1.1888368 -0.0034569702 267 32853690 50 33 1 1366
-0.62242991 -1.1989671 -0.016127925 309 32853690 56 34 46 1351
-0.56206596 -1.1851726 -0.02814037 295 32853690 51 35 35 1312
-0.66688317 -1.0836825 -0.037787337 351 32853690 57 36 68 1273
-0.64749855 -1.1422364 -0.051358238 313 32853690 54 37 10 1314
-0.62177902 -1.1964874 -0.065641247 295 32853690 54 38 71 1350
-0.57876426 -1.2204376 -0.078567803 242 32853690 44 39 41 1353
-0.66342044 -1.0761611 -0.083902843 446 32853690 72 40 28 1267
-0.6368162 -1.1222045 -0.097765654 354 32853690 59 41 33 1294
-0.60680115 -1.1668689 -0.11229125 275 32853690 48 42 107 1320
-0.57353747 -1.2077277 -0.12687752 250 32853690 45 43 37 1343
-0.67636359 -1.0962999 -0.13298145 390 32853690 65 44 27 1295
-0.63802022 -1.1232756 -0.14554094 309 32853690 52 45 12 1300
-0.61979014 -1.1903236 -0.16399445 268 32853690 49 46 76 1352
-0.55272824 -1.1631751 -0.17004803 243 32853690 41 47 92 1299
-0.67271107 -1.0883381 -0.17956603 343 32853690 57 48 25 1292
-0.63445956 -1.1158727 -0.19259597 250 32853690 42 49 1 1298
-0.6167379 -1.1829492 -0.21322918 267 32853690 49 50 76 1351
-0.57031232 -1.1993154 -0.22537926 220 32853690 40 51 48 1347
-0.6671353 -1.0771725 -0.22582968 278 32853690 46 52 32 1287
-0.62670988 -1.1009456 -0.23806411 282 32853690 47 53 27 1289
-0.59400684 -1.1384767 -0.25398383 245 32853690 42 54 81 1309
-0.55243039 -1.1617635 -0.26780978 201 32853690 35 55 53 1314
-0.95383328 -1.5381621 -0.39263719 363 32853690 124 56 25 1852
-0.91317648 -1.6022315 -0.41814357 326 32853690 117 57 9 1891
-0.62814152 -1.203336 -0.32163018 175 32853690 34 58 50 1395
-0.56327772 -1.184309 -0.3245481 222 32853690 41 59 66 1351
-0.96353406 -1.5497565 -0.46830881 340 32853690 121 60 1 1884
-0.89265001 -1.5631708 -0.48004383 307 32853690 107 61 1 1863
-0.84132677 -1.6109828 -0.50388473 322 32853690 115 62 75 1886
-0.80361348 -1.6914488 -0.54019213 289 32853690 110 63 44 1949
-0.68016362 -1.0911944 0.40134951 180 32950440 33 0 15 1347
-0.67401767 -1.1790893 0.40764317 201 32950440 40 1 11 1418
-0.62039512 -1.1865993 0.3877219 139 32950440 27 2 29 1394
-0.58220267 -1.2236829 0.37853578 178 32950440 35 3 17 1407
-0.68118882 -1.0940723 0.34815595 203 32950440 36 4 20 1335
-0.63697505 -1.1131614 0.33280569 214 32950440 38 5 12 1325
-0.6091913 -1.1640813 0.32728711 186 32950440 34 6 47 1354
-0.57661414 -1.2087814 0.32014546 196 32950440 37 7 27 1377
-0.67192656 -1.0796579 0.29305068 201 32950440 34 8 19 1305
-0.64518255 -1.1285096 0.28594887 216 32950440 38 9 1 1331
-0.62368083 -1.190201 0.28208655 197 32950440 37 10 17 1373
-0.57435387 -1.2013441 0.26655969 195 32950440 36 11 4 1358
-0.67597711 -1.0865468 0.2455204 249 32950440 42 12 46 1303
-0.6592133 -1.1520244 0.24099572 240 32950440 44 13 1 1349
-0.61458385 -1.1722933 0.22729778 203 32950440 37 14 61 1343
-0.58827257 -1.2296848 0.22129557 239 32950440 46 15 26 1381
-0.67246509 -1.0808595 0.19615711 252 32950440 42 16 1 1288
-0.68748415 -1.2007977 0.19963677 212 32950440 41 17 27 1398
-0.6366064 -1.2127043 0.184404 228 32950440 43 18 23 1382
-0.58955169 -1.2304274 0.17059501 198 32950440 38 19 59 1375
-0.698385 -1.1224773 0.15448122 236 32950440 42 20 24 1331
-0.66020328 -1.1527274 0.14229341 268 32950440 48 21 12 1336
-0.61535233 -1.1708753 0.12897204 307 32950440 54 22 55 1329
-0.5933761 -1.2366915 0.12094717 234 32950440 44 23 77 1377
-0.70585072 -1.1339911 0.10695369 329 32950440 59 24 1 1340
-0.65916663 -1.1502191 0.093469933 385 32950440 68 25 1 1329
-0.62877649 -1.196317 0.082353085 316 32950440 58 26 79 1354
-0.57745892 -1.2016886 0.068635255 252 32950440 45 27 70 1335
-0.68157935 -1.0938059 0.056021586 324 32950440 54 28 1 1290
-0.62900299 -1.0966972 0.042846009 506 32950440 81 29 1 1265
-0.62855047 -1.1931551 0.033264998 352 32950440 64 30 7 1349
-0.57296568 -1.1912197 0.019749969 295 32950440 52 31 39 1322
-0.71717018 -1.1507882 0.0094665894 244 32950440 45 32 22 1356
-0.65614963 -1.1430577 -0.0033354955 274 32950440 48 33 18 1318
-0.61299336 -1.1632789 -0.015698167 274 32950440 47 34 45 1315
-0.56932747 -1.1817015 -0.02814037 292 32950440 50 35 43 1312
-0.679869 -1.089747 -0.038143545 365 32950440 60 36 41 1285
-0.66644925 -1.1590317 -0.052296288 360 32950440 64 37 11 1338
-0.6235168 -1.1820484 -0.065057769 293 32950440 52 38 93 1338
-0.55504495 -1.152108 -0.074386805 238 32950440 39 39 43 1281
-0.67635691 -1.082224 -0.0846975 427 32950440 70 40 18 1279
-0.65562856 -1.1390169 -0.099578924 376 32950440 65 41 38 1318
-0.60278672 -1.141976 -0.11024959 291 32950440 49 42 116 1296
-0.58093715 -1.2041857 -0.12687752 261 32950440 47 43 35 1343
-0.67041826 -1.0718889 -0.13051692 409 32950440 66 44 42 1271
-0.6687122 -1.1606691 -0.15091476 343 32950440 62 45 23 1348
-0.6103847 -1.1549051 -0.15962774 298 32950440 52 46 93 1316
-0.56502682 -1.1704755 -0.17161892 258 32950440 44 47 87 1311
-0.6793763 -1.08419 -0.17956603 334 32950440 56 48 24 1292
-0.64722323 -1.1222389 -0.19437653 300 32950440 51 49 15 1310
-0.63506961 -1.2000898 -0.21701711 273 32950440 52 50 55 1375
-0.58280665 -1.2064463 -0.22738709 224 32950440 41 51 63 1359
-0.66116834 -1.0530483 -0.22161838 283 32950440 45 52 32 1263
-0.63935059 -1.1072929 -0.24028039 252 32950440 43 53 33 1301
-0.63403749 -1.1972294 -0.2679539 236 32950440 45 54 67 1381
-0.5799886 -1.2006664 -0.27759281 221 32950440 41 55 47 1362
-0.96325332 -1.5322804 -0.39263719 351 32950440 120 56 30 1852
-0.89956176 -1.5560712 -0.40752968 305 32950440 103 57 29 1843
-0.81045014 -1.5296328 -0.41016492 244 32950440 77 58 47 1779
-0.57560152 -1.191319 -0.32743084 220 32950440 41 59 60 1363
-0.97302508 -1.5438151 -0.46830881 384 32950440 136 60 1 1884
-0.90803605 -1.5676975 -0.48313594 358 32950440 126 61 1 1875
-0.86202753 -1.6262245 -0.51029682 314 32950440 115 62 67 1910
-0.78891861 -1.6345676 -0.52356231 312 32950440 111 63 66 1889
-0.71132189 -1.1257354 0.4156515 173 33047540 34 0 18 1395
-0.64088422 -1.1053303 0.38349506 218 33047540 39 1 32 1334
-0.64387369 -1.2133152 0.39773482 143 33047540 29 2 16 1430
-0.5695824 -1.1784642 0.36562198 181 33047540 33 3 15 1359
-0.70025569 -1.1094654 0.35441494 181 33047540 33 4 24 1359
-0.66128504 -1.1393696 0.34184796 191 33047540 35 5 7 1361
-0.62178469 -1.1706049 0.33018771 180 33047540 34 6 61 1366
-0.59928876 -1.2367296 0.32851529 186 33047540 37 7 28 1413
-0.72221458 -1.1447432 0.3119137 187 33047540 36 8 25 1389
-0.66973227 -1.1549451 0.29368302 206 33047540 39 9 1 1367
-0.63648677 -1.1967205 0.28455198 180 33047540 34 10 29 1385
-0.60227573 -1.2401347 0.27598155 233 33047540 46 11 10 1406
-0.68263131 -1.0823786 0.2455204 213 33047540 36 12 54 1303
-0.6662696 -1.1479578 0.24099572 222 33047540 40 13 5 1349
-0.6384322 -1.1998227 0.23339066 203 33047540 39 14 36 1379
-0.59580672 -1.226052 0.22129557 233 33047540 44 15 23 1381
-0.7043919 -1.1168389 0.20346731 244 33047540 44 16 1 1336
-0.66501772 -1.1452023 0.19106865 241 33047540 43 17 41 1338
-0.62725878 -1.1772877 0.17960042 206 33047540 37 18 51 1346
-0.6023013 -1.2374933 0.17208384 187 33047540 36 19 40 1387
-0.69254231 -1.0980085 0.15169568 270 33047540 46 20 23 1307
-0.67325723 -1.158972 0.14357148 285 33047540 52 21 27 1348
-0.61690408 -1.1565396 0.1278075 327 33047540 57 22 67 1317
-0.58000487 -1.190046 0.11673114 238 33047540 42 23 76 1329
-0.71279544 -1.1296387 0.10695369 276 33047540 50 24 16 1340
-0.65418094 -1.1254548 0.091781981 353 33047540 60 25 13 1305
-0.63610512 -1.1924363 0.082353085 325 33047540 60 26 60 1354
-0.59007829 -1.2088925 0.069252208 267 33047540 48 27 58 1347
-0.71388835 -1.1301466 0.058106109 220 33047540 39 28 1 1338
-0.64778143 -1.1135503 0.043658897 487 33047540 81 29 1 1289
-0.63585967 -1.1892759 0.033264998 399 33047540 73 30 17 1349
-0.57499695 -1.1769009 0.019570697 330 33047540 57 31 55 1310
-0.71139979 -1.1260763 0.0092990389 276 33047540 49 32 35 1332
-0.65711313 -1.1286397 -0.0033051267 276 33047540 47 33 22 1306
-0.62577844 -1.1700767 -0.015841419 267 33047540 47 34 59 1327
-0.59238797 -1.2105142 -0.028912514 316 33047540 57 35 43 1348
-0.692954 -1.0956923 -0.038499746 356 33047540 60 36 43 1297
-0.6735484 -1.1549207 -0.052296288 340 33047540 61 37 14 1338
-0.63641495 -1.1887671 -0.065641247 282 33047540 51 38 84 1350
-0.57790053 -1.180962 -0.076477304 239 33047540 41 39 29 1317
-0.6701687 -1.0578243 -0.083108187 507 33047540 80 40 22 1255
-0.66260511 -1.1349726 -0.099578924 410 33047540 71 41 23 1318
-0.63236701 -1.1804136 -0.11433291 331 33047540 60 42 96 1344
-0.58305824 -1.189871 -0.12574384 293 33047540 52 43 30 1331
-0.670591 -1.0576741 -0.12928466 442 33047540 70 44 30 1259
-0.65777272 -1.1256572 -0.1468844 375 33047540 65 45 14 1312
-0.62308991 -1.1616348 -0.1610833 288 33047540 51 46 71 1328
-0.58791065 -1.1990319 -0.17633156 236 33047540 43 47 82 1347
-0.68601596 -1.080001 -0.17956603 323 33047540 54 48 22 1292
-0.65409696 -1.1182464 -0.19437653 299 33047540 51 49 9 1310
-0.61438829 -1.1439739 -0.20754728 246 33047540 43 50 74 1315
-0.57456386 -1.170984 -0.22136359 192 33047540 34 51 48 1323
-0.69933313 -1.098804 -0.23214659 253 33047540 44 52 26 1323
-0.65209246 -1.113526 -0.24249665 247 33047540 43 53 25 1313
-0.63022542 -1.1725782 -0.26329723 221 33047540 41 54 94 1357
-0.56664544 -1.154897 -0.26780978 196 33047540 34 55 44 1314
-0.9600327 -1.5065614 -0.38754901 357 33047540 119 56 30 1828
-0.91501194 -1.5606179 -0.41018316 348 33047540 120 57 12 1855
-0.85300046 -1.5863364 -0.4267652 306 33047540 105 58 67 1851
-0.56750476 -1.1563932 -0.31878263 210 33047540 37 59 71 1327
-0.98873729 -1.5476109 -0.47129169 376 33047540 135 60 1 1896
-0.91763818 -1.5620965 -0.48313594 337 33047540 118 61 1 1875
-0.86651117 -1.6107209 -0.50709081 325 33047540 117 62 63 1898
-0.80908382 -1.6504017 -0.53021425 315 33047540 115 63 54 1913
-0.70585942 -1.1020576 0.40850049 158 33144130 30 0 26 1371
-0.67095822 -1.1410069 0.39729398 171 33144130 33 1 29 1382
-0.65130633 -1.2093416 0.39773482 165 33144130 34 2 15 1430
-0.58189577 -1.1853218 0.36885041 207 33144130 39 3 19 1371
-0.7008068 -1.0953892 0.35128546 202 33144130 37 4 34 1347
-0.66237158 -1.1252807 0.33883387 195 33144130 35 5 1 1349
-0.65105659 -1.2077669 0.3417902 165 33144130 33 6 56 1414
-0.56048125 -1.1387849 0.30340582 189 33144130 32 7 44 1305
-0.68512499 -1.071331 0.29305068 202 33144130 34 8 42 1305
-0.66492379 -1.1306095 0.28852692 206 33144130 37 9 2 1343
-0.6382395 -1.1824579 0.28208655 210 33144130 40 10 28 1373
-0.58905298 -1.1942054 0.26655969 209 33144130 39 11 6 1358
-0.70195526 -1.0980284 0.25004265 214 33144130 38 12 61 1327
-0.6912688 -1.1743733 0.24742703 249 33144130 48 13 7 1385
-0.634543 -1.1750696 0.22932874 215 33144130 40 14 62 1355
-0.58759105 -1.1905082 0.21552682 207 33144130 37 15 39 1345
-0.70484316 -1.1025034 0.20163977 229 33144130 40 16 1 1324
-0.68408644 -1.1615685 0.1944959 224 33144130 42 17 20 1362
-0.64578372 -1.1943395 0.18280281 229 33144130 43 18 49 1370
-0.60460657 -1.2230999 0.17059501 207 33144130 39 19 42 1375
-0.71852714 -1.1238644 0.15587398 223 33144130 40 20 14 1343
-0.68641239 -1.1650994 0.14484957 258 33144130 48 21 16 1360
-0.65241659 -1.2052488 0.13363017 306 33144130 58 22 39 1377
-0.5979017 -1.2078907 0.11883915 246 33144130 45 23 70 1353
-0.70037776 -1.0950134 0.1040803 296 33144130 50 24 2 1304
-0.66715306 -1.1317315 0.092625953 374 33144130 65 25 4 1317
-0.63200516 -1.1674441 0.080893353 354 33144130 63 26 88 1330
-0.6081304 -1.2267234 0.070486099 291 33144130 55 27 79 1371
-0.71434474 -1.1156486 0.057584979 252 33144130 44 28 3 1326
-0.66069591 -1.1198841 0.044065345 468 33144130 79 29 1 1301
-0.64314497 -1.185352 0.033264998 356 33144130 65 30 18 1349
-0.59287387 -1.1948471 0.019929245 324 33144130 58 31 38 1334
-0.73123813 -1.1419008 0.0094665894 291 33144130 53 32 5 1356
-0.68232983 -1.1555858 -0.0033962326 275 33144130 50 33 20 1342
-0.66156465 -1.2189451 -0.016557686 289 33144130 56 34 53 1387
-0.58912545 -1.1853696 -0.028397752 289 33144130 51 35 45 1324
-0.73850429 -1.1520075 -0.040636975 325 33144130 61 36 54 1369
-0.68062222 -1.1507661 -0.052296288 379 33144130 68 37 4 1338
-0.62653184 -1.153244 -0.063890815 322 33144130 56 38 82 1314
-0.61179358 -1.2310337 -0.079961464 244 33144130 46 39 31 1377
-0.68958658 -1.0738425 -0.0846975 540 33144130 88 40 16 1279
-0.66346055 -1.1205891 -0.098672293 386 33144130 66 41 12 1306
-0.64530867 -1.1870158 -0.11535374 316 33144130 58 42 115 1356
-0.59034818 -1.186271 -0.12574384 246 33144130 44 43 37 1331
-0.68352151 -1.0635811 -0.13051692 493 33144130 80 44 22 1271
-0.67682582 -1.1421171 -0.14957131 391 33144130 70 45 1 1336
-0.63020581 -1.1577897 -0.1610833 305 33144130 54 46 78 1328
-0.58465075 -1.174103 -0.1731898 227 33144130 40 47 84 1323
-0.70549607 -1.0957549 -0.18290162 304 33144130 53 48 13 1316
-0.67305505 -1.134625 -0.19793762 279 33144130 50 49 1 1334
-0.62706655 -1.1505872 -0.20944123 264 33144130 47 50 70 1327
-0.58173805 -1.1674366 -0.22136359 241 33144130 42 51 58 1323
-0.76369983 -1.1838387 -0.25109732 221 33144130 45 52 29 1431
-0.65289062 -1.0993637 -0.24028039 264 33144130 45 53 18 1301
-0.63740838 -1.1686893 -0.26329723 252 33144130 46 54 61 1357
-0.56848162 -1.1408833 -0.26536405 247 33144130 42 55 54 1302
-0.98834693 -1.5301955 -0.39518127 343 33144130 119 56 31 1864
-0.91260839 -1.5348558 -0.4048762 309 33144130 104 57 1 1831
-0.87390399 -1.6015728 -0.43229863 298 33144130 105 58 49 1875
-0.59537351 -1.1945914 -0.33031359 178 33144130 34 59 44 1375
-0.98557901 -1.522002 -0.46532598 385 33144130 135 60 1 1872
-0.93907398 -1.5763588 -0.48932004 353 33144130 127 61 1 1899
-0.87637806 -1.6053737 -0.50709081 311 33144130 112 62 73 1898
-0.82433397 -1.6557275 -0.53354019 298 33144130 110 63 53 1925
-0.73132008 -1.1265296 0.419227 174 33242620 34 0 3 1407
-0.67794669 -1.1368685 0.39729398 204 33242620 39 1 26 1382
-0.65871447 -1.2053225 0.39773482 160 33242620 33 2 27 1430
-0.60978478 -1.2231025 0.3817642 198 33242620 40 3 18 1419
-0.7264238 -1.1202284 0.3606739 192 33242620 37 4 20 1383
-0.67521709 -1.1311688 0.34184796 196 33242620 36 5 1 1361
-0.65845507 -1.2037493 0.3417902 193 33242620 38 6 57 1414
-0.59876615 -1.197963 0.32014546 198 33242620 37 7 38 1377
-0.69804597 -1.0769194 0.2957454 188 33242620 33 8 25 1317
-0.67785162 -1.1365739 0.29110494 204 33242620 37 9 1 1355
-0.62855834 -1.1476187 0.27469024 207 33242620 37 10 33 1337
-0.60163927 -1.2010891 0.26891518 195 33242620 37 11 12 1370
-0.70867944 -1.0937006 0.25004265 198 33242620 35 12 69 1327
-0.67425495 -1.129557 0.23885193 265 33242620 47 13 12 1337
-0.63605785 -1.1607822 0.22729778 193 33242620 35 14 59 1343
-0.58426982 -1.165702 0.21168099 224 33242620 39 15 30 1321
-0.70514518 -1.0882047 0.1998122 250 33242620 43 16 3 1312
-0.69120079 -1.1573491 0.1944959 213 33242620 39 17 20 1362
-0.64165866 -1.1695017 0.17960042 222 33242620 40 18 63 1346
-0.60141605 -1.1980836 0.16761735 241 33242620 44 19 52 1351
-0.71244609 -1.0994296 0.15308845 272 33242620 47 20 19 1319
-0.68130934 -1.1403799 0.14229341 267 33242620 48 21 17 1336
-0.64829981 -1.1802866 0.13130111 332 33242620 61 22 53 1353
-0.62140751 -1.2362401 0.12200117 271 33242620 52 23 64 1389
-0.71359044 -1.1007324 0.10503811 290 33242620 50 24 13 1316
-0.69251072 -1.1584399 0.095157869 372 33242620 68 25 6 1353
-0.63338977 -1.1530461 0.080163494 396 33242620 69 26 72 1318
-0.59409165 -1.1801516 0.068018317 290 33242620 51 27 47 1323
-0.73422968 -1.1313574 0.058627237 246 33242620 45 28 13 1350
-0.67986953 -1.1363927 0.044878229 364 33242620 64 29 1 1325
-0.63304901 -1.1498564 0.032377273 410 33242620 71 30 24 1313
-0.60019416 -1.1911869 0.019929245 362 33242620 64 31 45 1334
-0.73823094 -1.1373925 0.0094665894 287 33242620 53 32 19 1356
-0.68940753 -1.1513773 -0.0033962326 298 33242620 54 33 6 1342
-0.63430166 -1.1517986 -0.015698167 267 33242620 46 34 56 1315
-0.60179293 -1.192443 -0.028655134 279 33242620 50 35 48 1336
-0.68674201 -1.0569321 -0.037431132 318 33242620 51 36 74 1261
-0.669168 -1.1157188 -0.050889213 368 33242620 62 37 13 1302
-0.63359624 -1.1493781 -0.063890815 343 33242620 59 38 108 1314
-0.60314375 -1.1951715 -0.077870972 263 33242620 47 39 35 1341
-0.68309933 -1.0495206 -0.083108187 534 33242620 84 40 15 1255
-0.66416466 -1.1062384 -0.097765654 439 33242620 73 41 29 1294
-0.62947977 -1.1411566 -0.11127043 351 33242620 60 42 107 1308
-0.59761584 -1.1826264 -0.12574384 237 33242620 42 43 46 1331
-0.68351978 -1.0493652 -0.12928466 483 33242620 77 44 31 1259
-0.66539466 -1.1072795 -0.14554094 353 33242620 60 45 9 1300
-0.63153934 -1.1434742 -0.15962774 310 33242620 54 46 91 1316
-0.5918439 -1.1704936 -0.1731898 255 33242620 45 47 74 1323
-0.67973477 -1.0416452 -0.17456263 339 33242620 53 48 10 1256
-0.66777033 -1.1101354 -0.19437653 285 33242620 49 49 8 1310
-0.65131742 -1.1778271 -0.21512315 250 33242620 47 50 60 1363
-0.56752473 -1.1216195 -0.21333225 230 33242620 37 51 66 1275
-0.96489888 -1.475767 -0.31426647 311 33242620 100 52 6 1791
-0.65962392 -1.0953369 -0.24028039 276 33242620 47 53 42 1301
-0.61036772 -1.1029563 -0.24932715 253 33242620 42 54 86 1285
-0.59668678 -1.1793045 -0.27514705 254 33242620 46 55 55 1350
-0.97844821 -1.4946669 -0.38754901 373 33242620 124 56 53 1828
-0.94617951 -1.5693163 -0.41549012 337 33242620 119 57 14 1879
-0.88371456 -1.5961804 -0.43229863 326 33242620 115 58 68 1875
-0.69210982 -1.3676044 -0.37932011 194 33242620 48 59 40 1579
-0.99489927 -1.515926 -0.46532598 382 33242620 134 60 1 1872
-0.93074328 -1.5407933 -0.48004383 348 33242620 121 61 1 1863
-0.86940283 -1.5696191 -0.49747261 325 33242620 113 62 63 1862
-0.83447778 -1.6506383 -0.53354019 329 33242620 122 63 48 1925
-0.72562629 -1.102882 0.412076 160 33339280 31 0 12 1383
-0.70275098 -1.1621929 0.40764317 196 33339280 39 1 18 1418
-0.62138075 -1.1206142 0.37103376 156 33339280 28 2 19 1334
-0.61205798 -1.2090265 0.37853578 180 33339280 36 3 14 1407
-0.70147103 -1.0673445 0.34502646 210 33339280 37 4 28 1323
-0.70018858 -1.1568151 0.35089022 200 33339280 39 5 1 1397
-0.64322639 -1.1589617 0.33018771 183 33339280 34 6 62 1366
-0.61666936 -1.2150815 0.32572532 209 33339280 41 7 36 1401
-0.72390199 -1.1019359 0.30382955 208 33339280 38 8 25 1353
-0.68481278 -1.1323932 0.29110494 200 33339280 37 9 4 1355
-0.64129281 -1.1540059 0.2771557 226 33339280 41 10 21 1349
-0.62500048 -1.2288387 0.27598155 207 33339280 41 11 4 1406
-0.69596952 -1.0597794 0.24325927 242 33339280 40 12 54 1291
-0.68728685 -1.1354995 0.24099572 250 33339280 46 13 6 1349
-0.64891511 -1.1671944 0.22932874 217 33339280 40 14 50 1355
-0.61290097 -1.204321 0.21937266 221 33339280 41 15 36 1369
-0.71180898 -1.0838575 0.1998122 247 33339280 43 16 5 1312
-0.69213676 -1.1429268 0.19278227 238 33339280 43 17 23 1350
-0.6661759 -1.196716 0.184404 233 33339280 44 18 46 1382
-0.60334885 -1.1837621 0.16612852 263 33339280 47 19 54 1339
-0.7257216 -1.105 0.15448122 258 33339280 46 20 20 1331
-0.69447601 -1.1463832 0.14357148 273 33339280 50 21 1 1348
-0.65552968 -1.1762865 0.13130111 303 33339280 56 22 66 1353
-0.61267936 -1.2004626 0.11883915 250 33339280 46 23 74 1353
-0.71376252 -1.0863363 0.1040803 268 33339280 46 24 3 1304
-0.68099093 -1.1234593 0.092625953 349 33339280 60 25 22 1317
-0.63462168 -1.1386756 0.079433627 406 33339280 69 26 77 1306
-0.60132176 -1.1764841 0.068018317 283 33339280 49 27 56 1323
-0.71480548 -1.0867659 0.056542717 296 33339280 50 28 16 1302
-0.68060923 -1.1219459 0.044471789 278 33339280 48 29 1 1313
-0.65764266 -1.1773703 0.033264998 398 33339280 72 30 16 1349
-0.60202712 -1.1767997 0.019749969 375 33339280 65 31 37 1322
-0.72541201 -1.1027659 0.0092152636 301 33339280 52 32 18 1320
-0.6777764 -1.1163533 -0.0033051267 295 33339280 50 33 20 1306
-0.6647678 -1.1897849 -0.01627118 265 33339280 49 34 52 1363
-0.60909832 -1.1887281 -0.028655134 240 33339280 43 35 46 1336
-0.71300471 -1.0827516 -0.038499746 336 33339280 56 36 57 1297
-0.6884622 -1.1320821 -0.051827267 399 33339280 70 37 1 1326
-0.63478619 -1.1350079 -0.063307337 317 33339280 54 38 97 1302
-0.60500306 -1.1807865 -0.077174142 252 33339280 44 39 41 1329
-0.70271236 -1.0652994 -0.0846975 570 33339280 93 40 28 1279
-0.67716199 -1.1123631 -0.098672293 463 33339280 79 41 30 1306
-0.64814818 -1.1581401 -0.11331208 364 33339280 65 42 97 1332
-0.60486108 -1.1789372 -0.12574384 292 33339280 52 43 43 1331
-0.68336958 -1.0351897 -0.12805241 477 33339280 74 44 34 1247
-0.66597158 -1.0929928 -0.14419749 367 33339280 61 45 33 1288
-0.63854367 -1.1395776 -0.15962774 336 33339280 58 46 71 1316
-0.60988128 -1.1880072 -0.17633156 247 33339280 45 47 86 1347
-0.70577908 -1.0671908 -0.17956603 311 33339280 52 48 30 1292
-0.66839015 -1.0958858 -0.19259597 299 33339280 50 49 14 1298
-0.64113879 -1.1428056 -0.20944123 264 33339280 47 50 71 1327
-0.59602052 -1.1602099 -0.22136359 252 33339280 44 51 57 1323
-0.99351245 -1.4993628 -0.3205834 367 33339280 122 52 11 1827
-0.66018629 -1.0812033 -0.23806411 261 33339280 43 53 33 1289
-0.64017588 -1.1402496 -0.25864053 256 33339280 46 54 86 1333
-0.60927975 -1.1860712 -0.27759281 225 33339280 42 55 51 1362
-1.0005672 -1.5081795 -0.39263719 369 33339280 126 56 46 1852
-0.95579088 -1.5634811 -0.41549012 321 33339280 113 57 16 1879
-0.88777351 -1.5805472 -0.4295319 334 33339280 116 58 73 1863
-0.83357656 -1.6223563 -0.45138851 326 33339280 115 59 44 1879
-1.0041821 -1.5097928 -0.46532598 403 33339280 141 60 1 1872
-0.95229173 -1.5548286 -0.48622799 330 33339280 118 61 1 1887
-0.90734237 -1.6146606 -0.5135029 322 33339280 119 62 69 1922
-0.84985518 -1.6557446 -0.53686613 299 33339280 112 63 53 1937
-0.73237979 -1.0984089 0.412076 184 33436860 35 0 10 1383
-0.67983204 -1.1088663 0.39039451 202 33436860 37 1 32 1358
-0.65650189 -1.1670103 0.3877219 171 33436860 33 2 19 1394
-0.61946493 -1.2052481 0.37853578 175 33436860 35 3 5 1407
-0.72085059 -1.0823041 0.35128546 179 33436860 32 4 21 1347
-0.69512278 -1.1326975 0.34486204 189 33436860 36 5 1 1373
-0.63889956 -1.1347003 0.32438645 197 33436860 35 6 57 1342
-0.59203905 -1.1490252 0.30898571 184 33436860 32 7 30 1329
-0.71768922 -1.078006 0.29844013 203 33436860 36 8 9 1329
-0.69787431 -1.1381612 0.29368302 183 33436860 34 9 1 1367
-0.6425941 -1.1398189 0.27469024 215 33436860 38 10 23 1337
-0.6217317 -1.2040707 0.27127063 212 33436860 40 11 11 1382
-0.72204745 -1.0849217 0.25004265 226 33436860 40 12 32 1327
-0.68188995 -1.1111348 0.23670816 248 33436860 44 13 7 1325
-0.64444435 -1.1425881 0.22526683 225 33436860 40 14 50 1331
-0.62027901 -1.2005377 0.21937266 208 33436860 39 15 46 1369
-0.69873255 -1.04985 0.19432956 247 33436860 40 16 1 1276
-0.70535123 -1.1487799 0.1944959 241 33436860 45 17 20 1362
-0.65011388 -1.151184 0.17799923 253 33436860 45 18 53 1334
-0.62701738 -1.211764 0.17059501 210 33436860 40 19 49 1375
-0.72588414 -1.0906041 0.15308845 249 33436860 43 20 18 1319
-0.7077418 -1.1522675 0.14484957 307 33436860 57 21 24 1360
-0.6509791 -1.1514485 0.12897204 306 33436860 54 22 56 1329
-0.62003374 -1.1966807 0.11883915 278 33436860 51 23 84 1353
-0.7270444 -1.0918927 0.10503811 279 33436860 48 24 23 1316
-0.68787152 -1.1192597 0.092625953 366 33436860 63 25 10 1317
-0.65338689 -1.1556132 0.080893353 396 33436860 70 26 70 1330
-0.61956829 -1.1940471 0.069252208 317 33436860 58 27 61 1347
-0.72146028 -1.0823594 0.056542717 333 33436860 56 28 1 1302
-0.69376367 -1.1279641 0.044878229 270 33436860 47 29 1 1325
-0.64711189 -1.1420014 0.032377273 431 33436860 74 30 21 1313
-0.59817624 -1.151787 0.019391423 373 33436860 63 31 40 1298
-0.7454769 -1.1182631 0.0093828142 280 33436860 51 32 23 1344
-0.69719434 -1.1326115 -0.003365864 317 33436860 56 33 12 1330
-0.63063771 -1.1126114 -0.015268407 434 33436860 71 34 69 1279
-0.62191707 -1.1956117 -0.028912514 277 33436860 50 35 43 1348
-0.70631862 -1.0584022 -0.037787337 331 33436860 54 36 59 1273
-0.68280917 -1.1074232 -0.050889213 376 33436860 64 37 22 1302
-0.66539711 -1.1727906 -0.065641247 332 33436860 61 38 91 1350
-0.61776495 -1.18768 -0.077870972 269 33436860 48 39 36 1341
-0.70923567 -1.0609676 -0.0846975 558 33436860 91 40 8 1279
-0.68397456 -1.1081872 -0.098672293 458 33436860 78 41 12 1306
-0.63753295 -1.1229483 -0.11024959 368 33436860 62 42 110 1296
-0.5955283 -1.1434175 -0.1223428 291 33436860 49 43 41 1295
-0.68970853 -1.0309772 -0.12805241 543 33436860 84 44 15 1247
-0.68519962 -1.1091756 -0.1468844 384 33436860 66 45 9 1312
-0.63375145 -1.1149274 -0.15671659 328 33436860 55 46 94 1292
-0.6116612 -1.1736926 -0.17476067 256 33436860 46 47 90 1335
-0.71231395 -1.0628401 -0.17956603 364 33436860 61 48 29 1292
-0.69382578 -1.1220441 -0.19793762 287 33436860 51 49 1 1334
-0.65399998 -1.1491487 -0.21133521 322 33436860 58 50 75 1339
-0.58671653 -1.1250607 -0.21534008 231 33436860 38 51 56 1287
-0.99610776 -1.4834306 -0.31847775 350 33436860 115 52 4 1815
-0.69163871 -1.1172426 -0.24692917 222 33436860 40 53 41 1337
-0.63550848 -1.1158415 -0.25398383 264 33436860 45 54 82 1309
-0.59481734 -1.1406429 -0.26780978 214 33436860 37 55 69 1314
-1.0163454 -1.511744 -0.39518127 380 33436860 132 56 30 1864
-0.94070542 -1.5177977 -0.4048762 310 33436860 104 57 6 1831
-0.90323561 -1.5852157 -0.43229863 328 33436860 115 58 75 1875
-0.84351546 -1.617211 -0.45138851 338 33436860 119 59 71 1879
-1.0134271 -1.5036029 -0.46532598 391 33436860 137 60 1 1872
-0.96181405 -1.5489563 -0.48622799 328 33436860 117 61 1 1887
-0.90577924 -1.5889705 -0.50709081 324 33436860 117 62 73 1898
-0.85999864 -1.6504987 -0.53686613 311 33436860 117 63 66 1937
-0.75193191 -1.1128775 0.419227 162 33534550 32 0 20 1407
-0.70482522 -1.1339586 0.40074369 193 33534550 37 1 18 1394
-0.65793729 -1.1529491 0.38438427 134 33534550 26 2 18 1382
-0.61615598 -1.1809311 0.37207887 175 33534550 33 3 13 1383
-0.70803529 -1.0490538 0.34189698 212 33534550 36 4 25 1311
-0.69592381 -1.1185488 0.34184796 206 33534550 38 5 4 1361
-0.6516251 -1.1408699 0.32728711 188 33534550 34 6 56 1354
-0.59907818 -1.1453708 0.30898571 201 33534550 35 7 34 1329
-0.71775031 -1.0638883 0.2957454 208 33534550 36 8 26 1317
-0.70484483 -1.1338577 0.29368302 215 33534550 40 9 11 1367
-0.66123611 -1.1562439 0.27962112 211 33534550 39 10 20 1361
-0.61818284 -1.1793897 0.26655969 215 33534550 40 11 4 1358
-0.7286908 -1.0804709 0.25004265 234 33534550 41 12 44 1327
-0.70740664 -1.137005 0.24313948 229 33534550 42 13 1 1361
-0.66318953 -1.1591432 0.22932874 202 33534550 37 14 55 1355
-0.61663061 -1.1757295 0.21552682 197 33534550 36 15 37 1345
-0.74495083 -1.104539 0.20529486 230 33534550 42 16 1 1348
-0.70611012 -1.1343472 0.19278227 251 33534550 46 17 19 1350
-0.6630767 -1.1574926 0.17960042 236 33534550 43 18 31 1346
-0.61783004 -1.1762689 0.16612852 243 33534550 44 19 31 1339
-0.74589169 -1.1058924 0.15587398 215 33534550 39 20 32 1343
-0.73371983 -1.1782888 0.14868382 273 33534550 53 21 1 1396
-0.64020723 -1.1163508 0.12547845 295 33534550 49 22 61 1293
-0.62180054 -1.1822741 0.11778515 295 33534550 53 23 80 1341
-0.73373044 -1.0874112 0.10503811 285 33534550 49 24 17 1316
-0.69472623 -1.1150179 0.092625953 367 33534550 64 25 16 1317
-0.64854717 -1.130802 0.079433627 386 33534550 66 26 73 1306
-0.61571372 -1.1690164 0.068018317 308 33534550 54 27 62 1323
-0.7549299 -1.117651 0.058627237 354 33534550 65 28 1 1350
-0.70067167 -1.1236861 0.044878229 283 33534550 50 29 1 1325
-0.64812875 -1.1276087 0.032081366 432 33534550 73 30 27 1301
-0.60523224 -1.148095 0.019391423 394 33534550 66 31 40 1298
-0.73217285 -1.0838375 0.0091314893 314 33534550 54 32 4 1308
-0.71683693 -1.1486728 -0.0034266014 318 33534550 58 33 1 1354
-0.65539509 -1.1399281 -0.015698167 441 33534550 76 34 59 1315
-0.61803842 -1.1705548 -0.028397752 275 33534550 48 35 33 1324
-0.7329573 -1.0838565 -0.038855951 311 33534550 53 36 66 1309
-0.6832357 -1.0930449 -0.050420191 437 33534550 73 37 4 1290
-0.66660219 -1.1582975 -0.065057769 349 33534550 62 38 97 1338
-0.60826117 -1.1520854 -0.075780474 298 33534550 51 39 40 1305
-0.7090171 -1.0466825 -0.083902843 552 33534550 89 40 8 1267
-0.69710833 -1.1141132 -0.099578924 525 33534550 91 41 16 1318
-0.64441127 -1.1190152 -0.11024959 359 33534550 60 42 117 1296
-0.60811627 -1.1503031 -0.12347648 328 33534550 56 43 43 1307
-0.6960215 -1.0267258 -0.12805241 473 33534550 74 44 23 1247
-0.68566334 -1.0948442 -0.14554094 384 33534550 65 45 5 1300
-0.65247995 -1.1316559 -0.15962774 329 33534550 57 46 78 1316
-0.6188513 -1.1699175 -0.17476067 292 33534550 52 47 78 1335
-0.71214563 -1.0486187 -0.17789823 334 33534550 55 48 22 1280
-0.69439429 -1.1077107 -0.19615707 306 33534550 53 49 6 1322
-0.6432662 -1.114327 -0.20565331 264 33534550 45 50 62 1303
-0.61021322 -1.1528084 -0.22136359 270 33534550 47 51 44 1323
-1.0118371 -1.4870579 -0.3205834 373 33534550 125 52 1 1827
-0.87401545 -1.392679 -0.3089847 236 33534550 66 53 11 1673
-0.65412033 -1.1323078 -0.25864053 249 33534550 44 54 77 1333
-0.607301 -1.1473551 -0.27025557 232 33534550 41 55 53 1326
-1.0057944 -1.4764036 -0.38754901 358 33534550 120 56 31 1828
-0.98735744 -1.571453 -0.42079708 330 33534550 119 57 1 1903
-0.91878814 -1.5897534 -0.43506536 320 33534550 114 58 85 1887
-0.86432314 -1.6325946 -0.45715401 364 33534550 132 59 50 1903
-1.0291892 -1.5069547 -0.46830881 371 33534550 132 60 1 1884
-0.97130013 -1.5430255 -0.48622799 356 33534550 127 61 1 1887
-0.90972364 -1.5733719 -0.50388473 346 33534550 123 62 73 1886
-0.85932881 -1.6248065 -0.53021425 309 33534550 113 63 44 1913
-0.75227505 -1.0987909 0.4156515 177 33631870 34 0 1 1395
-0.70564264 -1.1198884 0.39729398 206 33631870 39 1 10 1382
-0.65922505 -1.1389145 0.38104665 141 33631870 26 2 35 1370
-0.63961756 -1.2077693 0.3817642 165 33631870 33 3 22 1419
-0.74061751 -1.082939 0.35441494 202 33631870 37 4 18 1359
-0.68418479 -1.0847842 0.33280569 194 33631870 34 5 5 1325
-0.67028713 -1.157001 0.33308834 177 33631870 34 6 56 1378
-0.61156738 -1.1519819 0.31177565 213 33631870 38 7 39 1341
-0.73086393 -1.0691177 0.29844013 202 33631870 36 8 38 1329
-0.73053378 -1.1592573 0.30141717 200 33631870 39 9 1 1403
-0.66242564 -1.1420063 0.2771557 200 33631870 36 10 34 1349
-0.63646072 -1.1963505 0.27127063 224 33631870 43 11 9 1382
-0.74860549 -1.0954396 0.25456488 198 33631870 36 12 41 1351
-0.69547397 -1.1026833 0.23670816 236 33631870 41 13 4 1325
-0.68216169 -1.1755106 0.23339066 195 33631870 37 14 46 1379
-0.629399 -1.1823797 0.21744974 223 33631870 41 15 32 1357
-0.73163867 -1.0705718 0.1998122 253 33631870 44 16 6 1312
-0.7067188 -1.1199489 0.19106865 258 33631870 46 17 31 1338
-0.67614114 -1.1636852 0.18120161 242 33631870 45 18 47 1358
-0.6418404 -1.2039782 0.17059501 238 33631870 45 19 54 1375
-0.73921287 -1.0816143 0.15308845 230 33631870 40 20 13 1319
-0.68361419 -1.0829576 0.13718107 294 33631870 49 21 25 1288
-0.67106521 -1.1536971 0.13013656 294 33631870 53 22 43 1341
-0.62904316 -1.1784365 0.11778515 298 33631870 54 23 65 1341
-0.72013503 -1.0532655 0.10216472 269 33631870 44 24 6 1280
-0.72073168 -1.141096 0.095157869 327 33631870 60 25 1 1353
-0.66751885 -1.1475081 0.080893353 374 33631870 66 26 69 1330
-0.63417441 -1.1863542 0.069252208 326 33631870 59 27 60 1347
-0.74145949 -1.0833179 0.057063844 363 33631870 63 28 3 1314
-0.72036934 -1.139641 0.045691121 235 33631870 43 29 1 1349
-0.66107726 -1.1339743 0.032377273 406 33631870 70 30 23 1313
-0.62924659 -1.1760986 0.019929245 383 33631870 68 31 38 1334
-0.74558741 -1.0892266 0.0092152636 384 33631870 67 32 18 1320
-0.72387159 -1.1442528 -0.0034266014 294 33631870 54 33 15 1354
-0.64424366 -1.1047887 -0.015268407 543 33631870 89 34 54 1279
-0.61387604 -1.145591 -0.027882989 286 33631870 48 35 37 1300
-0.72603381 -1.0595496 -0.038143545 336 33631870 55 36 50 1285
-0.70276552 -1.1090893 -0.051358238 415 33631870 72 37 1 1314
-0.66161257 -1.1334826 -0.063890815 409 33631870 71 38 106 1314
-0.6379512 -1.190569 -0.078567803 288 33631870 53 39 38 1353
-0.70187414 -1.0225685 -0.082313523 510 33631870 79 40 27 1243
-0.67829496 -1.0693967 -0.095952384 557 33631870 90 41 1 1270
-0.64523506 -1.1047157 -0.10922876 398 33631870 66 42 95 1284
-0.626459 -1.1676039 -0.12574384 353 33631870 62 43 28 1331
-0.70906663 -1.0322747 -0.12928466 478 33631870 76 44 25 1259
-0.68597716 -1.0805492 -0.14419749 420 33631870 70 45 10 1288
-0.67745 -1.1584781 -0.16399445 359 33631870 66 46 93 1352
-0.62601817 -1.1660982 -0.17476067 282 33631870 50 47 94 1335
-0.72530299 -1.0540189 -0.17956603 364 33631870 61 48 21 1292
-0.68844861 -1.0833973 -0.19259597 306 33631870 52 49 3 1298
-0.64410442 -1.1001331 -0.20375933 325 33631870 54 50 74 1291
-0.61167634 -1.1386204 -0.21935576 244 33631870 42 51 62 1311
-1.007531 -1.4613689 -0.3163721 371 33631870 121 52 19 1803
-0.96483773 -1.5166487 -0.33779618 318 33631870 106 53 18 1829
-0.64320272 -1.0978018 -0.25165549 251 33631870 42 54 90 1297
-0.63100821 -1.1746553 -0.27759281 240 33631870 45 55 64 1362
-1.0348203 -1.4991581 -0.39518127 382 33631870 133 56 40 1864
-0.99069428 -1.5554941 -0.41814357 314 33631870 112 57 14 1891
-0.91081107 -1.5538648 -0.4267652 325 33631870 111 58 73 1851
-0.86881089 -1.6169991 -0.45427123 331 33631870 118 59 74 1891
-1.0251882 -1.4814954 -0.46234313 388 33631870 134 60 1 1860
-0.98698658 -1.5468111 -0.48932004 352 33631870 127 61 1 1899
-0.92521018 -1.5777355 -0.50709081 322 33631870 116 62 59 1898
-0.86382943 -1.6093442 -0.52688831 296 33631870 107 63 64 1901
-0.77206105 -1.1129785 0.42280248 191 33728980 38 0 5 1419
-0.70631421 -1.1058514 0.39384428 180 33728980 34 1 35 1370
-0.66620088 -1.1348481 0.38104665 143 33728980 27 2 23 1370
-0.64701623 -1.2038219 0.3817642 193 33728980 39 3 12 1419
-0.74724835 -1.0783743 0.35441494 202 33728980 37 4 10 1359
-0.71585423 -1.1197107 0.34486204 188 33728980 35 5 3 1373
-0.67737371 -1.1528665 0.33308834 196 33728980 37 6 44 1378
-0.63523167 -1.1790322 0.32014546 224 33728980 42 7 34 1377
-0.73741019 -1.0646131 0.29844013 186 33728980 33 8 26 1329
-0.71870589 -1.1251228 0.29368302 219 33728980 41 9 1 1367
-0.68728489 -1.1682872 0.28455198 208 33728980 40 10 34 1385
-0.63819933 -1.1820688 0.26891518 185 33728980 35 11 17 1370
-0.7351861 -1.0617584 0.24778152 212 33728980 37 12 25 1315
-0.72766596 -1.1381861 0.24528325 223 33728980 42 13 7 1373
-0.67736405 -1.1509176 0.22932874 218 33728980 40 14 59 1355
-0.6310122 -1.168074 0.21552682 240 33728980 43 15 22 1345
-0.72469032 -1.0465614 0.19615711 237 33728980 39 16 7 1288
-0.71997714 -1.1255968 0.19278227 245 33728980 45 17 29 1350
-0.66515553 -1.1287763 0.17639802 253 33728980 44 18 54 1322
-0.63221812 -1.1685987 0.16612852 233 33728980 42 19 52 1339
-0.7322647 -1.0574604 0.15030292 250 33728980 42 20 27 1295
-0.70953882 -1.1088939 0.14101532 249 33728980 44 21 21 1324
-0.67206323 -1.139271 0.12897204 277 33728980 49 22 57 1329
-0.63626206 -1.1745546 0.11778515 293 33728980 53 23 75 1341
-0.75383109 -1.088158 0.10599589 261 33728980 46 24 18 1328
-0.72126549 -1.1265709 0.094313897 336 33728980 60 25 28 1341
-0.67454726 -1.1433908 0.080893353 348 33728980 62 26 58 1330
-0.64715624 -1.1929746 0.069869153 344 33728980 64 27 66 1359
-0.73442888 -1.0590448 0.056021586 360 33728980 60 28 1 1290
-0.71440822 -1.1150031 0.044878229 245 33728980 43 29 1 1325
-0.68023336 -1.1505498 0.032969087 335 33728980 60 30 12 1337
-0.61927551 -1.1405815 0.019391423 416 33728980 70 31 46 1298
-0.73174065 -1.0550504 0.0089639388 420 33728980 69 32 1 1284
-0.69849139 -1.0892819 -0.0032747579 309 33728980 52 33 1 1294
-0.66933441 -1.1317996 -0.015698167 360 33728980 62 34 58 1315
-0.63235641 -1.1628823 -0.028397752 281 33728980 49 35 45 1324
-0.75304341 -1.0846332 -0.039212156 347 33728980 60 36 42 1321
-0.70307755 -1.0946672 -0.050889213 413 33728980 70 37 14 1302
-0.66855502 -1.1294017 -0.063890815 384 33728980 66 38 99 1314
-0.61090761 -1.1234854 -0.074386805 325 33728980 53 39 45 1281
-0.72180808 -1.037903 -0.083902843 512 33728980 82 40 13 1267
-0.6848439 -1.0652146 -0.095952384 564 33728980 91 41 10 1270
-0.67028171 -1.1315976 -0.11229125 419 33728980 73 42 118 1320
-0.63932395 -1.17423 -0.12687752 337 33728980 61 43 36 1343
-0.71538717 -1.0279046 -0.12928466 451 33728980 71 44 36 1259
-0.69904709 -1.0863476 -0.14554094 407 33728980 69 45 16 1300
-0.666318 -1.1235638 -0.15962774 374 33728980 65 46 77 1316
-0.62747008 -1.1517881 -0.1731898 306 33728980 54 47 86 1323
-0.72496015 -1.0398005 -0.17789823 340 33728980 56 48 17 1280
-0.71436137 -1.1090828 -0.19793762 306 33728980 54 49 22 1334
-0.68109089 -1.1471049 -0.21322918 278 33728980 51 50 73 1351
-0.60166317 -1.103683 -0.21333225 262 33728980 43 51 64 1275
-1.0367746 -1.4842141 -0.32268903 382 33728980 129 52 30 1839
-0.99329919 -1.540435 -0.34444499 356 33728980 124 53 12 1865
-0.67999262 -1.144436 -0.26329723 201 33728980 37 54 74 1357
-0.63258088 -1.1604463 -0.27514705 239 33728980 43 55 44 1350
-1.0439994 -1.4927803 -0.39518127 364 33728980 126 56 50 1864
-0.98117828 -1.5198896 -0.41018316 359 33728980 123 57 27 1855
-0.95016068 -1.5984333 -0.44059879 330 33728980 120 58 55 1911
-0.87871629 -1.6116378 -0.45427123 333 33728980 119 59 75 1891
-1.0409318 -1.4846942 -0.46532598 349 33728980 122 60 1 1872
-0.99016231 -1.53099 -0.48622799 379 33728980 135 61 1 1887
-0.92896283 -1.5620898 -0.50388473 339 33728980 121 62 75 1886
-0.86265761 -1.583763 -0.52023637 311 33728980 109 63 56 1877
-0.74594218 -1.061361 0.40492502 172 33824930 32 0 14 1359
-0.71308625 -1.1014967 0.39384428 204 33824930 38 1 12 1370
-0.68494403 -1.1505475 0.3877219 131 33824930 25 2 21 1394
-0.64332271 -1.1795362 0.37530732 185 33824930 36 3 11 1395
-0.78047717 -1.1116946 0.3669329 204 33824930 40 4 6 1407
-0.7037617 -1.0860541 0.33581978 184 33824930 33 5 1 1337
-0.67251438 -1.1286824 0.32728711 193 33824930 35 6 56 1354
-0.64245415 -1.1751122 0.32014546 242 33824930 46 7 34 1377
-0.73721141 -1.0504966 0.2957454 187 33824930 32 8 23 1317
-0.70011783 -1.0813404 0.28337079 210 33824930 37 9 1 1319
-0.6583395 -1.1035345 0.26975939 206 33824930 35 10 23 1313
-0.63413334 -1.1574918 0.26420423 199 33824930 36 11 9 1346
-0.75522357 -1.0765228 0.25230378 226 33824930 40 12 50 1339
-0.71537387 -1.1039742 0.23885193 230 33824930 41 13 13 1337
-0.678352 -1.1365842 0.22729778 204 33824930 37 14 59 1343
-0.64955491 -1.1849537 0.21937266 231 33824930 43 15 23 1369
-0.74472117 -1.0615128 0.1998122 242 33824930 42 16 1 1312
-0.7204091 -1.111192 0.19106865 234 33824930 42 17 22 1338
-0.69037044 -1.1553003 0.18120161 259 33824930 48 18 47 1358
-0.63364655 -1.1542594 0.16463968 218 33824930 38 19 56 1327
-0.75243026 -1.0724615 0.15308845 228 33824930 40 20 21 1319
-0.70334464 -1.0844978 0.13845915 261 33824930 44 21 21 1300
-0.69130355 -1.1556247 0.13130111 304 33824930 56 22 60 1353
-0.643457 -1.1706284 0.11778515 285 33824930 51 23 72 1341
-0.7604937 -1.0835121 0.10599589 234 33824930 41 24 21 1328
-0.72816443 -1.1221242 0.094313897 328 33824930 59 25 17 1341
