# .PCD v0.7 - Point Cloud Data file format
VERSION 0.7
FIELDS x y z intensity t reflectivity ring noise range
SIZE 4 4 4 4 4 2 1 2 4
TYPE F F F F U U U U U
COUNT 1 1 1 1 1 1 1 1 1
WIDTH 785
HEIGHT 1
VIEWPOINT 0 0 0 1 0 0 0
POINTS 785
DATA ascii
1.4212832 -1.120208 0.24364811 331 10944720 110 18 80 1826
1.4671016 -1.0717126 0.22717051 310 10944720 104 19 53 1831
1.2747631 -1.1654882 0.20183535 401 10944720 121 20 3 1739
1.3761489 -1.1690426 0.19341677 440 10944720 145 21 14 1816
1.4041477 -1.1077756 0.17438883 388 10944720 125 22 81 1797
1.4834853 -1.0849124 0.16205338 320 10944720 109 23 123 1845
1.2945641 -1.1840483 0.1404765 365 10944720 113 24 1 1760
1.3567247 -1.1531534 0.12554087 360 10944720 115 25 24 1785
1.3995363 -1.1042167 0.10862822 363 10944720 116 26 117 1786
1.4721223 -1.0779437 0.093930058 316 10944720 105 27 105 1827
1.2777435 -1.1698109 0.075303435 393 10944720 118 28 1 1734
1.3558638 -1.1532371 0.060323119 310 10944720 98 29 1 1781
1.4249744 -1.1264677 0.044805408 289 10944720 95 30 44 1817
1.4630268 -1.0721076 0.027100187 328 10944720 108 31 66 1814
1.2921329 -1.1831092 0.012231168 304 10944720 93 32 38 1752
1.3417466 -1.1420773 -0.0044591371 294 10944720 91 33 30 1762
1.4173251 -1.1207021 -0.021571549 292 10944720 95 34 79 1807
1.463773 -1.0741079 -0.038950391 287 10944720 95 35 58 1816
1.2917538 -1.1839231 -0.052035511 309 10944720 95 36 134 1753
1.3642225 -1.1629343 -0.070119239 311 10944720 100 37 22 1794
1.4144974 -1.1194295 -0.087813407 336 10944720 110 38 134 1806
1.4560238 -1.0683825 -0.10504742 309 10944720 101 39 77 1809
1.2841475 -1.1788089 -0.11568924 364 10944720 111 40 61 1747
1.3638711 -1.1637037 -0.13584439 329 10944720 106 41 50 1798
1.3779193 -1.0911077 -0.15006195 345 10944720 107 42 163 1764
1.4722451 -1.0815111 -0.17335832 142 10944720 48 43 54 1835
1.2738984 -1.1702201 -0.17857508 386 10944720 117 44 27 1739
1.3541819 -1.1563762 -0.20062259 288 10944720 92 45 31 1792
1.3783747 -1.092643 -0.21493946 337 10944720 106 46 112 1772
1.5553403 -1.1431381 -0.25487569 55 10944720 21 47 104 1947
1.3000557 -1.1962584 -0.24794564 384 10944720 122 48 43 1784
1.3456584 -1.1501135 -0.26559845 245 10944720 78 49 37 1790
1.32347 -1.0502487 -0.2700482 33 10944720 10 50 60 1711
1.4415656 -1.0601366 -0.30368474 305 10944720 101 51 103 1815
1.2182593 -1.1229969 -0.29531571 540 10944720 153 52 52 1683
1.2941673 -1.1072389 -0.320066 45 10944720 14 53 69 1733
1.3282986 -1.0547607 -0.33547598 409 10944720 122 54 149 1729
1.4622651 -1.0753198 -0.37786862 246 10944720 85 55 71 1854
1.2783703 -1.1797287 -0.37737268 54 10944720 17 56 85 1780
1.2762413 -1.09306 -0.38099492 487 10944720 145 57 7 1723
1.3554457 -1.0767418 -0.41016492 341 10944720 108 58 128 1779
1.4317994 -1.0531083 -0.43985757 364 10944720 122 59 98 1831
1.2201732 -1.1286671 -0.42654881 436 10944720 128 60 1 1716
1.3222051 -1.134348 -0.46458352 342 10944720 111 61 4 1803
1.3775926 -1.0947663 -0.48785445 369 10944720 123 62 101 1826
1.4346759 -1.0542984 -0.51358443 333 10944720 114 63 87 1853
1.2873217 -1.1935161 0.5479449 248 11043530 84 0 11 1839
1.2396622 -1.0644933 0.4904367 245 11043530 71 1 30 1706
1.1832103 -0.9411869 0.43778646 164 11043530 41 2 24 1574
1.0822268 -0.79621297 0.37530732 356 11043530 69 3 29 1395
1.2770211 -1.1827648 0.47020611 447 11043530 145 4 1 1803
1.2104932 -1.0403639 0.41418609 230 11043530 63 5 1 1649
1.2283258 -0.97784448 0.39110082 209 11043530 55 6 64 1618
1.2000817 -0.88479477 0.35641468 215 11043530 51 7 70 1533
1.2935318 -1.1975956 0.4062289 255 11043530 83 8 33 1809
1.2973605 -1.1141566 0.37618065 297 11043530 91 9 5 1751
1.3171552 -1.0497246 0.35358408 271 11043530 80 10 53 1721
1.355024 -1.0008569 0.33722353 304 11043530 90 11 26 1718
1.2678077 -1.1734096 0.3314431 444 11043530 137 12 25 1759
1.3379179 -1.1498797 0.32031527 278 11043530 89 13 4 1793
1.3956043 -1.1126837 0.30650505 321 11043530 105 14 86 1811
1.4106396 -1.0424689 0.2847518 290 11043530 91 15 51 1777
1.2736766 -1.1788827 0.26743159 452 11043530 139 16 1 1756
1.3373389 -1.1499097 0.25447261 445 11043530 141 17 5 1782
1.4515628 -1.1585833 0.25005287 270 11043530 95 18 55 1874
1.460498 -1.0806944 0.22717051 323 11043530 108 19 78 1831
1.2763348 -1.1813844 0.2032281 394 11043530 121 20 1 1751
1.3418121 -1.1541227 0.18958253 405 11043530 128 21 14 1780
1.3879931 -1.1089156 0.17322429 410 11043530 131 22 97 1785
1.4671954 -1.0868791 0.16099939 256 11043530 86 23 124 1833
1.2784977 -1.1838422 0.13951869 380 11043530 116 24 1 1748
1.3496236 -1.1614563 0.12554087 355 11043530 113 25 13 1785
1.4114499 -1.1277367 0.11008795 345 11043530 113 26 125 1810
1.4558549 -1.0798168 0.093313105 312 11043530 103 27 89 1815
1.2705415 -1.177629 0.075303435 406 11043530 122 28 1 1734
1.3760252 -1.1850133 0.061542448 293 11043530 97 29 1 1817
1.4274009 -1.1426872 0.045101319 295 11043530 99 30 30 1829
1.4564209 -1.0810643 0.027100187 336 11043530 111 31 58 1814
1.2760488 -1.1828578 0.012147394 307 11043530 93 32 46 1740
1.3347136 -1.1502886 -0.0044591371 308 11043530 96 33 22 1762
1.4291548 -1.1443777 -0.021858055 299 11043530 100 34 71 1831
1.4475261 -1.0759125 -0.038693011 298 11043530 97 35 84 1804
1.2932577 -1.1999854 -0.052391715 294 11043530 92 36 61 1765
1.3298293 -1.1477792 -0.068712167 303 11043530 94 37 38 1758
1.4263077 -1.1430788 -0.088980362 319 11043530 107 38 105 1830
1.4686706 -1.0915889 -0.10644108 279 11043530 94 39 67 1833
1.2681195 -1.1785151 -0.11489458 354 11043530 106 40 43 1735
1.3838693 -1.1955174 -0.1385643 302 11043530 102 41 63 1834
1.3898543 -1.1145017 -0.1521036 344 11043530 110 42 147 1788
1.4751656 -1.0976559 -0.17449202 145 11043530 50 43 63 1847
1.2666941 -1.1780146 -0.17857508 363 11043530 110 44 31 1739
1.3290201 -1.1490655 -0.19793569 301 11043530 94 45 31 1768
1.4087995 -1.130906 -0.22076175 308 11043530 102 46 106 1820
1.4433275 -1.0745134 -0.23759598 189 11043530 62 47 123 1815
1.2753007 -1.1880127 -0.24461006 372 11043530 115 48 55 1760
1.3296025 -1.1505833 -0.26381791 343 11043530 108 49 3 1778
1.3262376 -1.0657723 -0.27194217 60 11043530 18 50 73 1723
1.4350336 -1.0689619 -0.30368474 267 11043530 88 51 76 1815
1.2199829 -1.1385111 -0.29742137 417 11043530 120 52 27 1695
1.278435 -1.107437 -0.31784976 50 11043530 15 53 63 1721
1.3126278 -1.0555142 -0.33314764 449 11043530 132 54 154 1717
1.370845 -1.0211103 -0.35585687 404 11043530 123 55 105 1746
1.253969 -1.1715385 -0.3722845 66 11043530 20 56 100 1756
1.2606689 -1.0932032 -0.37834144 486 11043530 142 57 3 1711
1.3579117 -1.0923574 -0.41293165 305 11043530 98 58 97 1791
1.4439931 -1.0757926 -0.44562304 371 11043530 128 59 80 1855
1.2132249 -1.1361327 -0.42654881 552 11043530 163 60 1 1716
1.2977128 -1.1272323 -0.45839936 348 11043530 110 61 10 1779
1.3618404 -1.0959485 -0.48464841 345 11043530 114 62 104 1814
1.4374288 -1.0699661 -0.51691037 320 11043530 111 63 82 1865
1.2799741 -1.2013925 0.5479449 266 11140240 90 0 18 1839
1.2417809 -1.0796206 0.49388641 271 11140240 80 1 31 1718
1.141507 -0.91950631 0.42443588 176 11140240 41 2 53 1526
1.0958554 -0.81665063 0.3817642 260 11140240 52 3 16 1419
1.2612889 -1.1826543 0.46707663 468 11140240 150 4 1 1791
1.2391361 -1.0782709 0.42624244 238 11140240 69 5 1 1697
1.2404333 -0.99997902 0.39690208 219 11140240 59 6 74 1642
1.2133328 -0.90610862 0.36199453 232 11140240 56 7 64 1557
1.2946908 -1.2135067 0.4089236 465 11140240 154 8 1 1821
1.317032 -1.145166 0.3839148 322 11140240 103 9 7 1787
1.3381066 -1.0799135 0.36098039 254 11140240 78 10 39 1757
1.358279 -1.0162011 0.33957902 368 11140240 110 11 14 1730
1.2519842 -1.1731087 0.329182 461 11140240 141 12 8 1747
1.3308371 -1.1580673 0.32031527 551 11140240 177 13 1 1793
1.4163569 -1.1435143 0.31259793 370 11140240 126 14 78 1847
1.4042166 -1.0511048 0.2847518 292 11140240 92 15 29 1777
1.2664192 -1.1866757 0.26743159 440 11140240 136 16 1 1756
1.3213001 -1.1502953 0.25275898 453 11140240 142 17 23 1770
1.3704325 -1.1076618 0.23724335 486 11140240 154 18 64 1778
1.4443114 -1.0824943 0.22568169 354 11140240 117 19 73 1819
1.2690619 -1.1891936 0.2032281 396 11140240 121 20 14 1751
1.3616993 -1.185842 0.19341677 394 11140240 130 21 5 1816
1.3997332 -1.1324353 0.17555337 429 11140240 141 22 93 1809
1.4604988 -1.0958612 0.16099939 421 11140240 141 23 120 1833
1.2712097 -1.1916647 0.13951869 364 11140240 111 24 1 1748
1.3334466 -1.161852 0.1246969 351 11140240 110 25 15 1773
1.4045037 -1.1363759 0.11008795 334 11140240 109 26 107 1810
1.468365 -1.1031259 0.094546996 334 11140240 113 27 89 1839
1.2632918 -1.1854026 0.075303435 398 11140240 120 28 1 1734
1.3416098 -1.1697888 0.060323119 280 11140240 89 29 4 1781
1.4110436 -1.1438695 0.044805408 265 11140240 87 30 46 1817
1.4401697 -1.0827699 0.026920913 327 11140240 106 31 57 1802
1.2950172 -1.2152996 0.012398719 307 11140240 97 32 35 1776
1.345714 -1.1742358 -0.0045198747 300 11140240 96 33 36 1786
1.3941455 -1.1304532 -0.021428294 314 11140240 101 34 108 1795
1.4696511 -1.1064214 -0.039465152 292 11140240 99 35 57 1840
1.2946128 -1.2161105 -0.05274792 302 11140240 95 36 87 1777
1.3317907 -1.1638074 -0.069181189 306 11140240 96 37 17 1770
1.3820404 -1.1215975 -0.086646453 285 11140240 90 38 117 1782
1.4523742 -1.0933748 -0.10574425 301 11140240 100 39 50 1821
1.2521436 -1.178069 -0.11409991 357 11140240 106 40 52 1723
1.3494879 -1.1803529 -0.13584439 308 11140240 99 41 49 1798
1.3829896 -1.1230087 -0.1521036 316 11140240 101 42 154 1788
1.4779429 -1.1138768 -0.17562568 231 11140240 80 43 84 1859
1.2681328 -1.1939471 -0.17980735 371 11140240 114 44 42 1751
1.3398894 -1.1729071 -0.20062259 302 11140240 97 45 34 1792
1.3833482 -1.1245023 -0.21785061 228 11140240 74 46 123 1796
1.4462062 -1.090512 -0.23916687 393 11140240 131 47 117 1827
1.2593418 -1.1876621 -0.24294226 331 11140240 101 48 60 1748
1.3314434 -1.1665401 -0.26559845 349 11140240 112 49 16 1790
1.3012912 -1.0589315 -0.26815423 58 11140240 17 50 44 1699
1.4284475 -1.0777469 -0.30368474 281 11140240 93 51 88 1815
1.230149 -1.1622015 -0.30163264 356 11140240 105 52 47 1719
1.2538825 -1.0997078 -0.3134172 114 11140240 33 53 79 1697
1.3243834 -1.0784146 -0.33780432 378 11140240 115 54 132 1741
1.3833106 -1.0436537 -0.36074835 362 11140240 113 55 103 1770
1.187117 -1.1228019 -0.35447589 147 11140240 41 56 91 1672
1.2539374 -1.1009179 -0.37834144 438 11140240 128 57 19 1711
1.3421303 -1.0932941 -0.41016492 250 11140240 79 58 94 1779
1.40947 -1.063583 -0.43697485 388 11140240 128 59 104 1819
1.164055 -1.1035712 -0.41163453 613 11140240 168 60 1 1656
1.2907718 -1.1351737 -0.45839936 336 11140240 106 61 8 1779
1.3640543 -1.1115891 -0.48785445 349 11140240 116 62 95 1826
1.4032172 -1.0579425 -0.5069325 327 11140240 109 63 91 1829
1.2808824 -1.2171142 0.55152035 485 11238330 166 0 1 1851
1.2782693 -1.1251901 0.5111351 271 11238330 86 1 40 1778
1.1537075 -0.94106454 0.43111116 167 11238330 40 2 39 1550
1.1553969 -0.87209934 0.40436336 189 11238330 43 3 31 1503
1.2372044 -1.1744198 0.46081764 479 11238330 150 4 1 1767
1.2237813 -1.0781754 0.42322835 228 11238330 65 5 2 1685
1.2793757 -1.0443888 0.41140518 222 11238330 64 6 85 1702
1.2449832 -0.94169939 0.37315428 264 11238330 68 7 63 1605
1.261773 -1.1972811 0.40083945 386 11238330 123 8 14 1785
1.3275741 -1.1687139 0.38907093 328 11238330 108 9 1 1811
1.3405488 -1.0955352 0.36344582 268 11238330 84 10 42 1769
1.3426399 -1.0174097 0.33722353 296 11238330 87 11 15 1718
1.2533128 -1.1888793 0.3314431 454 11238330 140 12 3 1759
1.2971288 -1.142796 0.31388396 436 11238330 135 13 1 1757
1.3726885 -1.1222403 0.30447412 353 11238330 114 14 77 1799
1.3788631 -1.0453889 0.28090596 330 11238330 101 15 37 1753
1.2677184 -1.2025863 0.26925915 439 11238330 137 16 1 1768
1.3142172 -1.158381 0.25275898 467 11238330 146 17 1 1770
1.3728133 -1.1235822 0.23884453 427 11238330 137 18 82 1790
1.4281579 -1.0841364 0.22419284 398 11238330 130 19 71 1807
1.2617413 -1.1969581 0.2032281 401 11238330 123 20 1 1751
1.3096486 -1.1547197 0.18702635 363 11238330 112 21 10 1756
1.3835194 -1.1334337 0.17438883 430 11238330 139 22 73 1797
1.4251957 -1.0831038 0.15783736 458 11238330 148 23 132 1797
1.2551974 -1.1912081 0.13856089 362 11238330 109 24 9 1736
1.3173159 -1.1620932 0.12385292 358 11238330 111 25 34 1761
1.3882394 -1.1373814 0.10935809 300 11238330 97 26 129 1798
1.4234201 -1.0830874 0.092079215 308 11238330 99 27 97 1791
1.2473025 -1.1848748 0.074782304 393 11238330 117 28 1 1722
1.3433977 -1.1859359 0.060729563 320 11238330 103 29 1 1793
1.4039984 -1.152506 0.044805408 315 11238330 104 30 26 1817
1.4239528 -1.0843171 0.026741639 310 11238330 99 31 72 1790
1.2788364 -1.2149577 0.012314944 323 11238330 100 32 35 1764
1.3294904 -1.174526 -0.0044895057 303 11238330 95 33 32 1774
1.3779093 -1.1313719 -0.021285042 283 11238330 90 34 88 1783
1.434214 -1.0935948 -0.038693011 296 11238330 96 35 63 1804
1.2871265 -1.2240311 -0.05274792 311 11238330 98 36 71 1777
1.3515662 -1.1957936 -0.070588268 301 11238330 98 37 26 1806
1.4121729 -1.1604958 -0.088980362 286 11238330 96 38 113 1830
1.4361117 -1.0950022 -0.10504742 295 11238330 97 39 71 1809
1.2448915 -1.1857299 -0.11409991 369 11238330 109 40 54 1723
1.3243039 -1.1727451 -0.13403112 278 11238330 87 41 53 1774
1.3668376 -1.1238797 -0.15108278 329 11238330 104 42 156 1776
1.404609 -1.0721843 -0.16768993 337 11238330 106 43 70 1775
1.2521425 -1.1934702 -0.17857508 361 11238330 109 44 40 1739
1.3505156 -1.1969248 -0.20330951 306 11238330 101 45 31 1816
1.449995 -1.1935288 -0.22949518 114 11238330 41 46 111 1892
1.4583972 -1.1138067 -0.24230863 142 11238330 49 47 141 1851
1.260626 -1.2035732 -0.24461006 349 11238330 108 48 37 1760
1.3065052 -1.1589378 -0.26203737 423 11238330 132 49 1 1766
1.3679286 -1.1271797 -0.28330597 71 11238330 23 50 48 1795
1.4406085 -1.1008582 -0.3077004 279 11238330 94 51 82 1839
1.2059197 -1.1533965 -0.29742137 410 11238330 118 52 41 1695
1.3352983 -1.1856869 -0.3355799 87 11238330 29 53 67 1817
1.3631548 -1.1239653 -0.34944606 290 11238330 94 54 122 1801
1.3955503 -1.0663879 -0.36563987 296 11238330 95 55 73 1794
1.2733794 -1.2192805 -0.38246086 98 11238330 32 56 114 1804
1.2646524 -1.1241413 -0.38364843 502 11238330 151 57 13 1735
1.3263891 -1.0940787 -0.40739822 420 11238330 131 58 108 1767
1.4214276 -1.0863581 -0.44274029 414 11238330 141 59 92 1843
1.1824195 -1.1348383 -0.42058307 588 11238330 168 60 1 1692
1.3097609 -1.1662037 -0.46767557 350 11238330 115 61 1 1815
1.3482889 -1.1125779 -0.48464841 363 11238330 119 62 114 1814
1.4150267 -1.0805274 -0.51358443 329 11238330 113 63 73 1853
1.223858 -1.1773026 0.53006738 523 11335910 165 0 1 1779
1.3056631 -1.1635998 0.52493399 309 11335910 103 1 21 1826
1.1834598 -0.97748709 0.4444617 180 11335910 46 2 35 1598
1.1683878 -0.89321107 0.41082028 201 11335910 47 3 34 1527
1.2633868 -1.2140973 0.47333559 445 11335910 147 4 1 1815
1.2344788 -1.1011276 0.42925656 232 11335910 68 5 1 1709
1.2460186 -1.0299631 0.40270334 209 11335910 58 6 85 1666
1.2391816 -0.94932073 0.37315428 241 11335910 62 7 47 1605
1.2291039 -1.180698 0.39275527 360 11335910 110 8 6 1749
1.2941309 -1.1534439 0.38133678 314 11335910 99 9 9 1775
1.3066579 -1.0812784 0.35604951 303 11335910 91 10 34 1733
1.3270376 -1.0184649 0.33486807 276 11335910 80 11 27 1706
1.2544945 -1.2047099 0.33370423 492 11335910 154 12 1 1771
1.3077146 -1.1664523 0.3181715 422 11335910 134 13 1 1781
1.4022176 -1.160809 0.31259793 339 11335910 116 14 82 1847
1.3724227 -1.0538298 0.28090596 354 11335910 109 15 38 1753
1.2517614 -1.2021272 0.26743159 439 11335910 135 16 1 1756
1.2982231 -1.1585151 0.25104538 443 11335910 137 17 3 1758
1.3658934 -1.1319845 0.23884453 435 11335910 139 18 68 1790
1.4592382 -1.1219096 0.23014818 339 11335910 117 19 59 1855
1.2629696 -1.2129334 0.20462088 389 11335910 121 20 7 1763
1.3203411 -1.1786255 0.18958253 364 11335910 115 21 16 1780
1.3581543 -1.1266507 0.17205976 387 11335910 122 22 83 1773
1.4279958 -1.0991193 0.15889138 348 11335910 114 23 123 1809
1.2564903 -1.2071747 0.13951869 360 11335910 110 24 13 1748
1.3012328 -1.1621804 0.12300895 346 11335910 106 25 32 1749
1.3904529 -1.1535258 0.11008795 342 11335910 112 26 110 1810
1.42624 -1.0991162 0.09269616 302 11335910 98 27 97 1803
1.2400088 -1.1925058 0.074782304 399 11335910 118 28 1 1722
1.3360957 -1.1941564 0.060729563 297 11335910 95 29 1 1793
1.3969003 -1.1610991 0.044805408 275 11335910 91 30 43 1817
1.4172728 -1.0930339 0.026741639 315 11335910 101 31 65 1790
1.2800062 -1.2311 0.012398719 316 11335910 100 32 32 1776
1.3133144 -1.1746615 -0.0044591371 291 11335910 90 33 40 1762
1.4263018 -1.1858323 -0.022144562 268 11335910 92 34 80 1855
1.408486 -1.0877086 -0.038178246 304 11335910 96 35 61 1780
1.2882328 -1.2402247 -0.053104121 344 11335910 110 36 93 1789
1.2995455 -1.164062 -0.068243138 293 11335910 89 37 40 1746
1.3773859 -1.1461394 -0.08722993 315 11335910 101 38 130 1794
1.4009207 -1.0818273 -0.10295692 297 11335910 93 39 82 1773
1.2548313 -1.2099684 -0.11568924 372 11335910 113 40 46 1747
1.3170831 -1.1808488 -0.13403112 299 11335910 94 41 60 1774
1.378293 -1.1475458 -0.15312444 325 11335910 105 42 164 1800
1.407455 -1.0880893 -0.16882361 337 11335910 108 43 84 1787
1.244796 -1.2011307 -0.17857508 386 11335910 117 44 42 1739
1.3253952 -1.1892613 -0.20062259 325 11335910 104 45 30 1792
1.4243444 -1.1871507 -0.22658403 168 11335910 59 46 105 1868
1.4797664 -1.1445704 -0.24702127 62 11335910 22 47 115 1887
1.2446725 -1.2030268 -0.24294226 353 11335910 108 48 48 1748
1.3081988 -1.1748619 -0.26381791 334 11335910 106 49 17 1778
1.3791837 -1.1507349 -0.28709391 138 11335910 46 50 61 1819
1.3776898 -1.0662311 -0.2956534 289 11335910 90 51 89 1767
1.1988199 -1.1607741 -0.29742137 473 11335910 136 52 53 1695
1.3279979 -1.1938579 -0.3355799 242 11335910 80 53 45 1817
1.3652691 -1.1398528 -0.35177439 262 11335910 86 54 110 1813
1.4168533 -1.0965012 -0.37297711 314 11335910 105 55 86 1830
1.2406127 -1.2025839 -0.37482861 392 11335910 123 56 64 1768
1.2229348 -1.1005656 -0.37303448 463 11335910 132 57 4 1687
1.292765 -1.079741 -0.3990981 474 11335910 142 58 133 1731
1.4147351 -1.0950594 -0.44274029 376 11335910 128 59 109 1843
1.1837705 -1.150172 -0.42356595 456 11335910 132 60 1 1704
1.3025806 -1.1742183 -0.46767557 326 11335910 107 61 5 1815
1.3591846 -1.1356589 -0.4910605 331 11335910 112 62 97 1838
1.3992496 -1.082136 -0.51025844 332 11335910 113 63 93 1841
1.2166111 -1.1847899 0.53006738 385 11433900 122 0 1 1779
1.2472984 -1.125393 0.50423563 281 11433900 86 1 28 1754
1.1774397 -0.9847303 0.4444617 169 11433900 43 2 40 1598
1.1994394 -0.92866552 0.42373407 203 11433900 50 3 21 1575
1.24761 -1.2137482 0.47020611 393 11433900 128 4 11 1803
1.2621812 -1.1398206 0.44131291 288 11433900 89 5 1 1757
1.2396754 -1.0375892 0.40270334 215 11433900 60 6 85 1666
1.2333333 -0.95690632 0.37315428 253 11433900 65 7 59 1605
1.2302192 -1.1963699 0.39545 396 11433900 123 8 20 1761
1.3131323 -1.1849172 0.38907093 311 11433900 102 9 15 1811
1.3360057 -1.1194459 0.36591125 348 11433900 110 10 24 1781
1.3672147 -1.0626934 0.34664539 289 11433900 90 11 12 1766
1.247079 -1.2123847 0.33370423 463 11433900 145 12 9 1771
1.3005328 -1.1744543 0.3181715 469 11433900 149 13 1 1781
1.3678772 -1.1465983 0.30650505 303 11433900 99 14 102 1811
1.375281 -1.0695024 0.28282887 393 11433900 122 15 33 1765
1.2358582 -1.2015179 0.26560405 435 11433900 132 16 1 1744
1.2910903 -1.1664591 0.25104538 420 11433900 130 17 16 1758
1.3498119 -1.1326994 0.23724335 440 11433900 139 18 68 1778
1.4241415 -1.1088959 0.22568169 295 11433900 98 19 67 1819
1.2298664 -1.1957344 0.20044258 398 11433900 119 20 12 1727
1.3130844 -1.1867048 0.18958253 397 11433900 126 21 23 1780
1.360361 -1.1426446 0.17322429 369 11433900 118 22 82 1785
1.4306525 -1.1152096 0.15994538 345 11433900 114 23 111 1821
1.2490597 -1.2148615 0.13951869 351 11433900 107 24 10 1748
1.302956 -1.1781712 0.12385292 345 11433900 107 25 30 1761
1.3558346 -1.1389234 0.10789835 331 11433900 104 26 107 1774
1.419469 -1.1078467 0.09269616 332 11433900 108 27 98 1803
1.2412584 -1.208455 0.075303435 404 11433900 122 28 1 1734
1.3376362 -1.2103789 0.061136004 308 11433900 100 29 1 1805
1.398928 -1.1773732 0.045101319 284 11433900 95 30 37 1829
1.4010832 -1.0943238 0.026562367 322 11433900 102 31 55 1778
1.2638307 -1.2305595 0.012314944 350 11433900 109 32 1 1764
1.2971872 -1.174643 -0.0044287685 323 11433900 99 33 30 1750
1.3731014 -1.1559234 -0.021428294 253 11433900 82 34 94 1795
1.3923352 -1.0889394 -0.037920866 309 11433900 97 35 64 1768
1.2462394 -1.2146183 -0.051679306 323 11433900 98 36 92 1741
1.2923785 -1.172014 -0.068243138 303 11433900 92 37 44 1746
1.3794935 -1.1622921 -0.087813407 314 11433900 102 38 114 1806
1.403693 -1.0977829 -0.10365375 297 11433900 95 39 56 1785
1.2302471 -1.2009174 -0.11409991 374 11433900 111 40 11 1723
1.2920927 -1.1728237 -0.13221785 307 11433900 94 41 54 1750
1.3438014 -1.1328616 -0.15006195 315 11433900 98 42 169 1764
1.4101584 -1.1040695 -0.1699573 319 11433900 103 43 71 1799
1.2459413 -1.217087 -0.17980735 381 11433900 117 44 45 1751
1.3004204 -1.1813352 -0.19793569 327 11433900 102 45 16 1768
1.3624154 -1.1497747 -0.21785061 326 11433900 105 46 134 1796
1.4165229 -1.1096108 -0.23759598 108 11433900 36 47 134 1815
1.211786 -1.1857083 -0.23793888 350 11433900 103 48 69 1712
1.3273066 -1.2068168 -0.26915956 204 11433900 67 49 22 1814
1.3449416 -1.1362344 -0.28141201 391 11433900 124 50 82 1783
1.4176793 -1.1111556 -0.30569258 195 11433900 65 51 73 1827
1.1832384 -1.1598383 -0.29531571 584 11433900 165 52 1 1683
1.2334281 -1.1226014 -0.3134172 473 11433900 136 53 15 1697
1.3492594 -1.1406087 -0.34944606 153 11433900 50 54 105 1801
1.3546194 -1.061692 -0.35830262 454 11433900 140 55 105 1758
1.1662488 -1.1444627 -0.35447589 622 11433900 174 56 78 1672
1.2334605 -1.1238123 -0.37834144 249 11433900 73 57 37 1711
1.2771996 -1.0801129 -0.3963314 436 11433900 129 58 134 1719
1.3896542 -1.0893465 -0.43697485 387 11433900 128 59 90 1819
1.2098371 -1.190017 -0.43549737 151 11433900 46 60 8 1752
1.2867869 -1.1743726 -0.46458352 278 11433900 90 61 1 1803
1.3168778 -1.114102 -0.47823629 335 11433900 107 62 117 1790
1.4016604 -1.0978106 -0.51358443 351 11433900 121 63 94 1853
1.2093185 -1.1922326 0.53006738 375 11531020 119 0 1 1779
1.2912856 -1.1795347 0.52493399 288 11531020 96 1 39 1826
1.2065606 -1.0217317 0.45781222 183 11531020 49 2 49 1646
1.2028137 -0.9431392 0.42696252 220 11531020 55 3 31 1587
1.3144237 -1.2945415 0.49837157 205 11531020 75 4 20 1911
1.2808812 -1.1710563 0.45035517 386 11531020 124 5 1 1793
1.2688184 -1.0752892 0.41430584 250 11531020 74 6 62 1714
1.245793 -0.97887772 0.37873417 272 11531020 72 7 57 1629
1.2395211 -1.2203033 0.40083945 372 11531020 118 8 19 1785
1.3144897 -1.2008568 0.39164898 297 11531020 99 9 7 1823
1.3380669 -1.1352202 0.36837667 355 11531020 114 10 48 1793
1.3421768 -1.0565068 0.34193447 311 11531020 94 11 25 1742
1.2228177 -1.2034806 0.329182 464 11531020 142 12 1 1747
1.3020159 -1.1903789 0.32031527 463 11531020 149 13 1 1793
1.3608161 -1.1549699 0.30650505 291 11531020 96 14 73 1811
1.3966095 -1.0999067 0.28859761 394 11531020 128 15 50 1801
1.2369152 -1.2173977 0.26743159 437 11531020 135 16 1 1756
1.2926725 -1.1823752 0.25275898 418 11531020 131 17 15 1770
1.3428364 -1.1409603 0.23724335 432 11531020 137 18 88 1778
1.4453608 -1.1397322 0.23014818 253 11531020 87 19 57 1855
1.2140118 -1.1948974 0.1990498 387 11531020 114 20 18 1715
1.3057781 -1.1947393 0.18958253 355 11531020 112 21 37 1780
1.3533242 -1.1509701 0.17322429 364 11531020 116 22 84 1785
1.4237827 -1.1239669 0.15994538 352 11531020 117 23 113 1821
1.2330585 -1.2141104 0.13856089 351 11531020 106 24 1 1736
1.2957023 -1.1861438 0.12385292 350 11531020 108 25 17 1761
1.3396969 -1.139461 0.10716849 330 11531020 102 26 108 1762
1.4126447 -1.1165355 0.09269616 325 11531020 106 27 91 1803
1.216743 -1.1992172 0.074261166 388 11531020 114 28 1 1710
1.294811 -1.1861587 0.059510227 328 11531020 101 29 1 1757
1.4008082 -1.1937156 0.045397226 282 11531020 96 30 28 1841
1.4131634 -1.1177874 0.026920913 314 11531020 102 31 65 1802
1.2477103 -1.2298673 0.012231168 322 11531020 99 32 7 1752
1.2899553 -1.1825804 -0.0044287685 341 11531020 104 33 2 1750
1.3659829 -1.1643268 -0.021428294 298 11531020 96 34 78 1795
1.3856274 -1.0974622 -0.037920866 292 11531020 91 35 58 1768
1.2387632 -1.2222422 -0.051679306 331 11531020 100 36 74 1741
1.2939956 -1.1880313 -0.068712167 303 11531020 94 37 45 1758
1.3723358 -1.1707346 -0.087813407 294 11531020 96 38 111 1806
1.4063218 -1.1138129 -0.10435058 296 11531020 96 39 62 1797
1.1973052 -1.1831944 -0.11171594 370 11531020 105 40 64 1687
1.2936826 -1.1888262 -0.13312449 327 11531020 101 41 46 1762
1.3641071 -1.1643732 -0.15312444 306 11531020 99 42 146 1800
1.4033574 -1.1127012 -0.1699573 312 11531020 101 43 64 1799
1.2214752 -1.2079227 -0.17734283 383 11531020 114 44 43 1727
1.2931473 -1.1892922 -0.19793569 329 11531020 103 45 34 1768
1.3462791 -1.1503747 -0.21639502 356 11531020 113 46 110 1784
1.4190081 -1.1256752 -0.23916687 231 11531020 77 47 113 1827
1.2213732 -1.2098473 -0.24127446 355 11531020 107 48 34 1736
1.3198767 -1.2149383 -0.26915956 137 11531020 45 49 46 1814
1.3199352 -1.1290604 -0.27762407 444 11531020 137 50 139 1759
1.3830351 -1.0977677 -0.29966909 65 11531020 21 51 69 1791
1.159328 -1.1504339 -0.29110444 603 11531020 166 52 4 1659
1.2525359 -1.1541233 -0.320066 474 11531020 142 53 37 1733
1.3064623 -1.1182467 -0.34013268 54 11531020 17 54 81 1753
1.3480794 -1.0699838 -0.35830262 378 11531020 117 55 75 1758
1.150885 -1.143332 -0.35193181 688 11531020 189 56 55 1660
1.2437464 -1.147229 -0.38364843 49 11531020 15 57 56 1735
1.2971565 -1.1107131 -0.40463153 369 11531020 114 58 99 1755
1.3920672 -1.1050954 -0.43985757 381 11531020 128 59 91 1831
1.1942762 -1.1892166 -0.43251452 45 11531020 14 60 25 1740
1.2199436 -1.1271664 -0.44293901 510 11531020 151 61 1 1719
1.3275815 -1.1372069 -0.48464841 350 11531020 115 62 92 1814
1.3858647 -1.0992255 -0.51025844 334 11531020 113 63 93 1841
1.2019804 -1.1996304 0.53006738 389 11626900 123 0 1 1779
1.3009005 -1.2030427 0.53183347 323 11626900 110 1 36 1850
1.2177695 -1.0441211 0.46448752 210 11626900 58 2 41 1670
1.1789019 -0.93612736 0.42050561 211 11626900 51 3 34 1563
1.2818444 -1.2780439 0.48898306 244 11626900 86 4 31 1875
1.2821959 -1.1867836 0.45336926 415 11626900 135 5 1 1805
1.2710334 -1.090637 0.41720644 250 11626900 75 6 71 1726
1.2854267 -1.0228387 0.39268386 271 11626900 77 7 53 1689
1.2237278 -1.2196313 0.39814472 362 11626900 114 8 7 1773
1.2726805 -1.1770692 0.38133678 543 11626900 171 9 1 1775
1.3488932 -1.1587139 0.37330753 358 11626900 118 10 46 1817
1.3540708 -1.0793912 0.34664539 278 11626900 87 11 13 1766
1.2070616 -1.202643 0.32692087 458 11626900 138 12 12 1735
1.2773575 -1.1823052 0.31602773 453 11626900 142 13 1 1769
1.3447338 -1.1555898 0.30447412 524 11626900 170 14 59 1799
1.3898343 -1.1084554 0.28859761 383 11626900 124 15 51 1801
1.2126192 -1.2082223 0.26377648 417 11626900 125 16 1 1732
1.2679641 -1.1741451 0.24933174 401 11626900 122 17 31 1746
1.3538414 -1.1646903 0.24044572 441 11626900 143 18 56 1802
1.3918171 -1.1114285 0.22270402 515 11626900 166 19 65 1795
1.2066572 -1.2023239 0.1990498 377 11626900 111 20 1 1715
1.2896694 -1.1946207 0.18830444 358 11626900 112 21 14 1768
1.3552868 -1.1670456 0.17438883 358 11626900 116 22 68 1797
1.4075227 -1.1252178 0.15889138 320 11626900 105 23 120 1809
1.2171139 -1.2132088 0.1376031 346 11626900 103 24 24 1724
1.2971796 -1.2022085 0.1246969 344 11626900 108 25 38 1773
1.3599085 -1.171108 0.10935809 335 11626900 108 26 129 1798
1.3776987 -1.1027162 0.090845324 305 11626900 95 27 105 1767
1.1923884 -1.1897249 0.073218912 405 11626900 115 28 1 1686
1.3138888 -1.2185472 0.060729563 324 11626900 104 29 1 1793
1.357126 -1.1709412 0.044213593 289 11626900 93 30 27 1793
1.3969134 -1.1189361 0.026741639 321 11626900 103 31 52 1790
1.2231523 -1.2205479 0.012063618 307 11626900 92 32 50 1728
1.3090613 -1.2149628 -0.0045198747 327 11626900 104 33 44 1786
1.3951489 -1.2040452 -0.022001307 285 11626900 97 34 81 1843
1.3695085 -1.0984371 -0.037663482 291 11626900 90 35 72 1756
1.2312404 -1.2298201 -0.051679306 332 11626900 101 36 89 1741
1.2866817 -1.1959487 -0.068712167 330 11626900 102 37 35 1758
1.3832676 -1.1948026 -0.088980362 293 11626900 98 38 97 1830
1.4088064 -1.1299163 -0.10504742 301 11626900 99 39 59 1809
1.1984876 -1.1989871 -0.1125106 358 11626900 103 40 50 1699
1.2863637 -1.1967417 -0.13312449 312 11626900 97 41 57 1762
1.3478907 -1.1649032 -0.1521036 327 11626900 105 42 177 1788
1.3871883 -1.1138116 -0.16882361 318 11626900 102 43 71 1787
1.2224762 -1.2238399 -0.17857508 360 11626900 109 44 40 1739
1.2858256 -1.1972044 -0.19793569 330 11626900 103 45 41 1768
1.3301872 -1.1508203 -0.21493946 340 11626900 107 46 121 1772
1.3935249 -1.1194596 -0.23602509 277 11626900 90 47 120 1803
1.1971444 -1.2004895 -0.23793888 364 11626900 107 48 28 1712
1.3384426 -1.2472856 -0.2745012 196 11626900 67 49 30 1850
1.3040253 -1.1293805 -0.2757301 406 11626900 124 50 110 1747
1.4316007 -1.1507049 -0.31171605 38 11626900 13 51 63 1863
1.1605817 -1.1658984 -0.29321009 503 11626900 140 52 8 1671
1.2195592 -1.1376529 -0.3134172 553 11626900 159 53 25 1697
1.2639916 -1.0954036 -0.33081928 48 11626900 14 54 63 1705
1.323175 -1.0635154 -0.35341111 452 11626900 136 55 104 1734
1.1603855 -1.1670041 -0.35701999 591 11626900 167 56 33 1684
1.2366837 -1.1548389 -0.38364843 61 11626900 18 57 45 1735
1.2814941 -1.1110026 -0.4018648 432 11626900 131 58 130 1743
1.3761815 -1.1063178 -0.43697485 383 11626900 127 59 110 1819
1.1623991 -1.1717665 -0.42356595 53 11626900 15 60 24 1704
1.1791335 -1.1029481 -0.43057075 577 11626900 161 61 1 1671
1.3118428 -1.1377548 -0.48144233 364 11626900 118 62 112 1802
1.3970723 -1.1221489 -0.51691037 345 11626900 120 63 77 1865
1.1945969 -1.206983 0.53006738 393 11726180 124 0 1 1779
1.2683235 -1.1874368 0.52148432 540 11726180 178 1 1 1814
1.2635654 -1.096911 0.48451331 251 11726180 76 2 49 1742
1.1911495 -0.95782852 0.42696252 224 11726180 56 3 23 1587
1.2250575 -1.2365071 0.47020611 362 11726180 118 4 9 1803
1.2918413 -1.2105129 0.45939746 490 11726180 164 5 1 1829
1.2467371 -1.0831419 0.41140518 252 11726180 73 6 78 1702
1.2791265 -1.0307066 0.39268386 296 11726180 85 7 68 1689
1.1997581 -1.2105062 0.39275527 374 11726180 114 8 12 1749
1.2654341 -1.1848561 0.38133678 404 11726180 127 9 1 1775
1.341758 -1.1669687 0.37330753 356 11726180 117 10 34 1817
1.3565781 -1.0950701 0.34900084 316 11726180 100 11 19 1778
1.207957 -1.2183958 0.329182 431 11726180 132 12 1 1747
1.2786946 -1.1981939 0.3181715 441 11726180 140 13 26 1781
1.3554628 -1.1793454 0.30853602 387 11726180 129 14 80 1823
1.4106516 -1.1392893 0.29436639 391 11726180 132 15 43 1837
1.2135328 -1.2240624 0.26560405 418 11726180 127 16 1 1744
1.2694008 -1.1900262 0.25104538 393 11726180 121 17 1 1758
1.3377017 -1.1651642 0.23884453 421 11726180 135 18 72 1790
1.4034891 -1.1349219 0.22568169 373 11726180 124 19 69 1819
1.2160398 -1.226634 0.20183535 354 11726180 107 20 4 1739
1.2649081 -1.1861877 0.18574826 361 11726180 110 21 18 1744
1.3300958 -1.1596422 0.17205976 342 11726180 108 22 91 1773
1.3727194 -1.1112691 0.15572935 314 11726180 99 23 124 1773
1.2096468 -1.220654 0.1376031 326 11726180 97 24 20 1724
1.2548606 -1.1773832 0.12132101 340 11726180 101 25 28 1725
1.3346411 -1.163687 0.10789835 307 11726180 97 26 121 1774
1.3988367 -1.1337868 0.09269616 297 11726180 97 27 109 1803
1.2019351 -1.2140583 0.074261166 385 11726180 113 28 1 1710
1.2714143 -1.1937495 0.059103783 333 11726180 101 29 1 1745
1.3770194 -1.2029234 0.045101319 300 11726180 100 30 44 1829
1.3900214 -1.1274863 0.026741639 317 11726180 102 31 59 1790
1.232524 -1.2450861 0.012231168 342 11726180 105 32 30 1752
1.2666007 -1.1901039 -0.0043983995 296 11726180 89 33 27 1738
1.3606277 -1.1888971 -0.021571549 284 11726180 93 34 77 1807
1.381368 -1.1219469 -0.038178246 282 11726180 89 35 61 1780
1.2321055 -1.2458804 -0.052035511 343 11726180 105 36 89 1753
1.2967843 -1.2202555 -0.069650218 303 11726180 96 37 31 1782
1.339821 -1.1717067 -0.086646453 299 11726180 95 38 127 1782
1.3925477 -1.1309868 -0.10435058 283 11726180 92 39 64 1797
1.1995209 -1.2148385 -0.11330526 355 11726180 104 40 54 1711
1.2615753 -1.1882042 -0.13131121 305 11726180 92 41 53 1738
1.3317196 -1.1652782 -0.15108278 302 11726180 95 42 156 1776
1.3617898 -1.1072295 -0.16655627 350 11726180 109 43 101 1763
1.2065601 -1.2228211 -0.17734283 395 11726180 118 44 32 1727
1.2697781 -1.1968923 -0.19659223 326 11726180 100 45 19 1756
1.3320609 -1.166809 -0.21639502 340 11726180 108 46 137 1784
1.377401 -1.1204816 -0.23445421 301 11726180 96 47 135 1791
1.2064345 -1.2247443 -0.24127446 397 11726180 120 48 37 1736
1.3048681 -1.2310437 -0.26915956 319 11726180 105 49 36 1814
1.3416183 -1.1764227 -0.28519994 270 11726180 88 50 86 1807
1.3419328 -1.0922519 -0.29364556 46 11726180 14 51 62 1755
1.186538 -1.2066925 -0.30163264 313 11726180 93 52 67 1719
1.2039814 -1.1370171 -0.31120095 588 11726180 167 53 50 1685
1.2130033 -1.0643185 -0.31917757 64 11726180 17 54 88 1645
1.3166244 -1.0716143 -0.35341111 434 11726180 131 55 88 1734
1.1614206 -1.1824687 -0.35956407 531 11726180 153 56 38 1696
1.1785488 -1.1141671 -0.36772755 65 11726180 18 57 46 1663
1.2658775 -1.1111418 -0.3990981 459 11726180 137 58 139 1731
1.3512999 -1.1000329 -0.43120936 365 11726180 118 59 105 1795
1.1877278 -1.2120845 -0.43549737 52 11726180 16 60 24 1752
1.1891817 -1.1261072 -0.43675485 518 11726180 149 61 1 1695
1.2874585 -1.1305226 -0.47503024 360 11726180 114 62 129 1778
1.3633264 -1.1088741 -0.5069325 361 11726180 121 63 97 1829
1.1951765 -1.2224811 0.53364289 390 11823350 125 0 1 1791
1.235988 -1.1714773 0.5111351 486 11823350 154 1 1 1778
1.3347306 -1.1731287 0.51455206 287 11823350 98 2 20 1850
1.2031742 -0.97971457 0.43341941 247 11823350 64 3 40 1611
1.2255502 -1.2522801 0.47333559 363 11823350 120 4 1 1815
1.2759625 -1.2104226 0.45638335 506 11823350 167 5 1 1817
1.2662971 -1.1138428 0.42010707 274 11823350 83 6 76 1738
1.2999065 -1.0606714 0.40105367 303 11823350 90 7 56 1725
1.2168494 -1.2429122 0.40083945 404 11823350 129 8 1 1785
1.2581402 -1.1925983 0.38133678 406 11823350 128 9 1 1775
1.3169446 -1.1596572 0.36837667 338 11823350 109 10 43 1793
1.340723 -1.0959265 0.34664539 369 11823350 115 11 29 1766
1.2004583 -1.2257848 0.329182 415 11823350 127 12 7 1747
1.2541867 -1.1897655 0.31388396 458 11823350 141 13 1 1757
1.3304517 -1.1720047 0.30447412 376 11823350 122 14 93 1799
1.3944653 -1.1404247 0.29244345 334 11823350 111 15 65 1825
1.1894028 -1.2145385 0.26194891 395 11823350 117 16 1 1720
1.2706898 -1.2059687 0.25275898 412 11823350 129 17 24 1770
1.3305272 -1.1733503 0.23884453 389 11823350 125 18 68 1790
1.3872861 -1.1359683 0.22419284 341 11823350 111 19 79 1807
1.1918119 -1.2170409 0.1990498 346 11823350 102 20 5 1715
1.2489527 -1.1857117 0.18447019 358 11823350 107 21 17 1732
1.3229554 -1.1677817 0.17205976 345 11823350 109 22 75 1773
1.3843639 -1.1348274 0.15783736 325 11823350 105 23 103 1797
1.1853992 -1.2109574 0.13568752 341 11823350 99 24 29 1700
1.2736498 -1.2097924 0.12385292 370 11823350 115 25 32 1761
1.3454348 -1.187708 0.10935809 313 11823350 101 26 117 1798
1.3918536 -1.1423485 0.09269616 310 11823350 101 27 96 1803
1.1860809 -1.212839 0.073740043 407 11823350 117 28 1 1698
1.2901437 -1.2263163 0.060323119 321 11823350 102 29 1 1781
1.3696126 -1.21135 0.045101319 277 11823350 93 30 41 1829
1.3830773 -1.1359941 0.026741639 330 11823350 106 31 72 1790
1.2080822 -1.235466 0.012063618 327 11823350 98 32 8 1728
1.2679693 -1.2061238 -0.0044287685 278 11823350 85 33 29 1750
1.3443199 -1.1892729 -0.021428294 292 11823350 94 34 72 1795
1.374458 -1.1304017 -0.038178246 316 11823350 100 35 66 1780
1.2328194 -1.2619971 -0.052391715 344 11823350 107 36 74 1765
1.2545447 -1.195107 -0.067774117 308 11823350 93 37 39 1734
1.3326063 -1.1799055 -0.086646453 309 11823350 98 38 140 1782
1.3393188 -1.101463 -0.10086642 270 11823350 82 39 80 1737
1.1920443 -1.2221758 -0.11330526 347 11823350 101 40 45 1711
1.2715809 -1.2124373 -0.13312449 315 11823350 98 41 48 1762
1.3155948 -1.165499 -0.15006195 322 11823350 100 42 159 1764
1.364193 -1.1231575 -0.16768993 301 11823350 95 43 67 1775
1.1990343 -1.2302014 -0.17734283 377 11823350 112 44 43 1727
1.2710372 -1.2128932 -0.19793569 349 11823350 109 45 5 1768
1.3248764 -1.1749604 -0.21639502 330 11823350 105 46 116 1784
1.3429523 -1.1062204 -0.22974157 336 11823350 103 47 144 1755
1.1823224 -1.2150899 -0.23793888 373 11823350 109 48 24 1712
1.2629626 -1.2062413 -0.26203737 354 11823350 110 49 24 1766
1.3166519 -1.1688987 -0.28141201 356 11823350 113 50 96 1783
1.2986871 -1.0703671 -0.28561425 42 11823350 12 51 65 1707
1.2367296 -1.2732706 -0.3163721 213 11823350 69 52 64 1803
1.2140312 -1.160683 -0.31563351 576 11823350 168 53 18 1709
1.2504542 -1.1108322 -0.33081928 65 11823350 19 54 70 1705
1.3100243 -1.0796727 -0.35341111 496 11823350 149 55 98 1734
1.1459771 -1.181156 -0.35701999 704 11823350 199 56 43 1684
1.2393284 -1.1861113 -0.38895535 63 11823350 19 57 49 1759
1.2415795 -1.1033751 -0.3935647 497 11823350 145 58 136 1707
1.3445247 -1.1083037 -0.43120936 339 11823350 109 59 106 1795
1.1802683 -1.2193495 -0.43549737 50 11823350 15 60 28 1752
1.1989895 -1.1494306 -0.44293901 419 11823350 124 61 4 1719
1.2891397 -1.1460842 -0.47823629 369 11823350 118 62 119 1790
1.3564968 -1.1172185 -0.5069325 323 11823350 108 63 77 1829
1.1956104 -1.2380313 0.53721839 397 11921840 129 0 1 1803
1.245363 -1.194954 0.51803452 420 11921840 136 1 1 1802
1.3016747 -1.158309 0.50453913 244 11921840 80 2 57 1814
1.1882229 -0.97972614 0.43019098 221 11921840 56 3 40 1599
1.2178432 -1.2597764 0.47333559 341 11921840 112 4 48 1815
1.2517563 -1.2021381 0.45035517 402 11921840 129 5 1 1793
1.294222 -1.1525679 0.43170959 308 11921840 98 6 80 1786
1.2753792 -1.0537598 0.39547381 307 11921840 89 7 40 1701
1.201071 -1.2419494 0.39814472 381 11921840 120 8 1 1773
1.2507989 -1.2002957 0.38133678 404 11921840 127 9 2 1775
1.3185704 -1.1755311 0.3708421 298 11921840 97 10 58 1805
1.3430377 -1.111635 0.34900084 373 11921840 118 11 3 1778
1.2011085 -1.2415978 0.3314431 397 11921840 123 12 32 1759
1.2553787 -1.2056168 0.31602773 436 11921840 137 13 1 1769
1.296756 -1.1565301 0.29838124 387 11921840 120 14 88 1763
1.3783187 -1.1414047 0.29052055 313 11921840 103 15 48 1813
1.1819282 -1.2218137 0.26194891 398 11921840 118 16 1 1720
1.2547017 -1.2055141 0.25104538 379 11921840 117 17 18 1758
1.2966887 -1.1577303 0.23404096 387 11921840 119 18 65 1754
1.3436247 -1.1140585 0.21823753 333 11921840 103 19 88 1759
1.2174691 -1.2585979 0.20462088 326 11921840 101 20 1 1763
1.2416538 -1.1933528 0.18447019 367 11921840 110 21 37 1732
1.3068596 -1.1679186 0.17089522 346 11921840 107 22 65 1761
1.3957704 -1.1585697 0.15994538 319 11921840 106 23 123 1821
1.2028913 -1.2440054 0.13856089 354 11921840 107 24 1 1736
1.2489462 -1.2009907 0.12216499 368 11921840 111 25 2 1737
1.3113296 -1.1719956 0.10716849 299 11921840 93 26 124 1762
1.4032516 -1.1661867 0.093930058 285 11921840 95 27 105 1827
1.1869463 -1.2287164 0.074261166 384 11921840 112 28 1 1710
1.2825949 -1.2342094 0.060323119 319 11921840 101 29 1 1781
1.3442799 -1.2037257 0.0445095 298 11921840 97 30 44 1805
1.3576306 -1.1291144 0.026383091 314 11921840 98 31 56 1766
1.2171521 -1.2601173 0.012231168 342 11921840 105 32 27 1752
1.2778322 -1.2305287 -0.0044895057 325 11921840 102 33 45 1774
1.3548738 -1.2135102 -0.021714803 314 11921840 104 34 97 1819
1.3767151 -1.1464914 -0.038435627 329 11921840 106 35 61 1792
1.2000659 -1.2436435 -0.051323101 335 11921840 100 36 65 1729
1.2644502 -1.2194297 -0.068712167 326 11921840 101 37 29 1758
1.3342663 -1.1960604 -0.08722993 325 11921840 104 38 154 1794
1.3509465 -1.1249921 -0.10226008 294 11921840 91 39 77 1761
1.2011379 -1.2467127 -0.11489458 371 11921840 112 40 25 1735
1.2727268 -1.2285268 -0.13403112 313 11921840 99 41 67 1774
1.3351212 -1.1974994 -0.15312444 326 11921840 105 42 168 1800
1.3664517 -1.1391565 -0.16882361 329 11921840 105 43 72 1787
1.1914635 -1.2375354 -0.17734283 367 11921840 109 44 51 1727
1.2721474 -1.2289544 -0.19927913 351 11921840 111 45 34 1780
1.3176421 -1.1830676 -0.21639502 348 11921840 111 46 113 1784
1.3178673 -1.0991995 -0.2265998 279 11921840 84 47 134 1731
1.1748445 -1.2223216 -0.23793888 379 11921840 111 48 49 1712
1.2726003 -1.2304659 -0.26559845 327 11921840 105 49 25 1790
1.3094549 -1.1769556 -0.28141201 359 11921840 114 50 98 1783
1.3011782 -1.0858959 -0.28762206 62 11921840 18 51 69 1719
1.2207147 -1.2723104 -0.31426647 307 11921840 98 52 55 1791
1.1814635 -1.1435041 -0.3089847 523 11921840 146 53 25 1673
1.1823457 -1.0633798 -0.31452084 176 11921840 46 54 106 1621
1.294355 -1.0801634 -0.35096535 493 11921840 146 55 111 1722
1.1224796 -1.1712319 -0.35193181 681 11921840 188 56 47 1660
1.1731925 -1.1366893 -0.37038103 99 11921840 28 57 39 1675
1.234786 -1.1109725 -0.3935647 548 11921840 160 58 157 1707
1.3287562 -1.1090684 -0.42832664 280 11921840 89 59 92 1783
1.1807969 -1.2349696 -0.43848023 67 11921840 21 60 19 1764
1.2002347 -1.1648409 -0.44603106 467 11921840 140 61 1 1731
1.2992733 -1.1694449 -0.48464841 336 11921840 111 62 103 1814
1.3407613 -1.1181362 -0.5036065 353 11921840 117 63 100 1817
1.1958982 -1.2536325 0.5407939 373 12019940 123 0 1 1815
1.2050307 -1.17054 0.50423563 412 12019940 127 1 1 1754
1.3116702 -1.1817044 0.51121438 247 12019940 83 2 53 1838
1.2176769 -1.016627 0.44310477 224 12019940 61 3 28 1647
1.2100905 -1.2672251 0.47333559 393 12019940 129 4 1 1815
1.2443565 -1.2097961 0.45035517 281 12019940 90 5 1 1793
1.2957736 -1.1682847 0.43461019 248 12019940 80 6 93 1798
1.2957443 -1.0840325 0.40384361 320 12019940 96 7 55 1737
1.1853507 -1.2408402 0.39545 391 12019940 121 8 1 1761
1.2434105 -1.2079479 0.38133678 413 12019940 130 9 21 1775
1.3287687 -1.1993372 0.37577298 353 12019940 118 10 32 1829
1.3271734 -1.1122967 0.34664539 379 12019940 118 11 36 1766
1.1609 -1.2148628 0.3223986 414 12019940 121 12 17 1711
1.2479576 -1.213297 0.31602773 429 12019940 134 13 12 1769
1.2984133 -1.1723911 0.30041218 432 12019940 136 14 75 1775
1.3803655 -1.157451 0.29244345 368 12019940 122 15 29 1825
1.1826026 -1.2376176 0.26377648 376 12019940 113 16 1 1732
1.2557951 -1.2214712 0.25275898 381 12019940 119 17 21 1770
1.2807381 -1.1576899 0.23243977 341 12019940 103 18 93 1742
1.3732415 -1.1529069 0.22419284 346 12019940 113 19 56 1807
1.1932554 -1.2488096 0.20183535 335 12019940 101 20 30 1739
1.2514117 -1.2175902 0.18702635 362 12019940 112 21 41 1756
1.2908125 -1.1679022 0.16973069 337 12019940 103 22 77 1749
1.3611828 -1.1440392 0.15678336 324 12019940 103 23 105 1785
1.1787117 -1.2340629 0.13664532 345 12019940 101 24 12 1712
1.2587079 -1.2253309 0.12385292 339 12019940 105 25 12 1761
1.321877 -1.1960927 0.10862822 311 12019940 99 26 112 1786
1.3502216 -1.1361945 0.090845324 292 12019940 91 27 103 1767
1.1793846 -1.2359762 0.074261166 402 12019940 118 28 1 1710
1.2492259 -1.2169499 0.059103783 330 12019940 100 29 14 1745
1.3457564 -1.2200087 0.044805408 290 12019940 96 30 35 1817
1.3414991 -1.1296946 0.026203819 321 12019940 99 31 66 1754
1.1928301 -1.250198 0.012063618 329 12019940 98 32 48 1728
1.2530729 -1.2215929 -0.0044287685 340 12019940 104 33 17 1750
1.2940692 -1.1734391 -0.020855283 316 12019940 97 34 94 1747
1.3696544 -1.1549171 -0.038435627 311 12019940 100 35 46 1792
1.1924124 -1.2509836 -0.051323101 346 12019940 104 36 78 1729
1.2569441 -1.2271653 -0.068712167 324 12019940 100 37 16 1758
1.3091511 -1.1881149 -0.086062975 338 12019940 106 38 129 1770
1.3623354 -1.148705 -0.10365375 308 12019940 98 39 52 1785
1.1852111 -1.2453855 -0.11409991 390 12019940 116 40 46 1723
1.2480487 -1.2195873 -0.13221785 324 12019940 99 41 52 1750
1.3011934 -1.1815556 -0.15006195 322 12019940 100 42 156 1764
1.3685651 -1.1552253 -0.1699573 339 12019940 110 43 90 1799
1.1838477 -1.2448227 -0.17734283 394 12019940 117 44 43 1727
1.2390069 -1.2117244 -0.19524877 321 12019940 98 45 41 1744
1.3015441 -1.1831181 -0.21493946 325 12019940 102 46 126 1772
1.3928995 -1.1763493 -0.24073775 188 12019940 64 47 127 1839
1.1918688 -1.2553613 -0.24294226 378 12019940 115 48 30 1748
1.248065 -1.2216489 -0.26203737 320 12019940 100 49 38 1766
1.2583878 -1.1450925 -0.27194217 482 12019940 143 50 128 1723
1.4300395 -1.2083995 -0.31773955 56 12019940 20 51 60 1899
1.1885054 -1.2540524 -0.30794954 416 12019940 128 52 41 1755
1.224968 -1.2002554 -0.32228228 420 12019940 128 53 44 1745
1.2541369 -1.1419448 -0.33547598 93 12019940 28 54 83 1729
1.2877029 -1.0880849 -0.35096535 395 12019940 117 55 120 1722
1.1152718 -1.1780971 -0.35193181 606 12019940 167 56 25 1660
1.258099 -1.2340099 -0.39956924 114 12019940 37 57 55 1807
1.2279459 -1.118528 -0.3935647 587 12019940 171 58 154 1707
1.3397198 -1.1322386 -0.43409207 251 12019940 82 59 78 1807
1.2370445 -1.3097939 -0.46234313 100 12019940 35 60 14 1860
1.1517106 -1.1315533 -0.43057075 458 12019940 128 61 1 1671
1.2749785 -1.1618177 -0.47823629 340 12019940 109 62 96 1790
1.3250661 -1.1189033 -0.50028056 334 12019940 109 63 111 1805
1.1724721 -1.2442733 0.53364289 386 12117880 124 0 1 1791
1.2224104 -1.202088 0.51458484 388 12117880 124 1 13 1790
1.3214271 -1.2052655 0.51788968 280 12117880 97 2 32 1862
1.2643741 -1.0688479 0.46247548 241 12117880 71 3 31 1719
1.170496 -1.2409172 0.46081764 379 12117880 118 4 1 1767
1.2948577 -1.2744427 0.47145382 189 12117880 67 5 14 1877
1.2971809 -1.1840634 0.43751082 268 12117880 88 6 70 1810
1.3157848 -1.114594 0.41221344 353 12117880 111 7 49 1773
1.1696893 -1.2395852 0.39275527 363 12117880 111 8 1 1749
1.2192634 -1.1991189 0.37618065 425 12117880 130 9 2 1751
1.2780368 -1.1678571 0.36344582 512 12117880 160 10 28 1769
1.35621 -1.1508722 0.35606724 386 12117880 127 11 4 1814
1.1857817 -1.2562437 0.3314431 422 12117880 131 12 30 1759
1.2489043 -1.2292137 0.3181715 405 12117880 129 13 1 1781
1.2737367 -1.1643765 0.29635027 431 12117880 132 14 79 1751
1.3461491 -1.1429005 0.28667471 498 12117880 159 15 46 1789
1.1668457 -1.2362257 0.26194891 361 12117880 107 16 1 1720
1.2144251 -1.1958207 0.24590451 383 12117880 114 17 18 1722
1.2999308 -1.1896133 0.23724335 335 12117880 106 18 69 1778
1.347997 -1.1458871 0.2212152 332 12117880 105 19 48 1783
1.1937515 -1.2647755 0.2032281 337 12117880 103 20 1 1751
1.2439171 -1.2252458 0.18702635 342 12117880 105 21 47 1756
1.2836221 -1.1758006 0.16973069 332 12117880 102 22 99 1749
1.3450341 -1.1446227 0.15572935 324 12117880 102 23 135 1773
1.1711174 -1.2412721 0.13664532 351 12117880 103 24 1 1712
1.2255882 -1.2078243 0.12132101 356 12117880 106 25 61 1725
1.2791845 -1.1718178 0.10570876 318 12117880 96 26 104 1738
1.3705909 -1.1677746 0.09269616 302 12117880 98 27 74 1803
1.1471096 -1.2170172 0.072697774 389 12117880 109 28 1 1674
1.2673527 -1.2498559 0.060323119 341 12117880 108 29 1 1781
1.3294071 -1.2201315 0.0445095 277 12117880 90 30 33 1805
1.3436724 -1.1456896 0.026383091 307 12117880 96 31 76 1766
1.1851366 -1.2574935 0.012063618 343 12117880 102 32 20 1728
1.2370126 -1.2208294 -0.0043983995 328 12117880 99 33 16 1738
1.2956839 -1.189472 -0.020998536 277 12117880 86 34 93 1759
