# .PCD v0.7 - Point Cloud Data file format
VERSION 0.7
FIELDS x y z intensity t reflectivity ring noise range
SIZE 4 4 4 4 4 2 1 2 4
TYPE F F F F U U U U U
COUNT 1 1 1 1 1 1 1 1 1
WIDTH 765
HEIGHT 1
VIEWPOINT 0 0 0 1 0 0 0
POINTS 765
DATA ascii
0.067282021 -1.1604286 -0.30998001 319 23745140 46 61 25 1203
0.1170569 -1.2220957 -0.34037599 229 23745140 37 62 65 1274
0.16147128 -1.2046673 -0.35061216 283 23745140 45 63 80 1265
0.031587258 -1.6291603 0.50861442 268 23843690 78 0 1 1707
0.095172681 -1.6542368 0.49733618 107 23843690 32 1 59 1730
0.15439424 -1.6198162 0.4711628 150 23843690 43 2 38 1694
0.21445777 -1.6066979 0.45279011 85 23843690 24 3 66 1683
0.033009537 -1.6591862 0.44829968 81 23843690 24 4 54 1719
0.095617764 -1.674716 0.4352847 71 23843690 21 5 27 1733
0.14837259 -1.5629939 0.39110082 55 23843690 14 6 86 1618
0.20649505 -1.5590751 0.37594423 70 23843690 18 7 50 1617
0.032819077 -1.6338403 0.37658697 81 23843690 23 8 71 1677
0.092755251 -1.6136919 0.35555625 69 23843690 19 9 39 1655
0.14612511 -1.5482215 0.32646433 70 23843690 18 10 60 1589
0.19517218 -1.4835303 0.29953614 104 23843690 24 11 22 1526
0.032579251 -1.6093112 0.30883187 77 23843690 21 12 78 1639
0.093157351 -1.6316226 0.2967338 61 23843690 17 13 48 1661
0.14408438 -1.5297389 0.26385498 68 23843690 17 14 84 1559
0.18981029 -1.4455049 0.2366789 334 23843690 73 15 55 1477
0.032458443 -1.6047277 0.24732853 83 23843690 22 16 37 1624
0.083953366 -1.4763033 0.21334572 69 23843690 15 17 77 1494
0.1354605 -1.4465623 0.19561234 63 23843690 14 18 79 1466
0.18915023 -1.4473269 0.18250564 344 23843690 74 19 99 1471
0.023821456 -1.1787373 0.137768 221 23843690 31 20 75 1187
0.065078966 -1.1475809 0.12312213 218 23843690 29 21 77 1156
0.13267547 -1.4240503 0.13945283 341 23843690 71 22 73 1437
0.18164416 -1.3957692 0.12410919 305 23843690 61 23 123 1413
0.022901885 -1.1441082 0.091628976 163 23843690 21 24 50 1148
0.063245013 -1.1204306 0.079122394 258 23843690 33 25 88 1125
0.11199701 -1.2025559 0.073594704 249 23843690 36 26 114 1210
0.1820471 -1.4053817 0.07295388 385 23843690 77 27 101 1419
0.021417821 -1.096755 0.047683489 189 23843690 23 28 49 1098
0.062078163 -1.106624 0.037562232 236 23843690 29 29 24 1109
0.099564835 -1.0800908 0.026755018 298 23843690 35 30 46 1085
0.14934668 -1.1562648 0.017419413 301 23843690 41 31 73 1166
0.021496875 -1.1037638 0.0077073122 203 23843690 25 32 76 1104
0.062653691 -1.124252 -0.0028495961 249 23843690 32 33 54 1126
0.099639356 -1.0823458 -0.012976355 282 23843690 33 34 95 1087
0.13354573 -1.0392134 -0.022477979 265 23843690 29 35 67 1048
0.020740019 -1.0923215 -0.032444276 242 23843690 29 36 115 1093
0.060246177 -1.0955057 -0.042915791 263 23843690 32 37 60 1098
0.096797071 -1.0563182 -0.051637784 277 23843690 31 38 116 1062
0.13553259 -1.054529 -0.061843835 247 23843690 28 39 46 1065
0.019738257 -1.0844344 -0.071982943 258 23843690 30 40 92 1087
0.059841037 -1.0972196 -0.083259463 290 23843690 35 41 106 1102
0.10007328 -1.0954366 -0.093916327 256 23843690 31 42 125 1104
0.13332178 -1.0417852 -0.099669233 272 23843690 30 43 48 1055
0.020862183 -1.1686023 -0.12065884 208 23843690 29 44 73 1175
0.066609316 -1.2304028 -0.13882366 316 23843690 49 45 65 1240
0.110617 -1.21789 -0.14943872 423 23843690 64 46 116 1232
0.15562642 -1.2184395 -0.16219363 490 23843690 75 47 128 1239
0.021159422 -1.2436303 -0.17456263 281 23843690 44 48 79 1256
0.06755738 -1.258085 -0.18903488 476 23843690 77 49 18 1274
0.11038555 -1.2224468 -0.19618346 470 23843690 73 50 107 1243
0.15592158 -1.2234689 -0.20931658 431 23843690 67 51 94 1251
0.019855432 -1.2314305 -0.21951276 291 23843690 46 52 68 1251
0.066035725 -1.2414833 -0.23363158 380 23843690 61 53 71 1265
0.11191823 -1.2437825 -0.24699879 397 23843690 64 54 143 1273
0.14631164 -1.1479028 -0.24090654 343 23843690 48 55 85 1182
0.018677343 -1.19994 -0.26034474 339 23843690 51 56 92 1228
0.064370394 -1.2222399 -0.27750936 363 23843690 57 57 30 1255
0.10781714 -1.2007886 -0.28566295 369 23843690 57 58 99 1239
0.15245454 -1.1969305 -0.29860348 310 23843690 48 59 114 1243
0.017065408 -1.1854602 -0.30425161 320 23843690 48 60 28 1224
0.061960816 -1.1955574 -0.31925622 338 23843690 52 61 31 1239
0.10646028 -1.188238 -0.33075783 254 23843690 39 62 91 1238
0.16138451 -1.2628196 -0.36724195 266 23843690 47 63 94 1325
0.022045653 -1.6636851 0.51934087 247 23941420 75 0 9 1743
0.085020684 -1.6547896 0.49733618 95 23941420 29 1 69 1730
0.14240578 -1.597771 0.46448752 174 23941420 48 2 53 1670
0.2075128 -1.6309139 0.45924702 62 23941420 18 3 34 1707
0.022987697 -1.6709412 0.45142916 105 23941420 31 4 49 1731
0.082976386 -1.6288701 0.42322835 83 23941420 23 5 34 1685
0.14392579 -1.6218678 0.40560395 62 23941420 18 6 86 1678
0.1881564 -1.4908369 0.35920459 74 23941420 18 7 61 1545
0.023282709 -1.6690881 0.38467112 84 23941420 25 8 53 1713
0.081049852 -1.5791174 0.3478221 66 23941420 17 9 30 1619
0.13868617 -1.572486 0.33139518 56 23941420 14 10 52 1613
0.19045523 -1.5197256 0.30660254 70 23941420 17 11 41 1562
0.023701465 -1.6801841 0.3223986 78 23941420 23 12 93 1711
0.081942789 -1.6085801 0.29244626 71 23941420 19 13 59 1637
0.13158502 -1.4952503 0.25776213 55 23941420 13 14 77 1523
0.17799717 -1.4231356 0.23283306 352 23941420 74 15 50 1453
0.02244433 -1.593038 0.24550098 83 23941420 22 16 24 1612
0.07669802 -1.5123761 0.21848658 60 23941420 14 17 54 1530
0.13590728 -1.5539936 0.21002308 71 23941420 17 18 50 1574
0.17879549 -1.4366442 0.18101682 313 23941420 67 19 79 1459
0.017259214 -1.2265321 0.14333907 219 23941420 33 20 68 1235
0.059241224 -1.1717917 0.1256783 223 23941420 31 21 78 1180
0.12497012 -1.4367361 0.14061737 349 23941420 73 22 79 1449
0.17601618 -1.4205832 0.12621719 321 23941420 66 23 111 1437
0.015881337 -1.1442273 0.091628976 166 23941420 22 24 66 1148
0.056970265 -1.1327528 0.079966374 228 23941420 30 25 77 1137
0.099428587 -1.1435566 0.069945388 242 23941420 32 26 129 1150
0.1734204 -1.4064722 0.07295388 380 23941420 76 27 117 1419
0.014848377 -1.1088535 0.048204619 193 23941420 24 28 42 1110
0.05588511 -1.1189622 0.037968677 235 23941420 29 29 42 1121
0.096019223 -1.116538 0.027642744 243 23941420 31 30 40 1121
0.13492931 -1.0976143 0.016523046 226 23941420 28 31 62 1106
0.015043987 -1.1278722 0.0078748614 216 23941420 28 32 60 1128
0.054565862 -1.1006447 -0.0027888587 267 23941420 32 33 71 1102
0.095049612 -1.1068473 -0.013262861 317 23941420 39 34 78 1111
0.13299115 -1.0876474 -0.023507504 272 23941420 33 35 58 1096
0.014345499 -1.1164157 -0.033156686 221 23941420 28 36 139 1117
0.053523146 -1.0958548 -0.042915791 294 23941420 35 37 55 1098
0.089293309 -1.0449499 -0.051054306 291 23941420 32 38 111 1050
0.13051376 -1.0672319 -0.062540665 287 23941420 33 39 70 1077
0.013083921 -1.084535 -0.071982943 247 23941420 29 40 81 1087
0.053107496 -1.0975661 -0.083259463 297 23941420 36 41 92 1102
0.093349919 -1.09603 -0.093916327 258 23941420 31 42 133 1104
0.126927 -1.0425837 -0.099669233 264 23941420 29 43 51 1055
0.0132719 -1.1329011 -0.11696206 189 23941420 25 44 85 1139
0.05848692 -1.2188776 -0.13748021 296 23941420 45 45 59 1228
0.10515134 -1.2422837 -0.15234986 420 23941420 66 46 126 1256
0.14384276 -1.1839418 -0.15748097 589 23941420 85 47 149 1203
0.013269751 -1.2199711 -0.17122705 249 23941420 38 48 74 1232
0.059836648 -1.2584759 -0.18903488 383 23941420 62 49 30 1274
0.10486916 -1.246717 -0.19997141 410 23941420 66 50 105 1267
0.14841157 -1.2244025 -0.20931658 440 23941420 69 51 121 1251
0.012299144 -1.2315291 -0.21951276 338 23941420 53 52 68 1251
0.058971036 -1.2536457 -0.23584785 357 23941420 58 53 69 1277
0.10035224 -1.1975225 -0.2376854 425 23941420 64 54 126 1225
0.14774866 -1.2187555 -0.25558105 358 23941420 56 55 80 1254
0.01142486 -1.2117586 -0.26288882 321 23941420 49 56 110 1240
0.056325883 -1.2109214 -0.27485588 370 23941420 57 57 42 1243
0.099474363 -1.1897916 -0.28289625 334 23941420 50 58 105 1227
0.14370658 -1.1862794 -0.29572073 347 23941420 53 59 111 1231
0.0096952468 -1.1739196 -0.30126873 301 23941420 44 60 18 1212
0.055152889 -1.2074977 -0.3223483 338 23941420 53 61 13 1251
0.097244918 -1.1658214 -0.32434574 326 23941420 48 62 111 1214
0.15224157 -1.2523406 -0.36391601 222 23941420 38 63 65 1313
0.011592575 -1.6294252 0.50861442 240 24039000 70 0 24 1707
0.075904071 -1.6782435 0.50423563 183 24039000 56 1 32 1754
0.13831621 -1.6675371 0.48451331 186 24039000 56 2 39 1742
0.19194813 -1.5862609 0.4463332 78 24039000 21 3 46 1659
0.013175969 -1.7289729 0.46707663 146 24039000 47 4 46 1791
0.075578973 -1.687367 0.43829882 91 24039000 28 5 39 1745
0.13013917 -1.5763017 0.39400145 70 24039000 19 6 72 1630
0.17900527 -1.4919633 0.35920459 66 24039000 16 7 63 1545
0.013040937 -1.6691996 0.38467112 109 24039000 32 8 68 1713
0.075590342 -1.6732478 0.3684465 62 24039000 18 9 32 1715
0.13095489 -1.5967169 0.33632606 75 24039000 20 10 51 1637
0.18947577 -1.5909696 0.32073531 60 24039000 16 11 27 1634
0.013109839 -1.6449438 0.31561524 72 24039000 20 12 96 1675
0.066788018 -1.4911013 0.27100852 74 24039000 17 13 54 1517
0.1281947 -1.5667545 0.26994786 59 24039000 15 14 86 1595
0.17345531 -1.4594874 0.23860182 351 24039000 78 15 37 1489
0.01266921 -1.5931456 0.24550098 76 24039000 20 16 21 1612
0.066888049 -1.500953 0.21677297 75 24039000 17 17 81 1518
0.11962561 -1.471823 0.19881473 66 24039000 15 18 68 1490
0.17277309 -1.4613639 0.18399446 266 24039000 59 19 83 1483
0.0095438864 -1.202778 0.14055353 227 24039000 33 20 60 1211
0.052050129 -1.1721331 0.1256783 226 24039000 32 21 78 1180
0.11422828 -1.4136667 0.1382883 314 24039000 64 22 75 1425
0.16729634 -1.4216365 0.12621719 336 24039000 69 23 157 1437
0.0097863451 -1.2639167 0.10120692 195 24039000 31 24 58 1268
0.049490847 -1.1211224 0.079122394 243 24039000 31 25 69 1125
0.093374252 -1.1560841 0.070675246 257 24039000 35 26 127 1162
0.15921299 -1.3598986 0.070486099 376 24039000 71 27 101 1371
0.0083921626 -1.1568772 0.050289147 194 24039000 26 28 56 1158
0.051117141 -1.1672105 0.039594453 217 24039000 30 29 31 1169
0.085348457 -1.069273 0.026459111 287 24039000 33 30 29 1073
0.12819193 -1.0984216 0.016523046 263 24039000 32 31 65 1106
0.0080367932 -1.1159439 0.007791087 183 24039000 23 32 70 1116
0.047290776 -1.0889702 -0.0027584899 253 24039000 30 33 75 1090
0.085396543 -1.0715259 -0.012833102 295 24039000 34 34 87 1075
0.12493196 -1.0765257 -0.023250123 265 24039000 31 35 69 1084
0.0072534718 -1.0804994 -0.032088071 214 24039000 25 36 133 1081
0.047309551 -1.1081424 -0.043384813 261 24039000 32 37 51 1110
0.08382713 -1.0574265 -0.051637784 310 24039000 35 38 110 1062
0.12396289 -1.0680126 -0.062540665 289 24039000 34 39 59 1077
0.0063581183 -1.0726215 -0.071188286 237 24039000 27 40 97 1075
0.046371955 -1.0978713 -0.083259463 270 24039000 33 41 91 1102
0.084739938 -1.0727433 -0.091874659 292 24039000 34 42 143 1080
0.12189836 -1.0552102 -0.10080291 287 24039000 33 43 56 1067
0.0059873597 -1.0732793 -0.11080075 198 24039000 23 44 116 1079
0.051006928 -1.2192135 -0.13748021 284 24039000 43 45 35 1228
0.095663287 -1.2191558 -0.14943872 376 24039000 57 46 122 1232
0.13793786 -1.1966206 -0.15905185 548 24039000 81 47 126 1215
0.0059529087 -1.2556796 -0.17623042 210 24039000 34 48 70 1268
0.051131923 -1.2351053 -0.18547377 373 24039000 58 49 17 1250
0.09537594 -1.2237093 -0.19618346 429 24039000 66 50 98 1243
0.14089599 -1.2252902 -0.20931658 451 24039000 71 51 94 1251
0.00465141 -1.207954 -0.2153015 329 24039000 50 52 63 1227
0.050795846 -1.2422003 -0.23363158 357 24039000 57 53 54 1265
0.09482459 -1.2215891 -0.2423421 433 24039000 68 54 142 1249
0.14161001 -1.2313102 -0.25802678 354 24039000 57 55 86 1266
0.0040280414 -1.2235332 -0.26543292 349 24039000 55 56 81 1252
0.050782878 -1.2580179 -0.28546977 376 24039000 63 57 25 1291
0.093073502 -1.2020214 -0.28566295 392 24039000 60 58 106 1239
0.136425 -1.1871388 -0.29572073 327 24039000 50 59 90 1231
0.0024920288 -1.173957 -0.30126873 316 24039000 46 60 14 1212
0.048200749 -1.2193992 -0.32544035 332 24039000 53 61 17 1263
0.092761263 -1.2009844 -0.33396387 326 24039000 51 62 96 1250
0.14455448 -1.2532511 -0.36391601 156 24039000 27 63 78 1313
0.0015943922 -1.6294657 0.50861442 119 24136020 35 0 43 1707
0.063360952 -1.6212543 0.48698699 283 24136020 81 1 46 1694
0.12367025 -1.6108909 0.46782514 193 24136020 55 2 34 1682
0.18880133 -1.6448197 0.46247548 73 24136020 21 3 39 1719
0.0025497435 -1.7174364 0.46394712 252 24136020 80 4 37 1779
0.064326994 -1.6645857 0.43227065 70 24136020 21 5 35 1721
0.12223842 -1.6002911 0.39980268 82 24136020 22 6 90 1654
0.17644338 -1.5510154 0.37315428 78 24136020 20 7 55 1605
0.0028967028 -1.7277157 0.39814472 88 24136020 28 8 72 1773
0.063493803 -1.6268367 0.3581343 86 24136020 24 9 27 1667
0.11671452 -1.5389384 0.3239989 58 24136020 15 10 63 1577
0.17443107 -1.545333 0.31131348 65 24136020 16 11 28 1586
0.0029515754 -1.6096382 0.30883187 89 24136020 24 12 82 1639
0.060829066 -1.5740701 0.28601491 81 24136020 21 13 33 1601
0.11144183 -1.473166 0.2537002 64 24136020 14 14 80 1499
0.1618454 -1.4369832 0.23475598 369 24136020 79 15 49 1465
0.0028505328 -1.5694734 0.24184588 85 24136020 21 16 29 1588
0.059956845 -1.5606763 0.22534107 68 24136020 17 17 78 1578
0.11148309 -1.4843885 0.20041592 66 24136020 15 18 73 1502
0.16380307 -1.4623966 0.18399446 217 24136020 48 19 70 1483
0.0021850392 -1.2147328 0.1419463 186 24136020 28 20 72 1223
0.045769427 -1.1962764 0.12823448 228 24136020 33 21 59 1204
0.10110773 -1.3547897 0.13246563 271 24136020 51 22 72 1365
0.15724601 -1.4107562 0.12516318 326 24136020 66 23 133 1425
0.0019155936 -1.1921829 0.095460162 190 24136020 27 24 51 1196
0.043974385 -1.1572899 0.08165431 242 24136020 33 25 63 1161
0.0853879 -1.1446906 0.069945388 255 24136020 34 26 118 1150
0.14822485 -1.3370277 0.069252208 330 24136020 60 27 101 1347
0.0012667308 -1.1329296 0.049246881 203 24136020 26 28 41 1134
0.041698318 -1.1075791 0.037562232 247 24136020 30 29 23 1109
0.081429251 -1.1056684 0.027346836 258 24136020 32 30 37 1109
0.11749657 -1.0634092 0.015985226 271 24136020 31 31 60 1070
0.0012277043 -1.1519713 0.0080424128 175 24136020 23 32 77 1152
0.04105515 -1.1012315 -0.0027888587 270 24136020 33 33 59 1102
0.081459738 -1.1079303 -0.013262861 315 24136020 39 34 71 1111
0.11832418 -1.0772721 -0.023250123 261 24136020 31 35 64 1084
0.00062351563 -1.0805236 -0.032088071 249 24136020 29 36 117 1081
0.039633356 -1.0844462 -0.042446766 276 24136020 33 37 60 1086
0.076463446 -1.045967 -0.051054306 284 24136020 31 38 101 1050
0.11740736 -1.0687531 -0.062540665 267 24136020 31 39 77 1077
-0.00023096729 -1.1085613 -0.073572263 254 24136020 31 40 95 1111
0.039634671 -1.0981352 -0.083259463 288 24136020 35 41 69 1102
0.079024509 -1.085168 -0.092895485 270 24136020 32 42 144 1092
0.11542141 -1.0559384 -0.10080291 286 24136020 33 43 68 1067
-0.0006182316 -1.1091055 -0.11449753 241 24136020 30 44 97 1115
0.042674363 -1.1956697 -0.13479331 287 24136020 42 45 50 1204
0.087321974 -1.2078394 -0.14798315 370 24136020 55 46 131 1220
0.13317256 -1.2210977 -0.16219363 547 24136020 84 47 157 1239
-0.0017021704 -1.2200421 -0.17122705 203 24136020 31 48 65 1232
0.044388708 -1.2591153 -0.18903488 353 24136020 57 49 11 1274
0.088713869 -1.2360908 -0.19807744 436 24136020 69 50 109 1255
0.13081636 -1.2026088 -0.20530093 425 24136020 64 51 93 1227
-0.0028415376 -1.2434011 -0.22161838 327 24136020 52 52 50 1263
0.043172892 -1.2424885 -0.23363158 352 24136020 56 53 54 1265
0.089005291 -1.2456318 -0.24699879 424 24136020 69 54 135 1273
0.13532281 -1.2438352 -0.26047257 370 24136020 60 55 72 1278
-0.003579542 -1.2587163 -0.27306518 334 24136020 55 56 79 1288
0.041862048 -1.2232176 -0.27750936 330 24136020 52 57 48 1255
0.086526275 -1.2142169 -0.28842965 367 24136020 57 58 107 1251
0.13039714 -1.1995339 -0.29860348 336 24136020 52 59 92 1243
-0.004851222 -1.20882 -0.31021729 311 24136020 48 60 23 1248
0.041104618 -1.2312604 -0.32853243 342 24136020 56 61 1 1275
0.083750926 -1.1784617 -0.32755178 307 24136020 46 62 84 1226
0.13060778 -1.1968054 -0.34728616 185 24136020 29 63 56 1253
-0.0076949145 -1.4919871 0.46570846 225 24234260 55 0 27 1563
0.054925371 -1.6675614 0.50078589 218 24234260 66 1 36 1742
0.11053659 -1.5656279 0.4544746 316 24234260 84 2 47 1634
0.17621033 -1.6229671 0.45601857 76 24234260 22 3 43 1695
-0.0077727605 -1.6710812 0.45142916 208 24234260 62 4 26 1731
0.055998612 -1.7229949 0.44734108 96 24234260 30 5 20 1781
0.11078572 -1.57778 0.39400145 76 24234260 20 6 95 1630
0.17316334 -1.6100901 0.38710397 89 24234260 25 7 62 1665
-0.0073394016 -1.6458472 0.3792817 75 24234260 22 8 62 1689
0.055051323 -1.6740495 0.3684465 62 24234260 18 9 33 1715
0.11298337 -1.621635 0.34125695 71 24234260 20 10 34 1661
0.17118587 -1.604875 0.32309076 72 24234260 19 11 42 1646
-0.0074827559 -1.7392603 0.33370423 56 24234260 18 12 88 1771
0.048101351 -1.4800079 0.26886475 51 24234260 12 13 64 1505
0.10404006 -1.497419 0.25776213 53 24234260 12 14 89 1523
0.15177175 -1.4261708 0.23283306 312 24234260 66 15 52 1453
-0.0069333226 -1.605041 0.24732853 84 24234260 22 16 38 1624
0.048847128 -1.5135316 0.21848658 69 24234260 16 17 66 1530
0.1089161 -1.5799608 0.21322545 72 24234260 18 18 55 1598
0.15106845 -1.4278505 0.17952797 105 24234260 22 19 66 1447
-0.005216768 -1.2028046 0.14055353 205 24234260 30 20 68 1211
0.038045339 -1.1846091 0.12695639 224 24234260 32 21 56 1192
0.086266898 -1.2600609 0.12314937 194 24234260 31 22 81 1269
0.14858681 -1.4116945 0.12516318 318 24234260 65 23 105 1425
-0.0052911867 -1.1682489 0.093544573 189 24234260 26 24 62 1172
0.037634786 -1.1814663 0.083342262 215 24234260 30 25 74 1185
0.07590951 -1.1093435 0.067755789 236 24234260 29 26 113 1114
0.12879181 -1.2306405 0.063699692 289 24234260 44 27 100 1239
-0.0058051315 -1.156893 0.050289147 199 24234260 27 28 35 1158
0.036034517 -1.1437757 0.038781568 208 24234260 27 29 31 1145
0.075451143 -1.1181164 0.027642744 263 24234260 33 30 40 1121
0.11096941 -1.0641102 0.015985226 294 24234260 34 31 57 1070
-0.0059015225 -1.1639568 0.0081261871 175 24234260 24 32 72 1164
0.034670826 -1.1134568 -0.0028192275 260 24234260 32 33 72 1114
0.07466007 -1.1084093 -0.013262861 297 24234260 37 34 80 1111
0.11418524 -1.1018444 -0.023764886 282 24234260 35 35 75 1108
-0.0062064943 -1.1164906 -0.033156686 246 24234260 31 36 126 1117
0.033342976 -1.0966543 -0.042915791 287 24234260 35 37 55 1098
0.073246084 -1.0942526 -0.053388216 297 24234260 36 38 123 1098
0.10837727 -1.0456216 -0.061147004 282 24234260 31 39 82 1053
-0.0070329672 -1.108539 -0.073572263 245 24234260 30 40 90 1111
0.032895897 -1.0983577 -0.083259463 273 24234260 33 41 95 1102
0.072364554 -1.0856324 -0.092895485 279 24234260 33 42 170 1092
0.11016532 -1.0685099 -0.10193658 298 24234260 35 43 55 1079
-0.0074235634 -1.1090808 -0.11449753 235 24234260 29 44 85 1115
0.036041461 -1.2197477 -0.13748021 236 24234260 36 45 45 1228
0.083053134 -1.2558942 -0.15380543 375 24234260 60 46 118 1268
0.12567754 -1.2218918 -0.16219363 501 24234260 77 47 136 1239
-0.009546156 -1.2675414 -0.17789823 185 24234260 30 48 72 1280
0.03631676 -1.247502 -0.18725434 310 24234260 49 49 36 1262
0.081127688 -1.2366118 -0.19807744 461 24234260 73 50 127 1255
0.12584919 -1.2269269 -0.20931658 438 24234260 69 51 100 1251
-0.010470849 -1.2433603 -0.22161838 305 24234260 49 52 53 1263
0.035211094 -1.2309412 -0.2314153 333 24234260 52 53 69 1253
0.081360564 -1.2461545 -0.24699879 390 24234260 63 54 132 1273
0.12529033 -1.2212685 -0.25558105 327 24234260 51 55 86 1254
-0.010986896 -1.2234905 -0.26543292 340 24234260 53 56 88 1252
0.034355741 -1.2234515 -0.27750936 378 24234260 59 57 29 1255
0.076798826 -1.1797688 -0.28012952 374 24234260 55 58 117 1215
0.12184671 -1.1887236 -0.29572073 354 24234260 54 59 113 1231
-0.012622205 -1.2436358 -0.31916589 304 24234260 50 60 15 1284
0.033233214 -1.2198988 -0.32544035 332 24234260 53 61 20 1263
0.078016348 -1.2020323 -0.33396387 292 24234260 46 62 93 1250
0.12680331 -1.231992 -0.35726407 257 24234260 43 63 77 1289
-0.02021285 -1.7897215 0.55867136 89 24331640 31 0 46 1875
0.042845156 -1.5989311 0.48008752 333 24331640 93 1 27 1670
0.10315163 -1.6007847 0.46448752 338 24331640 94 2 45 1670
0.16977963 -1.6585102 0.4657039 89 24331640 27 3 38 1731
-0.018900929 -1.7520906 0.47333559 100 24331640 33 4 57 1815
0.044813324 -1.7000835 0.44131291 108 24331640 33 5 20 1757
0.10407981 -1.6249114 0.40560395 66 24331640 19 6 74 1678
0.16328076 -1.6111224 0.38710397 88 24331640 24 7 48 1665
-0.018181352 -1.7159283 0.39545 71 24331640 22 8 72 1761
0.044778511 -1.6743557 0.3684465 69 24331640 20 9 21 1715
0.10228672 -1.6105772 0.33879149 70 24331640 19 10 55 1649
0.14839713 -1.4771115 0.29718068 59 24331640 13 11 35 1514
-0.01717042 -1.6449065 0.31561524 71 24331640 20 12 106 1675
0.040574875 -1.5392894 0.2795836 67 24331640 17 13 59 1565
0.10307087 -1.627865 0.28010264 57 24331640 16 14 84 1655
0.14656153 -1.462433 0.23860182 287 24331640 63 15 52 1489
-0.016161531 -1.5456715 0.23819079 73 24331640 18 16 34 1564
0.040490162 -1.5494217 0.22362745 64 24331640 16 17 68 1566
0.091768809 -1.4619061 0.19721353 65 24331640 14 18 68 1478
0.15174556 -1.5235399 0.19143862 53 24331640 13 19 73 1543
-0.011847989 -1.1312404 0.13219693 151 24331640 20 20 75 1139
0.031395651 -1.2086757 0.12951256 212 24331640 31 21 75 1216
0.074820511 -1.2009653 0.11732671 252 24331640 37 22 72 1209
0.14227861 -1.4363705 0.12727121 331 24331640 70 23 125 1449
-0.012969607 -1.2160386 0.097375743 209 24331640 31 24 58 1220
0.029769346 -1.1577424 0.08165431 196 24331640 26 25 61 1161
0.072823063 -1.1695615 0.071405113 246 24331640 34 26 120 1174
0.11301877 -1.1479224 0.059381068 226 24331640 30 27 98 1155
-0.012903585 -1.1568357 0.050289147 179 24331640 24 28 62 1158
0.027799381 -1.0960181 0.037155788 213 24331640 26 29 46 1097
0.067120634 -1.0946105 0.027050925 261 24331640 31 30 42 1097
0.11029439 -1.1244777 0.016881593 285 24331640 36 31 57 1130
-0.012774382 -1.1399008 0.0079586376 166 24331640 22 32 62 1140
0.028737746 -1.1496373 -0.0029103337 280 24331640 37 33 67 1150
0.067857593 -1.1088465 -0.013262861 307 24331640 38 34 96 1111
0.10509548 -1.078643 -0.023250123 286 24331640 34 35 75 1084
-0.013477852 -1.1524131 -0.034225293 237 24331640 31 36 128 1153
0.026613403 -1.0968382 -0.042915791 285 24331640 34 37 61 1098
0.065803394 -1.0827178 -0.052804742 293 24331640 35 38 123 1086
0.10312135 -1.0581902 -0.061843835 255 24331640 29 39 54 1065
-0.014133562 -1.1324205 -0.075161584 276 24331640 36 40 95 1135
0.025301425 -1.0626521 -0.080539562 288 24331640 33 41 84 1066
0.066423886 -1.0979908 -0.093916327 260 24331640 32 42 155 1104
0.10591151 -1.0929471 -0.10420395 275 24331640 34 43 68 1103
-0.014228615 -1.1090144 -0.11449753 242 24331640 30 44 82 1115
0.027440334 -1.1722606 -0.13210639 264 24331640 37 45 60 1180
0.07391946 -1.2326001 -0.1508943 349 24331640 54 46 126 1244
0.11588862 -1.1989568 -0.15905185 506 24331640 75 47 147 1215
-0.017810687 -1.3031063 -0.18290162 183 24331640 32 48 66 1316
0.028389011 -1.2358372 -0.18547377 296 24331640 46 49 36 1250
0.074944764 -1.2607437 -0.20186538 444 24331640 73 50 108 1279
0.11945348 -1.2394522 -0.21132441 462 24331640 74 51 123 1263
-0.018615676 -1.2787102 -0.2279353 312 24331640 53 52 62 1299
0.028452149 -1.2665058 -0.23806411 365 24331640 61 53 42 1289
0.073712774 -1.2466303 -0.24699879 416 24331640 67 54 132 1273
0.11553996 -1.1986264 -0.25068954 357 24331640 54 55 87 1230
-0.018848399 -1.2468517 -0.27052107 330 24331640 54 56 77 1276
0.027618278 -1.2587396 -0.28546977 341 24331640 57 57 55 1291
0.072306439 -1.2268437 -0.29119635 388 24331640 62 58 115 1263
0.11343388 -1.1778539 -0.29283801 318 24331640 47 59 78 1219
-0.021199165 -1.3016441 -0.33408019 248 24331640 45 60 1 1344
0.025502801 -1.2084876 -0.3223483 347 24331640 54 61 13 1251
0.071317494 -1.2140323 -0.33716995 337 24331640 54 62 108 1262
0.1170214 -1.2097944 -0.35061216 371 24331640 59 63 97 1265
-0.031393632 -1.801017 0.56224686 77 24429580 28 0 66 1887
0.033745591 -1.6336368 0.4904367 320 24429580 93 1 16 1706
0.092656836 -1.5898805 0.46114987 327 24429580 90 2 50 1658
0.15406795 -1.6019983 0.44956169 87 24429580 24 3 44 1671
-0.029847242 -1.7635248 0.47646511 91 24429580 30 4 55 1827
0.033206884 -1.6422617 0.42624244 116 24429580 33 5 24 1697
0.094107583 -1.6255195 0.40560395 61 24429580 17 6 97 1678
0.14675884 -1.5423816 0.37036434 78 24429580 20 7 82 1593
-0.028122835 -1.6807088 0.38736582 75 24429580 22 8 71 1725
0.034021161 -1.6511644 0.3632904 58 24429580 17 9 27 1691
0.091730051 -1.5994498 0.33632606 68 24429580 18 10 58 1637
0.14485267 -1.5365673 0.30895802 55 24429580 14 11 39 1574
-0.027458372 -1.6565536 0.31787637 81 24429580 23 12 104 1687
0.032561351 -1.6103367 0.29244626 65 24429580 17 13 51 1637
0.089031108 -1.557621 0.26791689 59 24429580 15 14 100 1583
0.13647664 -1.4515119 0.2366789 218 24429580 47 15 39 1477
-0.026629124 -1.6048352 0.24732853 74 24429580 19 16 32 1624
0.030270088 -1.514017 0.21848658 73 24429580 17 17 78 1530
0.08414147 -1.4861891 0.20041592 61 24429580 14 18 67 1502
0.13242775 -1.4177412 0.17803915 61 24429580 13 19 90 1435
-0.019580733 -1.1788154 0.137768 84 24429580 12 20 74 1187
0.023742134 -1.1969162 0.12823448 247 24429580 36 21 76 1204
0.0681196 -1.2133263 0.11849124 236 24429580 35 22 80 1221
0.13125196 -1.4134116 0.12516318 290 24429580 59 23 152 1425
-0.020631796 -1.2278962 0.098333545 205 24429580 31 24 37 1232
0.022665013 -1.1579032 0.08165431 215 24429580 29 25 65 1161
0.06430342 -1.1460685 0.069945388 245 24429580 32 26 113 1150
0.10597312 -1.1485943 0.059381068 255 24429580 34 27 91 1155
-0.020001553 -1.1567347 0.050289147 202 24429580 27 28 61 1158
0.022687493 -1.1801044 0.040000901 206 24429580 29 29 29 1181
0.062385194 -1.1309361 0.027938651 268 24429580 34 30 44 1133
0.10119671 -1.1012367 0.016523046 275 24429580 34 31 64 1106
-0.019976528 -1.1517987 0.0080424128 175 24429580 23 32 90 1152
0.021909421 -1.1617898 -0.0029407023 244 24429580 33 33 64 1162
0.060393132 -1.0972611 -0.013119609 293 24429580 35 34 85 1099
0.099565201 -1.091215 -0.023507504 279 24429580 34 35 62 1096
-0.02033481 -1.1403159 -0.033869091 240 24429580 31 36 104 1141
0.01988283 -1.0969808 -0.042915791 293 24429580 35 37 64 1098
0.05915872 -1.0831012 -0.052804742 287 24429580 34 38 118 1086
0.098803975 -1.0826634 -0.063237503 281 24429580 33 39 71 1089
-0.020635918 -1.1083692 -0.073572263 268 24429580 33 40 84 1111
0.019626295 -1.1106427 -0.08416611 279 24429580 35 41 83 1114
0.057739221 -1.062561 -0.090853833 256 24429580 29 42 141 1068
0.09596549 -1.057884 -0.10080291 285 24429580 32 43 65 1067
-0.020580402 -1.0850375 -0.11203302 228 24429580 27 44 104 1091
0.020658765 -1.1962526 -0.13479331 267 24429580 39 45 47 1204
0.065714896 -1.2211363 -0.14943872 284 24429580 43 46 122 1232
0.11388928 -1.2588872 -0.16690627 451 24429580 73 47 132 1275
-0.025335435 -1.2792101 -0.17956603 134 24429580 22 48 63 1292
0.021404721 -1.2715846 -0.19081542 274 24429580 45 49 30 1286
0.065946452 -1.2375143 -0.19807744 441 24429580 69 50 116 1255
0.11078343 -1.2283789 -0.20931658 509 24429580 80 51 106 1251
-0.026216898 -1.2667607 -0.22582968 370 24429580 61 52 46 1287
0.020487953 -1.2548646 -0.23584785 340 24429580 56 53 67 1277
0.067930423 -1.2823255 -0.25398383 370 24429580 63 54 119 1309
0.11134949 -1.2344147 -0.25802678 348 24429580 56 55 98 1266
-0.026747787 -1.2584373 -0.27306518 291 24429580 48 56 89 1288
0.020079199 -1.2705868 -0.28812328 348 24429580 59 57 18 1303
0.064161852 -1.2156038 -0.28842965 339 24429580 53 58 92 1251
0.10515907 -1.1669261 -0.28995526 360 24429580 52 59 83 1207
-0.029446088 -1.3131099 -0.33706304 279 24429580 51 60 27 1356
0.018434176 -1.2318084 -0.32853243 322 24429580 52 61 15 1275
0.062045109 -1.1798035 -0.32755178 318 24429580 48 62 91 1226
0.10855639 -1.1990067 -0.34728616 332 24429580 52 63 104 1253
-0.042443875 -1.8007904 0.56224686 74 24527210 26 0 48 1887
0.022886876 -1.5763519 0.47318804 288 24527210 78 1 36 1646
0.083499767 -1.6019299 0.46448752 322 24527210 90 2 49 1670
0.14423537 -1.6029135 0.44956169 129 24527210 36 3 37 1671
-0.040133245 -1.7401451 0.47020611 81 24527210 26 4 61 1803
0.023783753 -1.6888913 0.43829882 146 24527210 44 5 23 1745
0.081725188 -1.5795519 0.39400145 86 24527210 23 6 103 1630
0.13418956 -1.5083773 0.36199453 101 24527210 25 7 77 1557
-0.038702317 -1.6921951 0.39006057 66 24527210 20 8 64 1737
0.02371964 -1.6396235 0.36071238 76 24527210 21 9 36 1679
0.083115235 -1.6234399 0.34125695 60 24527210 16 10 46 1661
0.13542174 -1.5374272 0.30895802 85 24527210 21 11 31 1574
-0.036819428 -1.6210079 0.31109297 79 24527210 22 12 101 1651
0.022679897 -1.6105062 0.29244626 63 24527210 17 13 50 1637
0.075254962 -1.4754573 0.2537002 47 24527210 11 14 89 1499
0.13274993 -1.5113194 0.24629347 75 24527210 18 15 65 1537
-0.036206182 -1.5927845 0.24550098 64 24527210 17 16 23 1612
0.021802416 -1.5735536 0.22705467 64 24527210 16 17 67 1590
0.072623327 -1.439167 0.19401115 81 24527210 17 18 77 1454
0.12372616 -1.4185271 0.17803915 68 24527210 14 19 82 1435
-0.034403428 -1.512316 0.17676552 63 24527210 15 20 76 1523
0.016234115 -1.1851087 0.12695639 226 24527210 32 21 63 1192
0.057095688 -1.1421506 0.11150404 233 24527210 31 22 86 1149
0.11844806 -1.3665545 0.12094717 313 24527210 59 23 119 1377
-0.027068272 -1.1799121 0.09450236 170 24527210 24 24 52 1184
0.016203126 -1.2058975 0.085030206 196 24527210 29 25 59 1209
0.057270065 -1.1464415 0.069945388 236 24527210 31 26 111 1150
0.096867926 -1.1253428 0.058147173 258 24527210 33 27 93 1131
-0.027941212 -1.1925462 0.051852535 177 24527210 25 28 37 1194
0.015446082 -1.1802214 0.040000901 212 24527210 30 29 44 1181
0.05427026 -1.1073338 0.027346836 271 24527210 33 30 49 1109
0.094437741 -1.1018369 0.016523046 283 24527210 35 31 66 1106
-0.02619835 -1.1156653 0.007791087 143 24527210 18 32 74 1116
0.014475126 -1.1379043 -0.0028799647 255 24527210 33 33 77 1138
0.05483114 -1.1215805 -0.013406115 283 24527210 36 34 92 1123
0.09388455 -1.1037595 -0.023764886 255 24527210 31 35 70 1108
-0.027043829 -1.1281785 -0.033512887 247 24527210 31 36 112 1129
0.01329524 -1.1090721 -0.043384813 295 24527210 36 37 65 1110
0.053672303 -1.1073872 -0.053971693 317 24527210 39 38 117 1110
0.09012796 -1.059376 -0.061843835 290 24527210 33 39 68 1065
-0.026843669 -1.0842818 -0.071982943 248 24527210 29 40 86 1087
0.012949152 -1.122707 -0.085072741 299 24527210 38 41 94 1126
0.051218383 -1.0628953 -0.090853833 268 24527210 31 42 163 1068
0.095510148 -1.1298761 -0.10760498 296 24527210 38 43 59 1139
-0.028735625 -1.1445547 -0.11819432 225 24527210 30 44 84 1151
0.013318309 -1.1963568 -0.13479331 265 24527210 38 45 65 1204
0.058220908 -1.2215165 -0.14943872 291 24527210 44 46 117 1232
0.10616275 -1.2595623 -0.16690627 324 24527210 53 47 134 1275
-0.033800464 -1.3027896 -0.18290162 169 24527210 29 48 58 1316
0.013475099 -1.2598256 -0.18903488 258 24527210 42 49 31 1274
0.059467856 -1.2615685 -0.20186538 419 24527210 69 50 108 1279
0.10324415 -1.2290355 -0.20931658 477 24527210 75 51 81 1251
-0.034306016 -1.2783855 -0.2279353 437 24527210 74 52 67 1299
0.012667696 -1.2431738 -0.23363158 375 24527210 60 53 61 1265
0.058959752 -1.2592001 -0.24932715 382 24527210 63 54 122 1285
0.10082227 -1.199954 -0.25068954 415 24527210 63 55 83 1230
-0.035111185 -1.281695 -0.27815333 277 24527210 48 56 64 1312
0.011943295 -1.2355789 -0.28016284 350 24527210 56 57 41 1267
0.056701839 -1.2159747 -0.28842965 388 24527210 61 58 119 1251
0.099945545 -1.190765 -0.29572073 339 24527210 51 59 88 1231
-0.037170742 -1.3012859 -0.33408019 314 24527210 57 60 15 1344
0.01056852 -1.1971153 -0.31925622 327 24527210 50 61 24 1239
0.056950502 -1.2263674 -0.34037599 351 24527210 57 62 101 1274
0.10119738 -1.1996502 -0.34728616 207 24527210 33 63 64 1253
-0.053832695 -1.811946 0.56582236 61 24625100 22 0 51 1899
0.013888486 -1.6569141 0.49733618 156 24625100 47 1 43 1730
0.073139578 -1.5908978 0.46114987 276 24625100 76 2 63 1658
0.13632765 -1.6268027 0.45601857 191 24625100 55 3 33 1695
-0.051824324 -1.7746055 0.47959459 70 24625100 24 4 91 1839
0.013789622 -1.7354652 0.45035517 102 24625100 33 5 23 1793
0.073622584 -1.6149199 0.40270334 86 24625100 24 6 91 1666
0.13552332 -1.6371176 0.39268386 75 24625100 21 7 56 1689
-0.049423799 -1.7036144 0.39275527 82 24625100 25 8 69 1749
0.014146752 -1.6983352 0.3736026 84 24625100 25 9 28 1739
0.075266406 -1.6708477 0.35111865 57 24625100 17 10 55 1709
0.12406471 -1.5147746 0.30424708 66 24625100 16 11 36 1550
-0.048464574 -1.6796522 0.3223986 86 24625100 25 12 90 1711
0.013266653 -1.6696478 0.30316508 69 24625100 20 13 47 1697
0.069909997 -1.5585963 0.26791689 56 24625100 14 14 97 1583
0.11672605 -1.429466 0.23283306 74 24625100 16 15 64 1453
-0.047690004 -1.6518078 0.25463873 70 24625100 20 16 29 1672
0.012146862 -1.5736578 0.22705467 73 24625100 19 17 83 1590
0.063791402 -1.4395856 0.19401115 70 24625100 15 18 63 1454
0.11886726 -1.466733 0.18399446 56 24625100 12 19 68 1483
-0.047468156 -1.6431297 0.19208597 63 24625100 17 20 66 1655
0.008962119 -1.185186 0.12695639 199 24625100 28 21 66 1192
0.052178893 -1.190207 0.11616217 249 24625100 36 22 73 1197
0.11101994 -1.3791705 0.12200117 286 24625100 55 23 119 1389
-0.03465528 -1.1916806 0.095460162 115 24625100 16 24 53 1196
0.0090657147 -1.2418839 0.087562114 176 24625100 27 25 66 1245
0.050234552 -1.1467713 0.069945388 222 24625100 29 26 117 1150
0.09091562 -1.1378621 0.058764119 247 24625100 32 27 110 1143
-0.033840608 -1.1444186 0.049768012 124 24625100 16 28 52 1146
0.0082040885 -1.180294 0.040000901 203 24625100 28 29 30 1181
0.047988471 -1.1196313 0.027642744 258 24625100 32 30 34 1121
0.089577749 -1.1263174 0.016881593 288 24625100 37 31 90 1130
-0.034464672 -1.1634613 0.0081261871 138 24625100 19 32 80 1164
0.0073347837 -1.1139724 -0.0028192275 276 24625100 34 33 76 1114
0.047435861 -1.1099076 -0.013262861 303 24625100 37 34 85 1111
0.088997111 -1.128235 -0.024279648 304 24625100 39 35 77 1132
-0.032521624 -1.0800343 -0.032088071 258 24625100 30 36 121 1081
0.0064196899 -1.0971422 -0.042915791 320 24625100 39 37 44 1098
0.04687649 -1.1076957 -0.053971693 321 24625100 40 38 110 1110
0.088337377 -1.1196221 -0.065327995 296 24625100 38 39 80 1125
-0.034975328 -1.1319685 -0.075161584 245 24625100 32 40 95 1135
0.0059309392 -1.0988343 -0.083259463 301 24625100 37 41 75 1102
0.046202209 -1.0990274 -0.093916327 246 24625100 30 42 139 1104
0.085775979 -1.0947114 -0.10420395 303 24625100 37 43 89 1103
-0.035012338 -1.1204954 -0.1157298 212 24625100 27 44 78 1127
0.0058582001 -1.1725671 -0.13210639 212 24625100 30 45 66 1180
0.049736578 -1.1980485 -0.14652757 279 24625100 41 46 105 1208
0.099358641 -1.2720505 -0.16847715 304 24625100 50 47 150 1287
-0.042936888 -1.33819 -0.187905 279 24625100 51 48 46 1352
0.0057447008 -1.2598845 -0.18903488 255 24625100 41 49 30 1274
0.051240589 -1.25007 -0.19997141 383 24625100 61 50 104 1267
0.098454975 -1.2650313 -0.21534008 426 24625100 71 51 96 1287
-0.041760027 -1.2663436 -0.22582968 373 24625100 62 52 76 1287
0.0051829028 -1.2786086 -0.24028039 358 24625100 61 53 61 1301
0.050753899 -1.2477759 -0.24699879 354 24625100 57 54 143 1273
0.094369382 -1.2122629 -0.25313529 411 24625100 63 55 87 1242
-0.043367922 -1.2931762 -0.28069744 275 24625100 48 56 100 1324
0.0044856314 -1.2707376 -0.28812328 335 24625100 57 57 48 1303
0.050184339 -1.239634 -0.29396307 375 24625100 61 58 92 1275
0.091734231 -1.1797423 -0.29283801 327 24625100 49 59 72 1219
-0.045960914 -1.324266 -0.3400459 315 24625100 59 60 13 1368
0.0031605295 -1.1739681 -0.31307209 280 24625100 41 61 22 1215
0.047096897 -1.1689217 -0.32434574 321 24625100 47 62 105 1214
0.094733223 -1.2117434 -0.35061216 233 24625100 37 63 67 1265
-0.065359995 -1.8230293 0.56939787 60 24721440 22 0 49 1911
0.0034634457 -1.5420339 0.46283889 213 24721440 55 1 40 1610
0.064752728 -1.6258687 0.4711628 295 24721440 85 2 22 1694
0.12902662 -1.6621772 0.4657039 225 24721440 67 3 24 1731
-0.059438404 -1.6816339 0.45455864 70 24721440 21 4 61 1743
0.0030776882 -1.7006713 0.44131291 158 24721440 49 5 21 1757
0.064171143 -1.6269763 0.40560395 108 24721440 30 6 95 1678
0.12725857 -1.6611925 0.39826372 107 24721440 32 7 72 1713
-0.058232799 -1.6565338 0.3819764 67 24721440 20 8 66 1701
0.0038542436 -1.7569889 0.38649288 85 24721440 27 9 24 1799
0.059991382 -1.5421916 0.3239989 57 24721440 14 10 53 1577
0.11921052 -1.5741721 0.31602439 85 24721440 22 11 32 1610
-0.057945453 -1.6557676 0.31787637 71 24721440 20 12 112 1687
0.0029789023 -1.6460841 0.29887757 67 24721440 19 13 54 1673
0.060345318 -1.5589958 0.26791689 56 24721440 14 14 78 1583
0.1168684 -1.5482686 0.25206223 54 24721440 13 15 56 1573
-0.056164376 -1.604073 0.24732853 69 24721440 18 16 32 1624
0.0024720526 -1.5618258 0.22534107 78 24721440 20 17 75 1578
0.056317765 -1.475602 0.19881473 63 24721440 14 18 57 1490
0.10630933 -1.4199386 0.17803915 42 24721440 9 19 89 1435
-0.054211106 -1.5475147 0.18094382 72 24721440 18 20 64 1559
0.0017067975 -1.1971505 0.12823448 213 24721440 31 21 74 1204
0.043975193 -1.166635 0.11383311 207 24721440 29 22 76 1173
0.091037311 -1.2248561 0.10829909 212 24721440 32 23 144 1233
-0.049545903 -1.4066229 0.11270045 64 24721440 13 24 59 1412
0.0014036902 -1.2060055 0.085030206 215 24721440 31 25 68 1209
0.045000162 -1.1949351 0.072864845 214 24721440 31 26 123 1198
0.083050944 -1.1264468 0.058147173 288 24721440 37 27 68 1131
-0.044284984 -1.2400378 0.053937063 123 24721440 19 28 40 1242
0.00093246857 -1.1443428 0.038781568 199 24721440 26 29 22 1145
0.041117638 -1.1199046 0.027642744 230 24721440 29 30 25 1121
0.080909401 -1.1029129 0.016523046 268 24721440 33 31 75 1106
-0.039887305 -1.1152598 0.007791087 125 24721440 16 32 87 1116
0.00049943966 -1.1139964 -0.0028192275 233 24721440 29 33 68 1114
0.0406247 -1.1101779 -0.013262861 324 24721440 40 34 97 1111
0.077722564 -1.0689315 -0.022992741 292 24721440 34 35 64 1072
-0.040451705 -1.1157749 -0.033156686 222 24721440 28 36 136 1117
-0.00031578311 -1.1091518 -0.043384813 354 24721440 44 37 55 1110
0.040078916 -1.1079625 -0.053971693 294 24721440 36 38 128 1110
0.077989966 -1.0723504 -0.062540665 283 24721440 33 39 75 1077
-0.041477084 -1.1197671 -0.07436692 216 24721440 27 40 81 1123
-0.0008114925 -1.0988499 -0.083259463 277 24721440 34 41 100 1102
0.039457835 -1.0992903 -0.093916327 263 24721440 32 42 139 1104
0.080777541 -1.1190479 -0.10647131 271 24721440 34 43 54 1127
-0.04233291 -1.1321877 -0.11696206 209 24721440 27 44 76 1139
-0.001336647 -1.1725811 -0.13210639 229 24721440 32 45 70 1180
0.041963518 -1.1864271 -0.14507201 258 24721440 37 46 118 1196
0.090697989 -1.2607702 -0.16690627 259 24721440 42 47 126 1275
-0.050693087 -1.3260264 -0.1862372 313 24721440 56 48 52 1340
-0.0020981471 -1.3310989 -0.19971818 230 24721440 42 49 17 1346
0.044394642 -1.2740456 -0.20375933 377 24721440 63 50 95 1291
0.088154219 -1.2302099 -0.20931658 398 24721440 62 51 108 1251
-0.050914817 -1.3014779 -0.23214659 332 24721440 58 52 75 1323
-0.0026625893 -1.2786163 -0.24028039 350 24721440 59 53 71 1301
0.04350299 -1.2598288 -0.24932715 334 24721440 55 54 132 1285
0.088609092 -1.236255 -0.25802678 418 24721440 67 55 88 1266
-0.054091714 -1.3631935 -0.29596192 254 24721440 50 56 91 1396
-0.0032810543 -1.2590382 -0.28546977 379 24721440 63 57 42 1291
0.042577144 -1.2399186 -0.29396307 379 24721440 62 58 108 1275
0.085325502 -1.1919018 -0.29572073 337 24721440 51 59 86 1231
-0.053136725 -1.3007318 -0.33408019 299 24721440 54 60 5 1344
-0.0042425101 -1.231939 -0.32853243 287 24721440 47 61 11 1275
0.04150217 -1.2154169 -0.33716995 346 24721440 55 62 122 1262
0.085640103 -1.1893016 -0.3439602 302 24721440 47 63 91 1241
-0.077505976 -1.8454835 0.57654881 69 24820300 26 0 57 1935
-0.0062666112 -1.6109862 0.48353723 116 24820300 33 1 47 1682
0.052835271 -1.5686356 0.4544746 245 24820300 66 2 64 1634
0.11800151 -1.6514095 0.46247548 258 24820300 76 3 41 1719
-0.074558049 -1.7969854 0.48585355 61 24820300 21 4 63 1863
-0.0073072421 -1.6890429 0.43829882 156 24820300 47 5 16 1745
0.058449622 -1.7553542 0.43751082 100 24820300 33 6 84 1810
0.11788334 -1.6735843 0.40105367 109 24820300 33 7 71 1725
-0.073703624 -1.7846645 0.41161832 73 24820300 25 8 68 1833
-0.0068803071 -1.7452596 0.3839148 63 24820300 20 9 50 1787
0.051296514 -1.5660061 0.32892975 71 24820300 18 10 41 1601
0.10873281 -1.5631356 0.31366894 84 24820300 21 11 34 1598
-0.068103962 -1.6553808 0.31787637 86 24820300 25 12 82 1687
-0.0072234944 -1.669685 0.30316508 61 24820300 17 13 33 1697
0.05116329 -1.5711575 0.26994786 71 24820300 18 14 93 1595
0.10818526 -1.5607731 0.25398514 56 24820300 14 15 45 1585
-0.069907546 -1.6984981 0.26194891 65 24820300 19 16 29 1720
-0.0070570991 -1.5499346 0.22362745 62 24820300 15 17 82 1566
0.049546409 -1.5472393 0.20842187 63 24820300 15 18 67 1562
0.099227004 -1.4443227 0.18101682 48 24820300 10 19 69 1459
-0.068609022 -1.666241 0.19487152 61 24820300 17 20 88 1679
-0.0057512131 -1.2210016 0.13079064 236 24820300 36 21 46 1228
0.036439389 -1.1549455 0.11266857 226 24820300 31 22 94 1161
0.079455793 -1.1657619 0.10302906 215 24820300 30 23 132 1173
-0.063614376 -1.5377588 0.12323619 75 24820300 18 24 52 1544
-0.0061152782 -1.2299316 0.086718149 186 24820300 28 25 68 1233
0.034648914 -1.0994139 0.067025922 222 24820300 27 26 112 1102
0.076137632 -1.1269352 0.058147173 262 24820300 34 27 75 1131
-0.06492877 -1.5511756 0.067486465 70 24820300 17 28 52 1554
-0.0062805521 -1.1803058 0.040000901 177 24820300 25 29 42 1181
0.034978434 -1.1441174 0.02823456 243 24820300 32 30 34 1145
0.07333611 -1.091417 0.016343774 287 24820300 34 31 69 1094
-0.04823707 -1.1509616 0.0080424128 118 24820300 16 32 70 1152
-0.0062676724 -1.1019787 -0.0027888587 253 24820300 31 33 52 1102
0.034542426 -1.1343935 -0.013549369 294 24820300 38 34 96 1135
0.071958862 -1.0813591 -0.023250123 285 24820300 34 35 79 1084
-0.046280973 -1.0915377 -0.032444276 197 24820300 24 36 139 1093
-0.0070444169 -1.0971384 -0.042915791 294 24820300 35 37 51 1098
0.033279832 -1.1081876 -0.053971693 338 24820300 42 38 123 1110
0.072204329 -1.0847621 -0.063237503 290 24820300 34 39 80 1089
-0.048347063 -1.1194915 -0.07436692 193 24820300 24 40 109 1123
-0.0076361508 -1.1107898 -0.08416611 289 24820300 36 41 86 1114
0.032711972 -1.0995116 -0.093916327 313 24820300 38 42 152 1104
0.075483613 -1.1433631 -0.10873865 267 24820300 35 43 63 1151
-0.048240718 -1.1080561 -0.11449753 206 24820300 26 44 99 1115
-0.0081844022 -1.1248538 -0.12673257 214 24820300 27 45 40 1132
0.036074907 -1.2342875 -0.1508943 244 24820300 38 46 103 1244
0.081398733 -1.2375607 -0.16376451 273 24820300 43 47 122 1251
-0.059882123 -1.3494341 -0.1895728 322 24820300 60 48 62 1364
-0.010174057 -1.3191942 -0.19793762 183 24820300 33 49 38 1334
0.037256375 -1.2979835 -0.20754728 328 24820300 57 50 88 1315
0.081377313 -1.2425332 -0.21132441 350 24820300 56 51 102 1263
-0.05943381 -1.3129427 -0.23425221 292 24820300 52 52 61 1335
-0.010507981 -1.2785759 -0.24028039 414 24820300 70 53 54 1301
0.036106065 -1.2718393 -0.25165549 354 24820300 60 54 120 1297
0.082557864 -1.2602216 -0.26291829 397 24820300 66 55 109 1290
-0.061918233 -1.3511211 -0.29341784 315 24820300 60 56 73 1384
-0.011108612 -1.270697 -0.28812328 336 24820300 57 57 47 1303
0.034968343 -1.2401565 -0.29396307 377 24820300 61 58 127 1275
0.07877098 -1.2040267 -0.29860348 362 24820300 56 59 98 1243
-0.066028036 -1.4048761 -0.36092588 104 24820300 22 60 14 1452
-0.012245756 -1.2782668 -0.34090072 248 24820300 43 61 12 1323
0.033072595 -1.1809709 -0.32755178 324 24820300 49 62 100 1226
0.076068483 -1.1552898 -0.33398232 338 24820300 49 63 85 1205
-0.091582559 -1.9021817 0.59442633 26 24918910 11 0 60 1995
-0.01787976 -1.7833105 0.53528321 72 24918910 25 1 66 1862
0.044478618 -1.6150187 0.46782514 217 24918910 62 2 62 1682
0.10636044 -1.6290364 0.45601857 230 24918910 66 3 33 1695
-0.083928972 -1.7617793 0.47646511 51 24918910 17 4 62 1827
-0.017670877 -1.6889664 0.43829882 125 24918910 38 5 23 1745
0.045781292 -1.6858405 0.42010707 97 24918910 29 6 84 1738
0.1068636 -1.662629 0.39826372 97 24918910 28 7 49 1713
-0.084652737 -1.7841786 0.41161832 83 24918910 28 8 76 1833
-0.016289655 -1.6162734 0.35555625 65 24918910 18 9 34 1655
0.043873899 -1.6484703 0.34618777 64 24918910 18 10 38 1685
0.10435089 -1.6459743 0.33015716 71 24918910 20 11 31 1682
-0.081599988 -1.7255632 0.3314431 78 24918910 24 12 107 1759
-0.016603684 -1.5869651 0.28815868 51 24918910 13 13 41 1613
0.041834276 -1.5832646 0.27197883 56 24918910 15 14 87 1607
0.10457889 -1.6559787 0.26936847 70 24918910 20 15 56 1681
-0.078086302 -1.6506501 0.25463873 67 24918910 19 16 45 1672
-0.017201943 -1.6092438 0.23219554 79 24918910 21 17 65 1626
0.038821008 -1.4999593 0.20201711 69 24918910 16 18 62 1514
0.088133283 -1.4092522 0.17655033 50 24918910 10 19 110 1423
-0.079958431 -1.6895999 0.19765703 57 24918910 17 20 92 1703
-0.01311362 -1.2090123 0.12951256 183 24918910 27 21 58 1216
0.029655473 -1.1670868 0.11383311 265 24918910 37 22 61 1173
0.071561657 -1.1542968 0.10197505 212 24918910 29 23 135 1161
-0.07531964 -1.5851326 0.12706737 52 24918910 13 24 64 1592
-0.013130032 -1.1819928 0.083342262 246 24918910 35 25 74 1185
0.030333083 -1.1953974 0.072864845 205 24918910 29 26 115 1198
0.069221452 -1.1273812 0.058147173 259 24918910 33 27 85 1131
-0.075020254 -1.562723 0.068007603 70 24918910 17 28 76 1566
-0.013110448 -1.144268 0.038781568 149 24918910 19 29 36 1145
0.027664594 -1.1323175 0.027938651 236 24918910 30 30 43 1133
0.067368865 -1.1038227 0.016523046 288 24918910 35 31 72 1106
-0.057026401 -1.1866016 0.0082937377 96 24918910 14 32 87 1188
-0.012745412 -1.0779213 -0.0027281214 227 24918910 26 33 74 1078
0.026998052 -1.1105928 -0.013262861 291 24918910 36 34 79 1111
0.065322414 -1.0817803 -0.023250123 285 24918910 34 35 73 1084
-0.057630762 -1.187078 -0.035293907 156 24918910 22 36 91 1189
-0.014227877 -1.1330442 -0.044322867 315 24918910 41 37 62 1134
0.025906967 -1.0844061 -0.052804742 327 24918910 39 38 133 1086
0.065546989 -1.0851847 -0.063237503 290 24918910 34 39 58 1089
-0.055215225 -1.1191738 -0.07436692 208 24918910 26 40 91 1123
-0.014763031 -1.1346513 -0.085979372 294 24918910 38 41 76 1138
0.026247106 -1.1116447 -0.094937153 307 24918910 38 42 155 1116
0.070608087 -1.1795797 -0.11213969 261 24918910 37 43 73 1187
-0.056815747 -1.1435047 -0.11819432 202 24918910 27 44 93 1151
-0.015406069 -1.1486293 -0.12941948 238 24918910 32 45 51 1156
0.027401073 -1.1868528 -0.14507201 255 24918910 37 46 107 1196
0.073803671 -1.2380369 -0.16376451 252 24918910 39 47 119 1251
-0.068160966 -1.3490413 -0.1895728 307 24918910 57 48 58 1364
-0.018925618 -1.3665711 -0.20505981 176 24918910 34 49 38 1382
0.028756801 -1.2744945 -0.20375933 295 24918910 49 50 96 1291
0.07375174 -1.2430091 -0.21132441 387 24918910 62 51 92 1263
-0.068095401 -1.3243517 -0.23635787 296 24918910 54 52 63 1347
-0.018014412 -1.2549026 -0.23584785 450 24918910 73 53 45 1277
0.028301524 -1.2720368 -0.25165549 359 24918910 60 54 127 1297
0.074127704 -1.2489769 -0.26047257 371 24918910 61 55 85 1278
-0.070207387 -1.3507158 -0.29341784 328 24918910 63 56 80 1384
-0.018557036 -1.2472016 -0.28281632 289 24918910 47 57 43 1279
