# .PCD v0.7 - Point Cloud Data file format
VERSION 0.7
FIELDS x y z intensity t reflectivity ring noise range
SIZE 4 4 4 4 4 2 1 2 4
TYPE F F F F U U U U U
COUNT 1 1 1 1 1 1 1 1 1
WIDTH 778
HEIGHT 1
VIEWPOINT 0 0 0 1 0 0 0
POINTS 778
DATA ascii
1.1702569 -1.6336862 0.34509319 256 15438780 106 14 95 2039
1.2541566 -1.6218041 0.33282471 334 15438780 144 15 45 2077
1.0584921 -1.7345564 0.31312034 104 15438780 44 16 35 2056
1.0714948 -1.6195198 0.28017691 45 15438780 18 17 60 1962
1.1706895 -1.6361593 0.27086839 63 15438780 26 18 73 2030
1.2779583 -1.6546707 0.26141357 304 15438780 135 19 75 2107
1.0549215 -1.7287731 0.23665455 208 15438780 86 20 49 2039
1.1343185 -1.7150606 0.22025655 328 15438780 140 21 45 2068
1.21368 -1.6979332 0.20350215 328 15438780 144 22 63 2097
1.3051543 -1.6917748 0.18840355 277 15438780 127 23 120 2145
1.0568206 -1.7326334 0.16250575 321 15438780 133 24 44 2036
1.1402824 -1.7250593 0.14579621 315 15438780 135 25 55 2073
1.2316289 -1.7231708 0.12906444 324 15438780 146 26 114 2122
1.3257651 -1.7206013 0.11182149 66 15438780 31 27 95 2175
1.0697901 -1.7558262 0.089373969 403 15438780 171 28 22 2058
1.1793096 -1.7854555 0.072516441 312 15438780 143 29 38 2141
1.2638408 -1.7717658 0.053682651 291 15438780 138 30 37 2177
1.340771 -1.741396 0.03283694 351 15438780 170 31 78 2198
1.105019 -1.8138604 0.014828198 326 15438780 147 32 84 2124
1.1886921 -1.8010956 -0.005461304 320 15438780 149 33 67 2158
1.3068814 -1.8325776 -0.02687192 291 15438780 148 34 95 2251
1.3845838 -1.8007046 -0.048730884 330 15438780 170 35 91 2272
1.1291342 -1.8554851 -0.064502664 357 15438780 168 36 131 2173
1.2040616 -1.8272955 -0.085597068 326 15438780 157 37 61 2190
1.3110372 -1.8400351 -0.10998556 331 15438780 169 38 136 2262
1.4294543 -1.8589933 -0.13640486 252 15438780 139 39 72 2349
1.135022 -1.8684634 -0.14509167 394 15438780 189 40 106 2191
1.2160623 -1.8473319 -0.16757669 373 15438780 183 41 117 2218
1.3177222 -1.8505106 -0.19395763 358 15438780 186 42 121 2280
1.4183991 -1.8466828 -0.22097284 281 15438780 154 43 46 2339
1.1453071 -1.8868785 -0.2278655 430 15438780 212 44 95 2219
1.2668393 -1.9261508 -0.2597346 381 15438780 205 45 58 2320
1.3647172 -1.9186324 -0.28771806 278 15438780 156 46 110 2372
1.4434539 -1.8802538 -0.31299832 261 15438780 149 47 122 2391
1.1678938 -1.9277289 -0.31632528 451 15438780 234 48 75 2276
1.2979198 -1.9752836 -0.35462588 277 15438780 158 49 49 2390
1.3835182 -1.9472221 -0.38179231 298 15438780 174 50 54 2419
1.4853474 -1.9359435 -0.41411555 289 15438780 177 51 53 2475
1.1934637 -1.9738971 -0.41112581 441 15438780 242 52 93 2343
1.309908 -1.9957285 -0.44860956 307 15438780 181 53 69 2429
1.4249593 -2.0068831 -0.48681852 279 15438780 176 54 78 2509
1.5339961 -1.9992781 -0.52461374 339 15438780 224 55 51 2574
1.0689462 -1.770187 -0.44860709 359 15438780 161 56 100 2116
1.3383749 -2.0414288 -0.55347085 298 15438780 187 57 61 2503
1.4412069 -2.0305917 -0.59000117 306 15438780 200 58 46 2559
1.5639597 -2.0386984 -0.63588363 333 15438780 234 59 72 2647
0.9834674 -1.6329453 -0.48918882 425 15438780 165 60 20 1968
1.3666373 -2.0883512 -0.66556805 318 15438780 212 61 42 2583
1.4664741 -2.0670326 -0.70266002 280 15438780 194 62 63 2630
1.6038678 -2.0889082 -0.75970584 274 15438780 206 63 42 2741
0.92755973 -1.5441116 0.56224686 360 15535740 128 0 1 1887
0.98846632 -1.5119419 0.54218262 381 15535740 136 1 7 1886
1.1008689 -1.5532281 0.55126601 310 15535740 122 2 38 1982
1.1904172 -1.5521916 0.54641521 76 15535740 31 3 28 2031
0.95080119 -1.5809884 0.49837157 397 15535740 145 4 18 1911
1.031626 -1.5794624 0.48953834 325 15535740 123 5 1 1949
1.0890716 -1.5378344 0.46941769 320 15535740 121 6 78 1942
1.182799 -1.5454955 0.46522227 96 15535740 38 7 44 2001
0.96304971 -1.6006594 0.43048134 357 15535740 131 8 9 1917
1.0190743 -1.5589377 0.40969533 367 15535740 133 9 20 1907
1.0472703 -1.4805062 0.38070384 106 15535740 36 10 47 1853
1.1940815 -1.563062 0.3937546 312 15535740 125 11 20 2006
0.98805964 -1.6416438 0.36762109 361 15535740 138 12 69 1951
1.0680175 -1.6351795 0.35461563 287 15535740 113 13 42 1985
1.1602107 -1.640836 0.34509319 265 15535740 110 14 77 2039
1.2226168 -1.6012259 0.32705593 349 15535740 145 15 56 2041
1.0172505 -1.6902107 0.30398259 167 15535740 67 16 15 1996
1.0550448 -1.6161184 0.27846327 63 15535740 24 17 70 1950
1.1331847 -1.604455 0.2644636 65 15535740 26 18 64 1982
1.2750018 -1.6719494 0.26290241 306 15535740 138 19 62 2119
0.97668898 -1.6228799 0.2213341 108 15535740 39 20 63 1907
1.1172527 -1.7119961 0.21897845 326 15535740 138 21 67 2056
1.2032388 -1.7053483 0.20350215 327 15535740 144 22 64 2097
1.2802625 -1.680733 0.18629552 331 15535740 149 23 117 2121
1.0461695 -1.7390852 0.16250575 326 15535740 135 24 36 2036
1.1296761 -1.7320234 0.14579621 333 15535740 143 25 69 2073
1.2279375 -1.7404826 0.1297943 319 15535740 145 26 112 2134
1.3006703 -1.7096281 0.1105876 251 15535740 116 27 68 2151
1.0651715 -1.7726334 0.089895107 398 15535740 170 28 38 2070
1.1814288 -1.8127533 0.073329337 301 15535740 141 29 52 2165
1.2460393 -1.7696785 0.053386744 301 15535740 141 30 56 2165
1.3227992 -1.740038 0.032657668 353 15535740 169 31 67 2186
1.1062286 -1.8411783 0.014995747 319 15535740 147 32 59 2148
1.1710701 -1.7982998 -0.0054309354 314 15535740 145 33 65 2146
1.2748917 -1.8111261 -0.026442159 304 15535740 149 34 80 2215
1.3590001 -1.7900555 -0.048216123 347 15535740 175 35 69 2248
1.1115555 -1.8520937 -0.064146452 368 15535740 172 36 139 2161
1.1928269 -1.8346491 -0.085597068 341 15535740 164 37 63 2190
1.2997223 -1.8480448 -0.10998556 335 15535740 171 38 138 2262
1.3890446 -1.8295636 -0.13361752 256 15535740 136 39 82 2301
1.1173824 -1.865121 -0.144297 383 15535740 182 40 103 2179
1.2112222 -1.8647934 -0.1684833 346 15535740 172 41 108 2230
1.2925918 -1.8389972 -0.19191596 358 15535740 182 42 130 2256
1.4142599 -1.8648697 -0.2221065 284 15535740 157 43 49 2351
1.1459696 -1.9143538 -0.23033002 444 15535740 223 44 114 2243
1.2355227 -1.9038792 -0.25570425 381 15535740 199 45 58 2284
1.3460746 -1.9172213 -0.28626248 262 15535740 146 46 99 2360
1.4606353 -1.926999 -0.31928188 278 15535740 165 47 111 2439
1.1560434 -1.9348587 -0.31632528 427 15535740 221 48 90 2276
1.266408 -1.9533377 -0.34928423 339 15535740 188 49 47 2354
1.3783481 -1.9653761 -0.38368627 308 15535740 182 50 41 2431
1.4734406 -1.945021 -0.41411555 282 15535740 173 51 80 2475
1.1752793 -1.971036 -0.40902019 419 15535740 228 52 92 2331
1.2976377 -2.0037284 -0.44860956 312 15535740 184 53 85 2429
1.3923498 -1.9866683 -0.47983348 290 15535740 178 54 73 2473
1.5004174 -1.9805598 -0.51727647 310 15535740 199 55 50 2538
1.0520641 -1.7666367 -0.44606298 396 15535740 175 56 92 2104
1.2876859 -1.9906449 -0.53755003 375 15535740 222 57 77 2431
1.44212 -2.0585234 -0.59553462 288 15535740 192 58 58 2583
1.5373546 -2.029685 -0.63011819 315 15535740 217 59 86 2623
1.0090426 -1.6989107 -0.50708604 149 15535740 62 60 32 2040
1.2594564 -1.9505862 -0.619187 372 15535740 215 61 68 2403
1.4471302 -2.0665195 -0.69945395 294 15535740 201 62 56 2618
1.6049511 -2.1170862 -0.76635772 239 15535740 183 63 64 2765
0.91222954 -1.5399185 0.55867136 375 15633470 132 0 1 1875
0.9729405 -1.5083202 0.53873295 367 15633470 129 1 2 1874
1.0913179 -1.5599537 0.55126601 293 15633470 115 2 52 1982
1.1459854 -1.5133967 0.5302729 301 15633470 117 3 19 1971
0.95290148 -1.6067209 0.50463051 397 15633470 149 4 3 1935
1.0407909 -1.6150533 0.4985806 288 15633470 113 5 6 1985
1.0996286 -1.5731188 0.47811955 267 15633470 105 6 75 1978
1.1592213 -1.5341005 0.45964238 65 15633470 26 7 66 1977
0.95917708 -1.616595 0.43317607 349 15633470 130 8 11 1929
1.0285467 -1.5947081 0.41742948 343 15633470 130 9 3 1943
1.1793525 -1.6891168 0.43247789 83 15633470 37 10 51 2105
1.1844683 -1.5703593 0.3937546 330 15633470 133 11 19 2006
0.96593767 -1.6274067 0.36309883 370 15633470 137 12 51 1927
1.0515684 -1.6317772 0.35247186 357 15633470 139 13 1 1973
1.123046 -1.6091304 0.33696938 44 15633470 18 14 82 1991
1.2127688 -1.6086975 0.32705593 349 15633470 146 15 58 2041
1.0068604 -1.6964206 0.30398259 348 15633470 139 16 5 1996
1.109423 -1.7224118 0.29559949 40 15633470 17 17 72 2070
1.1573242 -1.6601583 0.27246958 75 15633470 31 18 52 2042
1.2575567 -1.6702286 0.26141357 139 15633470 62 19 58 2107
0.99712855 -1.6800905 0.22829795 85 15633470 33 20 82 1967
1.1002676 -1.7087873 0.21770039 308 15633470 128 21 56 2044
1.1722759 -1.6832966 0.20000856 294 15633470 125 22 70 2061
1.2771105 -1.6981103 0.18734953 339 15633470 154 23 115 2133
1.047685 -1.7660471 0.16442135 309 15633470 131 24 42 2060
1.1255051 -1.7489884 0.14664018 321 15633470 139 25 56 2085
1.2103902 -1.738155 0.12906444 348 15633470 157 26 120 2122
1.2901556 -1.7175767 0.1105876 319 15633470 148 27 85 2151
1.0542747 -1.7791358 0.089895107 410 15633470 176 28 29 2070
1.1443374 -1.7796179 0.071703561 294 15633470 132 29 31 2117
1.2488495 -1.7969928 0.053978559 282 15633470 135 30 26 2189
1.326503 -1.7673143 0.033016212 363 15633470 177 31 75 2210
1.082677 -1.8272841 0.014828198 317 15633470 143 32 82 2124
1.1859601 -1.8458341 -0.0055524101 328 15633470 158 33 61 2194
1.2706013 -1.8287686 -0.026585411 311 15633470 154 34 81 2227
1.3407952 -1.7887607 -0.047958739 332 15633470 166 35 85 2236
1.0940611 -1.848557 -0.063790254 357 15633470 165 36 124 2149
1.1815473 -1.8419336 -0.085597068 339 15633470 163 37 66 2190
1.2746888 -1.8362929 -0.10881861 327 15633470 164 38 124 2238
1.349051 -1.7997094 -0.1308302 337 15633470 171 39 72 2253
1.0937364 -1.8513241 -0.14270768 416 15633470 193 40 115 2155
1.1997572 -1.8721902 -0.1684833 353 15633470 176 41 105 2230
1.2949144 -1.8665417 -0.19395763 376 15633470 195 42 153 2280
1.4099509 -1.8830752 -0.22324018 304 15633470 170 43 45 2363
1.1281339 -1.9110703 -0.22909777 425 15633470 212 44 97 2231
1.2302473 -1.9214667 -0.25704768 385 15633470 203 45 56 2296
1.3275008 -1.9156542 -0.28480691 257 15633470 142 46 95 2348
1.4345279 -1.9168754 -0.31614012 267 15633470 156 47 108 2415
1.1501821 -1.9521542 -0.31799307 437 15633470 229 48 94 2288
1.2607932 -1.9710684 -0.35106477 352 15633470 197 49 45 2366
1.3595186 -1.9640533 -0.38179231 270 15633470 158 50 55 2419
1.4614785 -1.9540253 -0.41411555 279 15633470 171 51 56 2475
1.187115 -2.0189457 -0.41744274 168 15633470 95 52 92 2379
1.2853187 -2.0116527 -0.44860956 300 15633470 177 53 81 2429
1.3868306 -2.0048556 -0.48216182 299 15633470 185 54 65 2485
1.4741635 -1.9709136 -0.51238495 302 15633470 191 55 64 2514
1.0352659 -1.7629462 -0.44351888 422 15633470 185 56 92 2092
1.2754472 -1.9985086 -0.53755003 331 15633470 196 57 69 2431
1.4161799 -2.0481246 -0.59000117 312 15633470 205 58 59 2559
1.5109195 -2.0204227 -0.62435275 307 15633470 208 59 69 2599
1.039718 -1.7752787 -0.52796596 42 15633470 19 60 26 2124
1.0792667 -1.6942399 -0.5357011 353 15633470 152 61 30 2079
1.4475729 -2.0943856 -0.7058661 303 15633470 211 62 46 2642
1.5642951 -2.0899715 -0.7530539 288 15633470 212 63 47 2717
0.90854126 -1.555378 0.56224686 380 15730640 135 0 1 1887
0.97600883 -1.5336546 0.54563242 389 15730640 140 1 1 1898
1.1013734 -1.5950758 0.56127894 187 15730640 76 2 41 2018
1.1020757 -1.4741168 0.51413065 363 15730640 133 3 23 1911
0.91963202 -1.5725366 0.49211255 391 15730640 139 4 1 1887
0.99970198 -1.5723991 0.48351017 401 15730640 149 5 1 1925
1.0767305 -1.5606676 0.47231832 378 15730640 144 6 88 1954
1.0869756 -1.4569923 0.43453294 193 15730640 68 7 59 1869
0.93742961 -1.6022639 0.42778662 355 15730640 129 8 13 1905
0.99357527 -1.5614382 0.40711728 423 15730640 152 9 1 1895
1.1089907 -1.6092893 0.41028902 245 15730640 98 10 36 1997
1.1326438 -1.5209739 0.37962186 374 15730640 140 11 24 1934
0.96783972 -1.6536452 0.36762109 355 15730640 135 12 47 1951
1.0478709 -1.6481626 0.35461563 362 15730640 143 13 23 1985
1.1131514 -1.615991 0.33696938 45 15730640 18 14 82 1991
1.1958029 -1.6066067 0.32513303 361 15730640 148 15 57 2029
0.98445129 -1.6820949 0.30032751 347 15730640 135 16 1 1972
1.0415032 -1.6389681 0.28017691 92 15730640 36 17 65 1962
1.1403748 -1.6574306 0.27086839 82 15730640 34 18 80 2030
1.2117664 -1.6301323 0.25396943 73 15730640 31 19 62 2047
1.0530225 -1.799332 0.24361841 106 15730640 47 20 73 2099
1.0961598 -1.7255776 0.21897845 307 15730640 130 21 58 2056
1.1822209 -1.7199855 0.20350215 326 15730640 144 22 64 2097
1.2595408 -1.6963172 0.18629552 337 15730640 152 23 112 2121
1.0126699 -1.7311426 0.16059017 324 15730640 131 24 44 2012
1.1083364 -1.7457558 0.14579621 313 15730640 134 25 57 2073
1.1929178 -1.7356778 0.12833457 340 15730640 151 26 109 2110
1.272454 -1.7158347 0.10997066 301 15730640 138 27 104 2139
1.0433383 -1.7855713 0.089895107 394 15730640 169 28 40 2070
1.1333964 -1.786606 0.071703561 298 15730640 133 29 47 2117
1.2242287 -1.7848361 0.053386744 264 15730640 124 30 54 2165
1.2942029 -1.7464994 0.032478392 368 15730640 174 31 85 2174
1.0653912 -1.8235317 0.014744421 337 15730640 150 32 68 2112
1.1810365 -1.8632118 -0.0055827787 338 15730640 165 33 69 2206
1.2525704 -1.8266345 -0.026442159 304 15730640 149 34 87 2215
1.3512042 -1.8258852 -0.048730884 339 15730640 175 35 79 2272
1.0947895 -1.8759544 -0.064502664 343 15730640 162 36 130 2173
1.1702231 -1.8491488 -0.085597068 339 15730640 163 37 60 2190
1.2633976 -1.8440796 -0.10881861 334 15730640 167 38 114 2238
1.3522357 -1.8272125 -0.13222386 317 15730640 165 39 81 2277
1.1064644 -1.8993849 -0.14588632 367 15730640 178 40 93 2203
1.1946412 -1.8896306 -0.16938995 389 15730640 196 41 85 2242
1.2766821 -1.8645865 -0.19293679 371 15730640 191 42 134 2268
1.3841673 -1.872478 -0.22097284 266 15730640 146 43 62 2339
1.1103817 -1.9076402 -0.2278655 383 15730640 189 44 116 2219
1.1993299 -1.8987339 -0.25301731 363 15730640 185 45 48 2260
1.302273 -1.9040998 -0.28189576 364 15730640 197 46 95 2324
1.4298085 -1.9352096 -0.31771097 304 15730640 179 47 104 2427
1.1501212 -1.9797256 -0.32132867 402 15730640 215 48 65 2312
1.229676 -1.9486594 -0.34572315 349 15730640 189 49 48 2330
1.3273889 -1.9430052 -0.37611037 297 15730640 168 50 48 2383
1.4424336 -1.9534385 -0.41210771 281 15730640 171 51 71 2463
1.1924807 -2.0568528 -0.42375967 97 15730640 57 52 80 2415
1.27924 -2.0294785 -0.45082584 309 15730640 184 53 88 2441
1.3678654 -2.0036051 -0.47983348 301 15730640 184 54 84 2473
1.4899573 -2.0177245 -0.52216792 303 15730640 199 55 56 2562
1.0126767 -1.7489679 -0.43843073 350 15730640 150 56 112 2068
1.2881016 -2.0459111 -0.54816389 321 15730640 197 57 79 2479
1.4035863 -2.0567756 -0.59000117 319 15730640 209 58 58 2559
1.4915751 -2.0202842 -0.62146997 284 15730640 190 59 77 2587
1.0288056 -1.7816249 -0.52796596 50 15730640 22 60 25 2124
1.0503424 -1.6713786 -0.52642488 336 15730640 140 61 49 2043
1.4216619 -2.0841224 -0.69945395 328 15730640 224 62 54 2618
1.5308853 -2.071712 -0.74307603 274 15730640 197 63 59 2681
0.8932637 -1.550997 0.55867136 373 15826930 131 0 5 1875
0.96658015 -1.5396144 0.54563242 410 15826930 148 1 1 1898
1.0785836 -1.5827534 0.55460364 297 15826930 118 2 43 1994
1.0998734 -1.4901501 0.51735914 388 15826930 143 3 42 1923
0.90996581 -1.5781498 0.49211255 369 15826930 131 4 1 1887
1.0023785 -1.5981838 0.48953834 391 15826930 148 5 1 1949
1.04092 -1.5287455 0.46071583 392 15826930 143 6 75 1906
0.9949578 -1.3508664 0.40105367 264 15826930 79 7 59 1725
0.9334237 -1.6181147 0.43048134 353 15826930 130 8 5 1917
0.97774482 -1.557579 0.40453923 339 15826930 120 9 3 1883
1.0990953 -1.6160636 0.41028902 260 15826930 104 10 37 1997
1.1302596 -1.5373753 0.38197732 266 15826930 101 11 19 1946
0.92822307 -1.6085156 0.35631546 373 15826930 133 12 30 1891
1.0251913 -1.6345563 0.35032809 351 15826930 135 13 1 1961
1.103215 -1.6227907 0.33696938 51 15826930 20 14 101 1991
1.1929363 -1.6234589 0.32705593 354 15826930 147 15 50 2041
0.96818393 -1.6778313 0.29849994 357 15826930 137 16 1 1960
1.0251186 -1.6352646 0.27846327 140 15826930 53 17 54 1950
1.0967791 -1.6152027 0.26286244 94 15826930 37 18 67 1970
1.1594719 -1.5799391 0.24503647 59 15826930 23 19 72 1975
1.0121776 -1.7541414 0.23665455 303 15826930 126 20 56 2039
1.0665435 -1.7019395 0.2151442 341 15826930 139 21 57 2020
1.151531 -1.6975554 0.20000856 325 15826930 138 22 70 2061
1.2561759 -1.7136545 0.18734953 343 15826930 156 23 103 2133
1.0080051 -1.7476856 0.16154797 354 15826930 145 24 22 2024
1.0912502 -1.7423787 0.14495224 306 15826930 130 25 58 2061
1.1687982 -1.7231396 0.12687485 341 15826930 148 26 113 2086
1.261902 -1.72361 0.10997066 310 15826930 142 27 106 2139
1.0144085 -1.7607753 0.088331714 387 15826930 160 28 35 2034
1.1224127 -1.7935266 0.071703561 327 15826930 146 29 36 2117
1.2132541 -1.7923142 0.053386744 302 15826930 141 30 31 2165
1.2976311 -1.7737756 0.03283694 342 15826930 165 31 70 2198
1.0661615 -1.8508306 0.014911973 308 15826930 141 32 68 2136
1.144133 -1.829725 -0.005461304 337 15826930 157 33 80 2158
1.2346137 -1.8243483 -0.026298905 329 15826930 160 34 97 2203
1.3258207 -1.814767 -0.048216123 360 15826930 182 35 73 2248
1.0712941 -1.8618436 -0.063790254 348 15826930 161 36 137 2149
1.1525052 -1.846123 -0.085128047 354 15826930 168 37 71 2178
1.2453452 -1.8418677 -0.10823513 329 15826930 163 38 143 2226
1.3409986 -1.8354752 -0.13222386 338 15826930 176 39 59 2277
1.0768988 -1.8749894 -0.14350232 401 15826930 188 40 101 2167
1.1766921 -1.8867722 -0.1684833 334 15826930 166 41 95 2230
1.2585229 -1.8624781 -0.19191596 366 15826930 186 42 138 2256
1.3726519 -1.8809358 -0.22097284 308 15826930 168 43 56 2339
1.1045972 -1.9247704 -0.22909777 431 15826930 215 44 89 2231
1.2002692 -1.9262985 -0.25570425 385 15826930 201 45 53 2284
1.2772375 -1.8923088 -0.27898464 418 15826930 221 46 102 2300
1.4038861 -1.9247233 -0.31456923 270 15826930 156 47 113 2403
1.1261395 -1.9661217 -0.31799307 429 15826930 225 48 100 2288
1.2239673 -1.9662424 -0.34750366 362 15826930 199 49 59 2342
1.3353143 -1.9805888 -0.38179231 298 15826930 174 50 44 2419
1.4373896 -1.9718127 -0.41411555 309 15826930 190 51 71 2475
1.16225 -2.0333614 -0.41744274 236 15826930 134 52 81 2379
1.248081 -2.0072436 -0.44417703 307 15826930 178 53 83 2405
1.3555459 -2.0119603 -0.47983348 300 15826930 184 54 79 2473
1.4637076 -2.0078421 -0.51727647 299 15826930 193 55 63 2538
1.0716928 -1.877364 -0.46895975 73 15826930 36 56 108 2212
1.2014313 -1.9344765 -0.5163222 341 15826930 186 57 95 2335
1.3844172 -2.0556641 -0.5872345 318 15826930 207 58 64 2547
1.4654285 -2.0105715 -0.61570454 303 15826930 199 59 57 2563
1.0063533 -1.7677017 -0.52200031 223 15826930 98 60 11 2100
1.0217402 -1.6482275 -0.51714873 362 15826930 146 61 12 2007
1.2796938 -1.9009523 -0.63533288 440 15826930 249 62 108 2378
1.5249398 -2.0903809 -0.74640197 278 15826930 201 63 46 2693
0.889386 -1.5664101 0.56224686 378 15925440 135 0 1 1887
0.94501245 -1.5259733 0.53873295 360 15925440 126 1 1 1874
1.0624193 -1.579777 0.55126601 326 15925440 128 2 36 1982
1.0975156 -1.5062116 0.52058756 405 15925440 152 3 19 1935
0.89454031 -1.5736324 0.48898306 381 15925440 134 4 1 1875
0.96810865 -1.5647933 0.47748199 366 15925440 132 5 1 1901
1.0380145 -1.5447686 0.46361643 403 15925440 148 6 74 1918
1.1582417 -1.5929365 0.47080213 112 15925440 46 7 52 2025
0.91769677 -1.613647 0.42778662 372 15925440 135 8 1 1905
1.0298688 -1.663191 0.43031973 260 15925440 104 9 38 2003
1.0957035 -1.6325284 0.41275445 270 15925440 109 10 55 2009
1.1691854 -1.6109412 0.39846554 48 15925440 20 11 30 2030
0.94747406 -1.6653975 0.36762109 361 15925440 137 12 34 1951
1.0275666 -1.6608975 0.35461563 335 15925440 132 13 19 1985
1.0668806 -1.5902439 0.32884556 44 15925440 17 14 78 1943
1.1690423 -1.6115723 0.32321012 359 15925440 146 15 33 2017
0.95200622 -1.6734318 0.2966724 346 15925440 131 16 1 1948
0.99632579 -1.6112187 0.27332243 167 15925440 61 17 50 1914
1.1133293 -1.6614203 0.2692672 77 15925440 32 18 66 2018
1.1986567 -1.6545224 0.25545827 68 15925440 29 19 70 2059
0.98371494 -1.7292393 0.23247623 315 15925440 126 20 45 2003
1.0623543 -1.7186009 0.21642229 335 15925440 138 21 87 2032
1.1477373 -1.714514 0.2011731 313 15925440 135 22 80 2073
1.2316219 -1.7019621 0.18524152 342 15925440 152 23 140 2109
0.98543721 -1.7330409 0.15963237 330 15925440 132 24 32 2000
1.0931212 -1.7694089 0.14664018 338 15925440 147 25 57 2085
1.1648659 -1.7402323 0.12760471 326 15925440 143 26 96 2098
1.2302425 -1.7021819 0.10811982 300 15925440 133 27 85 2103
1.021348 -1.7982402 0.089895107 407 15925440 174 28 30 2070
1.1050868 -1.7901746 0.071297109 293 15925440 130 29 41 2105
1.2088975 -1.8097001 0.053682651 285 15925440 135 30 44 2177
1.2515986 -1.7330681 0.031940572 341 15925440 156 31 74 2138
1.0370077 -1.8260342 0.014660648 323 15925440 143 32 85 2100
1.107686 -1.7958574 -0.0053398297 314 15925440 140 33 81 2110
1.2233964 -1.8318894 -0.026298905 322 15925440 156 34 81 2203
1.3006251 -1.8034067 -0.047701363 339 15925440 168 35 92 2224
1.065768 -1.8788148 -0.064146452 350 15925440 163 36 131 2161
1.1348684 -1.8429495 -0.084659018 345 15925440 162 37 69 2166
1.2340204 -1.8494743 -0.10823513 348 15925440 172 38 148 2226
1.3227035 -1.8339524 -0.13152702 338 15925440 173 39 50 2265
1.0712736 -1.8919812 -0.144297 409 15925440 194 40 86 2179
1.1525539 -1.8735733 -0.16667004 356 15925440 173 41 111 2206
1.2470713 -1.8701652 -0.19191596 395 15925440 201 42 149 2256
1.3610849 -1.8893229 -0.22097284 242 15925440 133 43 58 2339
1.0751331 -1.9003445 -0.225401 441 15925440 213 44 107 2195
1.1759391 -1.9133085 -0.25301731 368 15925440 188 45 68 2260
1.2722056 -1.9100237 -0.28044018 390 15925440 209 46 98 2312
1.3850982 -1.9236466 -0.31299832 251 15925440 143 47 122 2391
1.0965257 -1.9419509 -0.31298968 423 15925440 215 48 97 2252
1.2056704 -1.9636027 -0.34572315 368 15925440 200 49 51 2330
1.3165728 -1.9788792 -0.37989831 284 15925440 164 50 42 2407
1.411443 -1.9613895 -0.41009989 288 15925440 173 51 74 2451
1.1497517 -2.0404544 -0.41744274 238 15925440 135 52 91 2379
1.2234095 -1.9947569 -0.43974447 381 15925440 216 53 89 2381
1.3366576 -2.010437 -0.47750515 309 15925440 187 54 66 2461
1.4444978 -2.0072498 -0.51483071 322 15925440 206 55 60 2526
1.0659047 -1.8941246 -0.47150385 86 15925440 43 56 95 2224
1.1039532 -1.8021013 -0.47917351 319 15925440 150 57 53 2167
1.3653147 -2.054395 -0.58446777 327 15925440 210 58 67 2535
1.4734741 -2.0478916 -0.62435275 313 15925440 212 59 72 2599
0.98411089 -1.7535709 -0.5160346 357 15925440 154 60 31 2076
0.99951065 -1.6346812 -0.51096451 412 15925440 162 61 17 1983
1.3575873 -2.0436184 -0.68021762 312 15925440 202 62 78 2546
1.5188227 -2.1090548 -0.74972796 283 15925440 207 63 50 2705
0.85737938 -1.5318545 0.5479449 380 16021140 128 0 1 1839
0.94761395 -1.5513599 0.54563242 396 16021140 143 1 8 1898
1.0272115 -1.54785 0.53791547 325 16021140 121 2 44 1934
1.0815041 -1.503535 0.51735914 316 16021140 117 3 14 1923
0.88486779 -1.5790915 0.48898306 359 16021140 126 4 3 1875
0.97664028 -1.600449 0.48652422 373 16021140 140 5 1 1937
1.0285164 -1.5511087 0.46361643 426 16021140 157 6 88 1918
1.1076121 -1.5431241 0.45406249 313 16021140 119 7 57 1953
0.91349661 -1.6294475 0.43048134 370 16021140 136 8 9 1917
1.0074269 -1.6494752 0.42516363 212 16021140 83 9 26 1979
1.0662113 -1.6098469 0.40535817 345 16021140 134 10 40 1973
1.145573 -1.5989547 0.3937546 38 16021140 15 11 36 2006
0.93723756 -1.6711798 0.36762109 380 16021140 145 12 20 1951
1.0112058 -1.6570926 0.35247186 351 16021140 137 13 17 1973
1.1223899 -1.6953765 0.34915513 124 16021140 53 14 63 2063
1.1591319 -1.618715 0.32321012 341 16021140 139 15 58 2017
0.94752145 -1.689586 0.29849994 324 16021140 125 16 1 1960
1.0544498 -1.7288398 0.29217222 107 16021140 45 17 57 2046
1.0768754 -1.6285402 0.26286244 57 16021140 22 18 55 1970
1.1815556 -1.6521608 0.25396943 48 16021140 20 19 73 2047
0.97891581 -1.7456387 0.23386902 318 16021140 129 20 41 2015
1.0580006 -1.7352746 0.21770039 318 16021140 133 21 60 2044
1.1371956 -1.7215241 0.2011731 332 16021140 143 22 63 2073
1.2142073 -1.6997603 0.18418752 353 16021140 155 23 104 2097
0.98648244 -1.7599237 0.16154797 338 16021140 138 24 35 2024
1.0697863 -1.7556388 0.14495224 349 16021140 148 25 64 2061
1.1541661 -1.7473471 0.12760471 334 16021140 147 26 110 2098
1.2615361 -1.7682331 0.11182149 322 16021140 152 27 91 2175
1.0044382 -1.7940124 0.089373969 367 16021140 155 28 20 2058
1.0816076 -1.7764342 0.070484228 295 16021140 128 29 42 2081
1.184566 -1.7970515 0.053090837 303 16021140 140 30 53 2153
1.2688013 -1.7797958 0.032657668 352 16021140 168 31 57 2186
1.0257839 -1.8323628 0.014660648 317 16021140 140 32 68 2100
1.1028829 -1.8128722 -0.0053701983 325 16021140 147 33 66 2122
1.2121332 -1.8393615 -0.026298905 327 16021140 159 34 82 2203
1.2964929 -1.8211267 -0.047958739 340 16021140 170 35 69 2236
1.0425116 -1.8643806 -0.063434049 330 16021140 151 36 129 2137
1.1173143 -1.8396295 -0.084189989 332 16021140 154 37 75 2154
1.2094668 -1.8369896 -0.10706817 351 16021140 170 38 119 2202
1.2975298 -1.8225157 -0.13013338 335 16021140 168 39 72 2241
1.0596443 -1.8985188 -0.144297 428 16021140 203 40 101 2179
1.1348293 -1.8703799 -0.16576339 359 16021140 173 41 96 2194
1.2224283 -1.8578055 -0.18987431 369 16021140 184 42 138 2232
1.3425432 -1.8879031 -0.21983916 372 16021140 201 43 54 2327
1.0983357 -1.9694556 -0.23279455 447 16021140 230 44 107 2267
1.1703587 -1.9306853 -0.2543608 365 16021140 189 45 82 2272
1.2539198 -1.90784 -0.27898464 383 16021140 203 46 79 2300
1.3594846 -1.9127154 -0.30985656 299 16021140 167 47 124 2367
1.07881 -1.9382589 -0.31132188 408 16021140 205 48 96 2240
1.1874518 -1.9608126 -0.34394258 365 16021140 196 49 40 2318
1.2979028 -1.9770147 -0.37800437 303 16021140 174 50 59 2395
1.3925302 -1.9603678 -0.40809205 312 16021140 186 51 59 2439
1.1486825 -2.0681262 -0.42165402 109 16021140 63 52 83 2403
1.1989387 -1.9820441 -0.43531194 400 16021140 222 53 85 2357
1.3372114 -2.0382864 -0.48216182 302 16021140 187 54 94 2485
1.4321544 -2.0160751 -0.51483071 305 16021140 195 55 69 2526
1.0599508 -1.9108844 -0.4740479 128 16021140 64 56 108 2236
1.0747193 -1.7787912 -0.4712131 331 16021140 151 57 59 2131
1.3270706 -2.0236762 -0.57340091 328 16021140 203 58 78 2487
1.4608808 -2.0568941 -0.62435275 345 16021140 233 59 75 2599
0.99583739 -1.8002599 -0.52796596 363 16021140 164 60 42 2124
0.98347396 -1.6308544 -0.50787246 271 16021140 105 61 11 1971
1.3577014 -2.0712526 -0.68662977 298 16021140 197 62 82 2570
1.4924926 -2.0995395 -0.74307603 302 16021140 217 63 51 2681
0.85349715 -1.5471164 0.55152035 361 16120090 124 0 1 1851
0.92028433 -1.5276103 0.53528321 396 16120090 137 1 1 1862
1.0303239 -1.5734097 0.54459071 318 16120090 122 2 31 1958
1.1190964 -1.5761085 0.5399583 247 16120090 99 3 40 2007
0.89196515 -1.6149135 0.49837157 381 16120090 139 4 1 1911
0.94883335 -1.5765556 0.47748199 359 16120090 130 5 1 1901
1.0126045 -1.5476465 0.46071583 435 16120090 158 6 72 1906
1.0913756 -1.5403681 0.45127258 380 16120090 143 7 40 1941
0.90348136 -1.6350219 0.43048134 346 16120090 127 8 22 1917
0.99728692 -1.6556256 0.42516363 340 16120090 133 9 29 1979
1.0434643 -1.5966971 0.40042731 391 16120090 148 10 36 1949
1.1289464 -1.5963469 0.39139915 85 16120090 34 11 21 1994
0.90986133 -1.6459569 0.36083773 367 16120090 134 12 51 1915
0.97666585 -1.6228013 0.34389678 335 16120090 124 13 11 1925
1.0731578 -1.6428224 0.33696938 343 16120090 136 14 70 1991
1.1491778 -1.6257968 0.32321012 347 16120090 141 15 45 2017
0.93713653 -1.6953682 0.29849994 343 16120090 132 16 1 1960
1.0376999 -1.7250998 0.29045865 128 16120090 53 17 55 2034
1.1253505 -1.724758 0.27727315 124 16120090 54 18 79 2078
1.1576619 -1.6399242 0.25099176 73 16120090 30 19 69 2023
0.95665455 -1.7307495 0.23108347 316 16120090 125 20 41 1991
1.0165895 -1.6906065 0.21130995 153 16120090 60 21 57 1984
1.1266111 -1.7284694 0.2011731 335 16120090 144 22 57 2073
1.2037549 -1.7071785 0.18418752 314 16120090 138 23 105 2097
0.95831138 -1.7345333 0.15867457 313 16120090 124 24 37 1988
1.0528278 -1.7519097 0.14410825 320 16120090 135 25 66 2049
1.1434228 -1.7543961 0.12760471 310 16120090 136 26 120 2098
1.2092615 -1.7171507 0.10811982 315 16120090 139 27 89 2103
0.99920392 -1.8106383 0.089895107 395 16120090 169 28 48 2070
1.0706873 -1.7830373 0.070484228 279 16120090 121 29 33 2081
1.1931394 -1.8344554 0.053978559 286 16120090 137 30 47 2189
1.2509519 -1.7777348 0.032478392 338 16120090 160 31 82 2174
1.0203186 -1.8491286 0.014744421 291 16120090 130 32 79 2112
1.0917386 -1.8196052 -0.0053701983 303 16120090 136 33 57 2122
1.1746602 -1.8065264 -0.025725894 306 16120090 142 34 89 2155
1.2646009 -1.7995995 -0.047186594 368 16120090 178 35 92 2200
1.0484215 -1.9022568 -0.064502664 324 16120090 153 36 123 2173
1.0936824 -1.8258774 -0.083251946 364 16120090 165 37 56 2130
1.2047019 -1.8544272 -0.10765164 364 16120090 178 38 139 2214
1.2863226 -1.8304429 -0.13013338 333 16120090 167 39 81 2241
1.0306613 -1.873512 -0.14191301 369 16120090 170 40 96 2143
1.1356195 -1.8978437 -0.16757669 356 16120090 175 41 98 2218
1.2175168 -1.8752996 -0.19089514 356 16120090 179 42 122 2244
1.3034803 -1.8569933 -0.21530442 385 16120090 200 43 52 2279
1.0632315 -1.9343158 -0.2278655 401 16120090 198 44 103 2219
1.1401339 -1.907125 -0.25033042 404 16120090 202 45 70 2236
1.2616329 -1.9454798 -0.28335136 388 16120090 212 46 92 2336
1.3545554 -1.9307601 -0.31142747 284 16120090 161 47 127 2379
1.0783279 -1.9656796 -0.31465748 406 16120090 208 48 97 2264
1.1753981 -1.9680617 -0.34394258 370 16120090 199 49 58 2318
1.2728633 -1.9650502 -0.37421641 320 16120090 180 50 56 2371
1.4008514 -1.9979362 -0.41411555 284 16120090 174 51 61 2475
1.1076072 -2.0233219 -0.41112581 182 16120090 100 52 94 2343
1.1686286 -1.9589785 -0.42866313 314 16120090 169 53 96 2321
1.3310764 -2.0563354 -0.48449019 308 16120090 192 54 80 2497
1.4130124 -2.0152059 -0.51238495 272 16120090 172 55 71 2514
1.0313296 -1.8864824 -0.46641564 284 16120090 137 56 106 2200
1.0278425 -1.7250304 -0.45529222 375 16120090 159 57 53 2059
1.2448533 -1.9239419 -0.54296708 419 16120090 233 58 78 2355
1.4348588 -2.0467427 -0.6185872 348 16120090 231 59 71 2575
0.9847725 -1.8063364 -0.52796596 339 16120090 153 60 36 2124
1.0504949 -1.7664115 -0.54806936 77 16120090 35 61 30 2127
1.1377268 -1.7591164 -0.58082998 330 16120090 156 62 79 2174
1.4729594 -2.0992196 -0.73975003 306 16120090 218 63 43 2669
0.84398812 -1.5523243 0.55152035 374 16218540 128 0 1 1851
0.92263454 -1.5529906 0.54218262 381 16218540 136 1 10 1886
1.014395 -1.5700204 0.54125309 322 16218540 122 2 43 1946
1.0696052 -1.5261581 0.52058756 416 16218540 156 3 22 1935
0.86542332 -1.5898312 0.48898306 391 16218540 137 4 1 1875
0.95099849 -1.6023248 0.48351017 383 16218540 142 5 1 1925
1.0030892 -1.5538306 0.46071583 383 16218540 139 6 79 1906
1.0618373 -1.5183425 0.44290274 431 16218540 156 7 54 1905
0.89343202 -1.6405348 0.43048134 346 16218540 127 8 20 1917
0.96316743 -1.6214093 0.41485143 363 16218540 135 9 12 1931
1.0463758 -1.6228098 0.40535817 358 16218540 139 10 43 1973
1.0854552 -1.5550019 0.37962186 102 16218540 38 11 20 1934
0.88846856 -1.6308109 0.35631546 356 16218540 127 12 33 1891
0.9907946 -1.6693769 0.35247186 372 16218540 145 13 11 1973
1.0694646 -1.6593171 0.33900034 342 16218540 137 14 89 2003
1.118848 -1.6036744 0.31744134 259 16218540 101 15 45 1981
0.92104256 -1.6906716 0.2966724 337 16218540 128 16 1 1948
1.0331548 -1.7416493 0.29217222 92 16218540 39 17 69 2046
1.0761218 -1.6716318 0.26766598 124 16218540 50 18 70 2006
1.154385 -1.6567662 0.2524806 41 16218540 17 19 72 2035
0.94031513 -1.7261202 0.22969072 329 16218540 129 20 26 1979
1.0366265 -1.7481272 0.21770039 282 16218540 118 21 43 2044
1.1095241 -1.7253041 0.20000856 293 16218540 124 22 57 2061
1.2000856 -1.7243439 0.18524152 338 16218540 150 23 120 2109
0.96481115 -1.7718968 0.16154797 316 16218540 129 24 29 2024
1.0420585 -1.7583368 0.14410825 343 16218540 144 25 58 2049
1.1261582 -1.7513045 0.12687485 315 16218540 137 26 111 2086
1.2123823 -1.7442191 0.10935371 311 16218540 141 27 109 2127
0.96516335 -1.7746079 0.087810576 401 16218540 164 28 34 2022
1.0597266 -1.7895734 0.070484228 322 16218540 139 29 26 2081
1.1559452 -1.8013563 0.052794926 332 16218540 152 30 43 2141
1.246865 -1.7952319 0.032657668 358 16218540 171 31 95 2186
0.99748796 -1.8342708 0.014576872 330 16218540 144 32 56 2088
1.0866636 -1.8365972 -0.0054005668 300 16218540 137 33 79 2134
1.1765118 -1.8338989 -0.0260124 319 16218540 152 34 97 2179
1.2330225 -1.7777506 -0.04641445 353 16218540 165 35 72 2164
1.0367298 -1.908654 -0.064502664 374 16218540 177 36 113 2173
1.0885568 -1.8428781 -0.083720967 349 16218540 160 37 76 2142
1.186833 -1.8516934 -0.10706817 343 16218540 166 38 140 2202
1.275067 -1.8383012 -0.13013338 314 16218540 158 39 79 2241
1.0191463 -1.8798008 -0.14191301 408 16218540 187 40 110 2143
1.1178724 -1.8944707 -0.16667004 352 16218540 171 41 118 2206
1.1866399 -1.8525306 -0.18783265 375 16218540 183 42 144 2208
1.2988648 -1.8747764 -0.21643811 385 16218540 202 43 67 2291
1.0570283 -1.9512988 -0.22909777 410 16218540 204 44 108 2231
1.152634 -1.9551744 -0.25570425 400 16218540 209 45 62 2284
1.2304133 -1.9230839 -0.27898464 418 16218540 221 46 110 2300
1.3494555 -1.9488158 -0.31299832 262 16218540 150 47 112 2391
1.0605949 -1.9618053 -0.31298968 413 16218540 210 48 90 2252
1.1693225 -1.9854624 -0.34572315 365 16218540 198 49 48 2330
1.2480199 -1.9528539 -0.37042847 401 16218540 221 50 48 2347
1.3751011 -1.9870373 -0.41009989 315 16218540 189 51 77 2451
1.0951716 -2.0300798 -0.41112581 227 16218540 125 52 94 2343
1.1266876 -1.9152864 -0.41758183 333 16218540 170 53 105 2261
1.3057616 -2.0446212 -0.47983348 286 16218540 175 54 76 2473
1.3939352 -2.0141776 -0.50993919 329 16218540 206 55 62 2502
1.0141729 -1.8824509 -0.4638716 330 16218540 158 56 116 2188
1.0290958 -1.7514851 -0.46059921 425 16218540 184 57 48 2083
1.3147029 -2.0594933 -0.57893431 297 16218540 187 58 66 2511
1.4090171 -2.03635 -0.61282176 356 16218540 232 59 69 2551
0.99017334 -1.8430626 -0.53691459 338 16218540 158 60 42 2160
1.0279059 -1.7528204 -0.54188526 55 16218540 24 61 27 2103
1.0584882 -1.6588331 -0.5455634 302 16218540 126 62 80 2042
1.4469221 -2.0892606 -0.73309815 292 16218540 204 63 49 2645
0.83985704 -1.5675707 0.55509585 393 16312850 136 0 1 1863
0.9130882 -1.5586225 0.54218262 403 16312850 143 1 5 1886
1.0233296 -1.6053743 0.55126601 321 16312850 126 2 48 1982
1.0602207 -1.5326923 0.52058756 395 16312850 148 3 28 1935
0.85565197 -1.5951115 0.48898306 365 16312850 128 4 9 1875
0.91768134 -1.5680312 0.47145382 358 16312850 126 5 1 1877
1.018557 -1.5992415 0.47231832 246 16312850 94 6 66 1954
1.045871 -1.5152241 0.44011283 443 16312850 159 7 76 1893
0.87781954 -1.6356823 0.42778662 350 16312850 127 8 1 1905
0.95320052 -1.6272887 0.41485143 351 16312850 131 9 36 1931
0.99227434 -1.5598369 0.38810012 454 16312850 162 10 50 1889
1.1560013 -1.6779073 0.40788737 113 16312850 49 11 37 2078
0.88959438 -1.6569983 0.36083773 378 16312850 139 12 36 1915
0.96264172 -1.6448544 0.34604055 341 16312850 128 13 10 1937
1.0465709 -1.6458879 0.33493844 324 16312850 127 14 84 1979
1.0955515 -1.5909979 0.31359553 53 16312850 20 15 48 1957
0.88821238 -1.6544935 0.28936219 345 16312850 125 16 1 1900
0.9984619 -1.7069482 0.28531778 274 16312850 109 17 52 1998
1.0275891 -1.6179688 0.25805885 159 16312850 59 18 56 1934
1.1576916 -1.6834406 0.25545827 77 16312850 33 19 66 2059
0.93534356 -1.7423588 0.23108347 309 16312850 122 20 45 1991
1.0258806 -1.754455 0.21770039 291 16312850 122 21 65 2044
1.1053153 -1.7421645 0.2011731 325 16312850 140 22 70 2073
1.1894827 -1.731675 0.18524152 314 16312850 140 23 125 2109
0.95392084 -1.7777834 0.16154797 349 16312850 143 24 30 2024
1.0312499 -1.7646976 0.14410825 319 16312850 134 25 52 2049
1.0961419 -1.7278389 0.12468525 345 16312850 145 26 110 2050
1.1880983 -1.7318609 0.10811982 304 16312850 135 27 82 2103
0.95991963 -1.7910634 0.088331714 402 16312850 166 28 41 2034
1.0668683 -1.8271124 0.071703561 310 16312850 139 29 26 2117
1.164121 -1.8388228 0.053682651 320 16312850 151 30 45 2177
1.20869 -1.7632618 0.031940572 356 16312850 163 31 60 2138
0.99188226 -1.8509336 0.014660648 310 16312850 137 32 68 2100
1.069327 -1.8328655 -0.0053701983 307 16312850 138 33 73 2122
1.1588199 -1.8309442 -0.025869144 305 16312850 143 34 88 2167
1.2559755 -1.8347826 -0.047701363 351 16312850 174 35 62 2224
1.0136783 -1.8938291 -0.063790254 346 16312850 160 36 116 2149
1.0651587 -1.8287996 -0.082782917 345 16312850 155 37 77 2118
1.194666 -1.8893322 -0.10881861 348 16312850 174 38 143 2238
1.250229 -1.8263193 -0.1287397 347 16312850 171 39 69 2217
1.0188771 -1.9071407 -0.14350232 405 16312850 190 40 92 2167
1.106227 -1.9012941 -0.16667004 374 16312850 182 41 114 2206
1.1880251 -1.8799917 -0.18987431 380 16312850 189 42 144 2232
1.2873369 -1.8827107 -0.21643811 408 16312850 214 43 66 2291
1.0394144 -1.9472176 -0.2278655 409 16312850 201 44 104 2219
1.1226374 -1.931282 -0.25167388 371 16312850 188 45 61 2248
1.2122324 -1.9205246 -0.27752906 416 16312850 218 46 88 2288
1.3240473 -1.937415 -0.30985656 258 16312850 145 47 109 2367
1.0485375 -1.9682761 -0.31298968 393 16312850 199 48 76 2252
1.1451991 -1.9720751 -0.34216201 266 16312850 141 49 55 2306
1.2296942 -1.9504511 -0.36853451 386 16312850 210 50 29 2335
1.3562104 -1.9856677 -0.40809205 282 16312850 168 51 60 2439
1.0771494 -2.02633 -0.40902019 317 16312850 172 52 75 2331
1.0853281 -1.8711553 -0.40650049 351 16312850 170 53 86 2201
1.2555408 -1.9928346 -0.46586338 371 16312850 214 54 73 2401
1.3749239 -2.0129914 -0.50749344 335 16312850 208 55 62 2490
1.0575906 -1.9922198 -0.48931244 384 16312850 205 56 112 2308
1.0183295 -1.7577665 -0.46059921 133 16312850 57 57 55 2083
1.2584844 -1.9983571 -0.55956733 370 16312850 218 58 68 2427
1.3899266 -2.0353377 -0.60993898 373 16312850 241 59 61 2539
0.98972195 -1.8696491 -0.5428803 362 16312850 173 60 45 2184
1.0577586 -1.8293579 -0.56352973 71 16312850 34 61 31 2187
1.0236485 -1.6261516 -0.53273922 322 16312850 128 62 73 1994
1.3755196 -2.0124302 -0.70316446 305 16312850 197 63 71 2537
0.81952757 -1.5524343 0.5479449 365 16412770 123 0 1 1839
0.89775878 -1.5542433 0.53873295 391 16412770 137 1 16 1874
0.99505204 -1.5823505 0.54125309 343 16412770 130 2 47 1946
1.0507964 -1.5391688 0.52058756 340 16412770 127 3 31 1935
0.85126185 -1.6105738 0.49211255 375 16412770 134 4 2 1887
0.91384804 -1.5836929 0.47446787 366 16412770 131 5 1 1889
0.99633539 -1.5857421 0.46651706 345 16412770 129 6 73 1930
1.0562668 -1.55055 0.44848263 421 16412770 157 7 64 1929
0.84590167 -1.5996888 0.41700774 364 16412770 126 8 1 1857
0.93733633 -1.6229581 0.41227338 342 16412770 126 9 5 1919
1.0014124 -1.5957384 0.39549643 399 16412770 148 10 34 1925
1.1192199 -1.6460477 0.39846554 329 16412770 135 11 26 2030
0.87941045 -1.6624255 0.36083773 349 16412770 128 12 41 1915
0.96433312 -1.6711832 0.35032809 331 16412770 127 13 9 1961
1.042737 -1.6622974 0.33696938 362 16412770 144 14 88 1991
1.132373 -1.6662675 0.32705593 53 16412770 22 15 44 2041
0.90022606 -1.7018468 0.2966724 336 16412770 128 16 8 1948
0.98796946 -1.7130425 0.28531778 315 16412770 126 17 58 1998
1.0239563 -1.6343215 0.25966004 133 16412770 50 18 54 1946
1.1607141 -1.7102174 0.25843593 295 16412770 128 19 58 2083
0.91348934 -1.7269936 0.22829795 312 16412770 121 20 28 1967
1.0031772 -1.7400427 0.2151442 310 16412770 126 21 41 2020
1.0882684 -1.7387898 0.20000856 326 16412770 139 22 75 2061
1.1721275 -1.7290465 0.18418752 340 16412770 150 23 122 2097
0.93181276 -1.7624536 0.15963237 327 16412770 131 24 26 2000
1.0204026 -1.770992 0.14410825 327 16412770 137 25 40 2049
1.0982279 -1.7548388 0.12614498 293 16412770 126 26 128 2074
1.1908869 -1.7589655 0.10935371 325 16412770 147 27 87 2127
0.94891185 -1.7969197 0.088331714 374 16412770 155 28 8 2034
1.0436698 -1.8128369 0.070890673 311 16412770 136 29 36 2093
1.1273984 -1.8052309 0.052499022 297 16412770 134 30 49 2129
1.2045712 -1.7805833 0.032119848 364 16412770 168 31 85 2150
0.98050648 -1.8569849 0.014660648 333 16412770 147 32 76 2100
1.0580606 -1.8393923 -0.0053701983 334 16412770 151 33 75 2122
1.1475636 -1.8380201 -0.025869144 311 16412770 146 34 83 2167
1.2379779 -1.8325132 -0.047443978 347 16412770 170 35 76 2212
0.99084806 -1.8787938 -0.063077837 339 16412770 153 36 113 2125
1.0658599 -1.8560976 -0.083720967 340 16412770 156 37 63 2142
1.1576771 -1.8559486 -0.1064847 332 16412770 159 38 121 2190
1.2457058 -1.843883 -0.12943654 354 16412770 176 39 77 2229
0.99042422 -1.8815702 -0.14111835 395 16412770 179 40 79 2131
1.100494 -1.9184253 -0.16757669 361 16412770 178 41 111 2218
1.1701422 -1.8770993 -0.18885347 370 16412770 182 42 130 2220
1.2690783 -1.8806716 -0.21530442 400 16412770 208 43 62 2279
1.027447 -1.9535587 -0.2278655 399 16412770 197 44 110 2219
1.1107661 -1.9381341 -0.25167388 358 16412770 181 45 65 2248
1.2067214 -1.9380381 -0.27898464 395 16412770 209 46 102 2300
1.2988304 -1.9257766 -0.30671483 341 16412770 187 47 112 2343
1.0364406 -1.9746728 -0.31298968 406 16412770 206 48 100 2252
1.1448698 -1.9996623 -0.34572315 161 16412770 87 49 43 2330
1.2177033 -1.9579597 -0.36853451 380 16412770 207 50 36 2335
1.3506136 -2.0037622 -0.41009989 299 16412770 180 51 60 2451
1.0537337 -2.0119703 -0.40480891 438 16412770 233 52 98 2307
1.0679718 -1.8675417 -0.40428421 430 16412770 206 53 93 2189
1.2557173 -2.0204978 -0.47052011 257 16412770 151 54 93 2425
1.3494136 -2.0019066 -0.50260192 300 16412770 183 55 59 2466
1.0670871 -2.0402384 -0.4994888 417 16412770 231 56 121 2356
1.0249376 -1.7944683 -0.46855965 55 16412770 25 57 61 2119
1.0983188 -1.7679945 -0.4931663 343 16412770 157 58 59 2139
1.390432 -2.0631473 -0.61570454 338 16412770 222 59 71 2563
0.98898125 -1.8962988 -0.54884601 334 16412770 163 60 41 2208
0.98334992 -1.7250102 -0.52951694 329 16412770 139 61 18 2055
0.98925048 -1.5931065 -0.51991498 382 16412770 145 62 83 1946
1.2986689 -1.9252471 -0.66990477 346 16412770 202 63 87 2417
0.81527191 -1.5675963 0.55152035 374 16510000 128 0 1 1851
0.88820523 -1.5597225 0.53873295 391 16510000 137 1 14 1874
0.9853242 -1.5884261 0.54125309 302 16510000 114 2 51 1946
1.0413324 -1.5455874 0.52058756 324 16510000 121 3 39 1935
0.82531208 -1.5849413 0.48272407 401 16510000 137 4 1 1851
0.90411347 -1.5892704 0.47446787 368 16510000 131 5 1 1889
0.98045248 -1.5819283 0.46361643 371 16510000 137 6 69 1918
1.0271982 -1.5279444 0.44011283 411 16510000 147 7 79 1893
0.85227835 -1.6359608 0.42509192 357 16510000 128 8 1 1893
0.92156136 -1.6184943 0.40969533 346 16510000 126 9 1 1907
1.0039651 -1.6218241 0.40042731 287 16510000 109 10 54 1949
1.0435363 -1.5551765 0.37491092 404 16510000 147 11 18 1910
0.86919349 -1.6677902 0.36083773 343 16510000 126 12 50 1915
0.94822258 -1.6668062 0.34818432 340 16510000 129 13 3 1949
1.0262946 -1.658607 0.33493844 334 16510000 131 14 96 1979
1.075945 -1.6043222 0.31359553 78 16510000 30 15 51 1957
0.87332344 -1.675786 0.29118973 344 16510000 126 16 1 1912
0.95982826 -1.6880981 0.28017691 336 16510000 129 17 29 1962
1.0514226 -1.7012731 0.2692672 179 16510000 73 18 60 2018
1.1369461 -1.6975205 0.25545827 328 16510000 139 19 57 2059
0.90838361 -1.7431359 0.22969072 332 16510000 130 20 31 1979
0.98658568 -1.7357922 0.21386613 314 16510000 126 21 38 2008
1.0650307 -1.7251093 0.19767949 325 16510000 135 22 80 2037
1.1681428 -1.7461414 0.18524152 333 16510000 148 23 124 2109
0.92098105 -1.7681378 0.15963237 316 16510000 126 24 27 2000
1.0036045 -1.7668115 0.14326429 346 16510000 143 25 35 2037
1.0874398 -1.7615445 0.12614498 322 16510000 139 26 90 2074
1.1667563 -1.7463102 0.10811982 327 16510000 145 27 79 2103
0.94340134 -1.8133436 0.088852838 374 16510000 157 28 18 2046
1.0325269 -1.8192066 0.070890673 298 16510000 130 29 24 2093
1.1351763 -1.8427562 0.053386744 310 16510000 145 30 43 2165
1.1869611 -1.7779616 0.031940572 362 16510000 165 31 54 2138
0.9690938 -1.8629662 0.014660648 314 16510000 139 32 73 2100
1.0467544 -1.8458498 -0.0053701983 336 16510000 151 33 57 2122
1.1362641 -1.8450267 -0.025869144 320 16510000 150 34 91 2167
1.200091 -1.8001454 -0.04641445 371 16510000 174 35 67 2164
0.99036175 -1.9061259 -0.063790254 331 16510000 153 36 122 2149
1.054451 -1.8626027 -0.083720967 329 16510000 151 37 71 2142
1.1462674 -1.863017 -0.1064847 341 16510000 163 38 156 2190
1.2343684 -1.8514918 -0.12943654 360 16510000 179 39 79 2229
0.98988479 -1.9088709 -0.14270768 374 16510000 174 40 103 2155
1.0592511 -1.8730638 -0.16304348 350 16510000 163 41 104 2158
1.1586025 -1.8842438 -0.18885347 384 16510000 189 42 147 2220
1.2575148 -1.8884231 -0.21530442 389 16510000 202 43 63 2279
1.0044582 -1.9386294 -0.225401 417 16510000 201 44 118 2195
1.1047187 -1.9552951 -0.25301731 378 16510000 193 45 80 2260
1.1885734 -1.9352559 -0.27752906 393 16510000 206 46 112 2288
1.2869897 -1.9337097 -0.30671483 382 16510000 210 47 128 2343
1.0297629 -1.9915512 -0.31465748 423 16510000 217 48 90 2264
1.1209124 -1.9859799 -0.34216201 206 16510000 110 49 62 2306
1.2118628 -1.9754951 -0.37042847 386 16510000 212 50 53 2347
1.3251888 -1.9923102 -0.40608421 301 16510000 177 51 46 2427
1.0413687 -2.018398 -0.40480891 444 16510000 236 52 100 2307
1.0449095 -1.8535125 -0.39985168 268 16510000 126 53 79 2165
1.2371436 -2.0181282 -0.46819174 264 16510000 154 54 79 2413
1.3371048 -2.0101488 -0.50260192 335 16510000 204 55 64 2466
1.0491771 -2.0363226 -0.4969447 428 16510000 235 56 115 2344
1.0598421 -1.8823041 -0.48978746 77 16510000 38 57 73 2215
1.0752485 -1.7547878 -0.48763284 375 16510000 168 58 73 2115
1.3648452 -2.0522411 -0.60993898 344 16510000 222 59 71 2539
0.99326181 -1.9333476 -0.55779463 387 16510000 195 60 51 2244
0.98978776 -1.7613357 -0.53879315 321 16510000 140 61 33 2091
0.97341698 -1.5892853 -0.51670897 412 16510000 154 62 75 1934
1.3762759 -2.0675499 -0.71646827 329 16510000 220 63 62 2585
0.81086093 -1.5827641 0.55509585 382 16606760 133 0 1 1863
0.8729921 -1.5551209 0.53528321 383 16606760 133 1 1 1862
0.96352768 -1.5747778 0.53457785 352 16606760 130 2 39 1922
1.0318292 -1.5519478 0.52058756 412 16606760 154 3 2 1935
0.82614625 -1.6105911 0.48898306 389 16606760 137 4 1 1875
0.91707045 -1.635312 0.48652422 369 16606760 138 5 1 1937
0.98287427 -1.6077842 0.46941769 351 16606760 132 6 84 1942
1.0436115 -1.573121 0.45127258 372 16606760 140 7 48 1941
0.83688527 -1.6307559 0.42239717 351 16606760 124 8 1 1881
0.91161311 -1.6241184 0.40969533 349 16606760 127 9 1 1907
0.99399489 -1.6279538 0.40042731 259 16606760 98 10 38 1949
1.0599589 -1.6007935 0.38433278 307 16606760 118 11 23 1958
0.84817886 -1.6521238 0.35631546 353 16606760 126 12 46 1891
0.94375253 -1.6828912 0.35032809 343 16606760 132 13 14 1961
1.0037756 -1.6446824 0.33087653 339 16606760 130 14 92 1955
1.0660808 -1.6108938 0.31359553 48 16606760 18 15 52 1957
0.87927401 -1.7127659 0.2966724 333 16606760 126 16 1 1948
0.96687341 -1.7250375 0.28531778 330 16606760 132 17 56 1998
1.0223937 -1.6772282 0.2644636 211 16606760 83 18 57 1982
1.1133782 -1.6845973 0.2524806 305 16606760 126 19 66 2035
0.88134128 -1.7168666 0.2255124 310 16606760 117 20 36 1943
0.98758084 -1.7626315 0.21642229 315 16606760 130 21 53 2032
1.048214 -1.7214108 0.19651495 304 16606760 125 22 52 2025
1.1442355 -1.7333241 0.1831335 339 16606760 147 23 119 2085
