# .PCD v0.7 - Point Cloud Data file format
VERSION 0.7
FIELDS x y z intensity t reflectivity ring noise range
SIZE 4 4 4 4 4 2 1 2 4
TYPE F F F F U U U U U
COUNT 1 1 1 1 1 1 1 1 1
WIDTH 759
HEIGHT 1
VIEWPOINT 0 0 0 1 0 0 0
POINTS 759
DATA ascii
-0.67331833 5.7862592 -0.44138098 941 73028460 3212 41 108 5842
-0.89158082 5.8025446 -0.50122732 903 73028460 3133 42 172 5892
-1.1064889 5.7958155 -0.55994266 888 73028460 3120 43 84 5927
-0.46178269 5.8176861 -0.60247266 974 73028460 3352 44 137 5867
-0.67349583 5.8080912 -0.6587407 918 73028460 3179 45 76 5884
-0.88819516 5.8007417 -0.71711177 924 73028460 3230 46 102 5912
-1.103456 5.7876062 -0.77797955 925 73028460 3265 47 164 5943
-0.45557681 5.8011112 -0.81666404 944 73028460 3259 48 116 5876
-0.67159057 5.8138299 -0.87810707 885 73028460 3101 49 75 5918
-0.88399112 5.79356 -0.93672478 904 73028460 3186 50 63 5935
-1.1023735 5.7907176 -1.0004027 930 73028460 3325 51 104 5979
-0.4501327 5.7979045 -1.0365002 934 73028460 3259 52 114 5907
-0.66887987 5.8161869 -1.1001923 885 73028460 3141 53 105 5957
-0.8879084 5.8315191 -1.1666958 914 73028460 3305 54 100 6013
-1.1019077 5.7877212 -1.2265444 900 73028460 3260 55 98 6018
-0.4472985 5.8033972 -1.2627144 748 73028460 2653 56 124 5956
-0.66493338 5.8086653 -1.3256323 866 73028460 3113 57 90 5995
-0.88517231 5.8210592 -1.3951141 892 73028460 3267 58 63 6051
-1.1074971 5.8198433 -1.4661118 874 73028460 3256 59 97 6103
-0.44423458 5.8529639 -1.5063437 880 73028460 3234 60 63 6060
-0.66007507 5.8092918 -1.5591762 890 73028460 3257 61 42 6051
-0.88057029 5.798285 -1.6260034 826 73028460 3061 62 60 6086
-1.1090629 5.8148074 -1.7076058 820 73028460 3114 63 65 6161
-0.43994921 5.8857422 1.8422747 740 73124920 2830 0 78 6183
-0.66326141 5.8606434 1.7702868 855 73124920 3243 1 111 6158
-0.88885415 5.8711667 1.7194382 817 73124920 3124 2 68 6182
-1.1103141 5.8388429 1.6602305 895 73124920 3407 3 54 6171
-0.44099203 5.8597908 1.5874346 884 73124920 3276 4 90 6087
-0.65762502 5.8336177 1.5233709 859 73124920 3158 5 48 6065
-0.87942314 5.8239803 1.4672323 829 73124920 3056 6 71 6070
-1.101163 5.8228312 1.4165914 896 73124920 3327 7 88 6093
-0.44230947 5.862257 1.3547699 825 73124920 3002 8 128 6033
-0.66250795 5.8567295 1.296545 812 73124920 2957 9 124 6035
-0.87956357 5.8463345 1.2411398 869 73124920 3173 10 67 6041
-1.0950639 5.8183851 1.1851896 825 73124920 3009 11 81 6038
-0.43944317 5.812099 1.1183144 874 73124920 3078 12 125 5935
-0.65657234 5.8242798 1.0642042 855 73124920 3036 13 79 5957
-0.87673283 5.8351336 1.0132776 812 73124920 2911 14 101 5987
-1.0941807 5.8215175 0.96161819 800 73124920 2882 15 72 6001
-0.44012532 5.8224721 0.89976418 853 73124920 2976 16 57 5908
-0.6526106 5.8009596 0.84224433 850 73124920 2957 17 108 5898
-0.8700732 5.8122106 0.79125595 846 73124920 2976 18 83 5930
-1.0886921 5.8118696 0.73932773 849 73124920 3016 19 95 5959
-0.44003764 5.8226643 0.68234038 599 73124920 2071 20 92 5879
-0.65448028 5.8258162 0.62796551 672 73124920 2337 21 89 5896
-0.86676961 5.8088365 0.57265913 738 73124920 2571 22 89 5901
-1.0857486 5.8135352 0.52146935 790 73124920 2784 23 137 5937
-0.45285937 6.0076733 0.48240903 165 73124920 604 24 79 6044
-0.66228592 5.9092417 0.41924322 279 73124920 992 25 85 5961
-0.87274623 5.8502889 0.36043158 364 73124920 1278 26 132 5926
-1.0795779 5.7995629 0.30369174 507 73124920 1768 27 144 5907
-0.44631186 5.9596682 0.2597838 282 73124920 1011 28 60 5982
-0.6650334 5.9525275 0.20298509 331 73124920 1187 29 53 5993
-0.87663782 5.9145684 0.14748551 329 73124920 1175 30 57 5981
-1.1026824 5.9357729 0.090204477 248 73124920 905 31 89 6038
-0.44238034 5.9113259 0.041384913 523 73124920 1839 32 90 5928
-0.66245532 5.9492116 -0.015148918 238 73124920 854 33 85 5986
-0.88520116 5.9773793 -0.072139941 217 73124920 793 34 104 6043
-1.0837976 5.8551688 -0.12774698 446 73124920 1583 35 89 5956
-0.43137899 5.8024216 -0.17278875 920 73124920 3116 36 143 5821
-0.64001656 5.7862601 -0.22771165 849 73124920 2883 37 73 5826
-0.86231047 5.8396873 -0.28736281 810 73124920 2830 38 205 5910
-1.0984926 5.93398 -0.35102907 415 73124920 1518 39 75 6045
-0.42651168 5.7985444 -0.38587359 960 73124920 3259 40 126 5827
-0.63780183 5.7902818 -0.44138098 946 73124920 3228 41 121 5842
-0.85421699 5.7960768 -0.50020647 948 73124920 3276 42 144 5880
-1.0665693 5.7789998 -0.5576753 861 73124920 3001 43 81 5903
-0.42607734 5.8204103 -0.60247266 953 73124920 3281 44 119 5867
-0.63524365 5.7884073 -0.65605378 897 73124920 3082 45 69 5860
-0.85085517 5.7942972 -0.71565622 914 73124920 3182 46 118 5900
-1.0722359 5.8176675 -0.78112137 928 73124920 3303 47 135 5967
-0.42168862 5.8275023 -0.81999958 923 73124920 3213 48 119 5900
-0.63590491 5.8178415 -0.87810707 898 73124920 3147 49 63 5918
-0.84671038 5.7871499 -0.93483078 897 73124920 3148 50 66 5923
-1.0668216 5.7973723 -1.0004027 949 73124920 3393 51 98 5979
-0.41539112 5.8123412 -1.0386059 956 73124920 3350 52 109 5919
-0.63445532 5.8319058 -1.1024086 855 73124920 3047 53 102 5969
-0.84870905 5.8135605 -1.1620392 900 73124920 3229 54 82 5989
-1.0642478 5.7828193 -1.2240987 890 73124920 3211 55 84 6006
-0.41499886 5.8528237 -1.2728907 502 73124920 1810 56 112 6004
-0.63053918 5.8242707 -1.3282859 888 73124920 3205 57 91 6007
-0.84606922 5.8032722 -1.3895807 835 73124920 3034 58 76 6027
-1.0654444 5.7921605 -1.4574636 913 73124920 3361 59 91 6067
-0.41397285 5.9367456 -1.5272236 258 73124920 976 60 63 6144
-0.62441748 5.8132329 -1.5591762 876 73124920 3206 61 44 6051
-0.84497613 5.8035789 -1.6260034 836 73124920 3098 62 69 6086
-1.0712724 5.8101645 -1.7042798 778 73124920 2943 63 65 6149
-0.40304297 5.8769031 1.8386992 788 73222700 3002 0 74 6171
-0.6272887 5.8646026 1.7702868 877 73222700 3327 1 89 6158
-0.85115719 5.8651028 1.7161005 822 73222700 3131 2 71 6170
-1.0702879 5.8228111 1.6537735 876 73222700 3309 3 52 6147
-0.40582719 5.8739438 1.5905641 799 73222700 2973 4 73 6099
-0.6242789 5.8606429 1.5293992 806 73222700 2986 5 49 6089
-0.84533918 5.8407907 1.4701331 801 73222700 2964 6 94 6082
-1.0654141 5.8294783 1.4165914 899 73222700 3338 7 89 6093
-0.406331 5.8648605 1.3547699 829 73222700 3018 8 87 6033
-0.62655926 5.8606844 1.296545 811 73222700 2954 9 115 6035
-0.84032273 5.8283734 1.2362088 854 73222700 3093 10 82 6017
-1.0572371 5.8134184 1.1828341 854 73222700 3102 11 75 6026
-0.40540531 5.8381991 1.1228365 880 73222700 3124 12 149 5959
-0.62082291 5.8281989 1.0642042 844 73222700 2996 13 108 5957
-0.84091264 5.8404031 1.0132776 811 73222700 2906 14 137 5987
-1.0563234 5.8164673 0.95969528 842 73222700 3020 15 98 5989
-0.40521234 5.8368945 0.90159166 847 73222700 2970 16 67 5920
-0.61825961 5.8166652 0.84395796 844 73222700 2948 17 108 5910
-0.83270526 5.8056674 0.78965473 830 73222700 2908 18 71 5918
-1.0487696 5.7950068 0.73635012 799 73222700 2814 19 116 5935
-0.40512741 5.8371453 0.68373317 552 73222700 1917 20 89 5891
-0.61746216 5.8178573 0.62668741 616 73222700 2134 21 68 5884
-0.82773066 5.7903986 0.57033008 741 73222700 2561 22 67 5877
-1.0458121 5.7965603 0.51936132 781 73222700 2731 23 124 5913
-0.41103294 5.9387398 0.47666225 182 73222700 650 24 75 5972
-0.62979567 5.9489055 0.42177513 233 73222700 839 25 80 5997
-0.8419168 5.8911061 0.36262119 354 73222700 1258 26 118 5962
-1.046093 5.817873 0.30430868 471 73222700 1650 27 126 5919
-0.41055757 5.9742551 0.26030496 230 73222700 828 28 72 5994
-0.62849683 5.9564958 0.20298509 326 73222700 1173 29 59 5993
-0.84201622 5.9317136 0.14778142 357 73222700 1281 30 41 5993
-1.0577642 5.8951869 0.089487381 345 73222700 1239 31 77 5990
-0.40610078 5.913929 0.041384913 601 73222700 2112 32 107 5928
-0.62593919 5.9531646 -0.015148918 367 73222700 1316 33 86 5986
-0.84513813 5.9589376 -0.071853429 164 73222700 595 34 91 6019
-1.054184 5.8971386 -0.12851912 389 73222700 1398 35 80 5992
-0.39495203 5.7929931 -0.17243257 892 73222700 3009 36 136 5809
-0.60574579 5.8020043 -0.22818068 894 73222700 3048 37 83 5838
-0.82646257 5.8448682 -0.28736281 836 73222700 2921 38 195 5910
-1.0536286 5.8934374 -0.34824175 538 73222700 1936 39 89 5997
-0.39092445 5.8010526 -0.38587359 981 73222700 3331 40 114 5827
-0.6022613 5.794086 -0.44138098 930 73222700 3174 41 112 5842
-0.81696624 5.7893705 -0.49918568 926 73222700 3187 42 150 5868
-1.0331861 5.7971969 -0.55880904 870 73222700 3046 43 59 5915
-0.38955757 5.8110056 -0.60124046 950 73222700 3256 44 144 5855
-0.60094279 5.8040576 -0.65739721 894 73222700 3084 45 75 5872
-0.81528604 5.7994089 -0.71565622 937 73222700 3262 46 126 5900
-1.0281811 5.7772861 -0.77483779 919 73222700 3219 47 140 5919
-0.383569 5.7944074 -0.81499624 938 73222700 3226 48 104 5864
-0.59897834 5.8098292 -0.8763265 887 73222700 3095 49 64 5906
-0.81118518 5.7922363 -0.93483078 893 73222700 3134 50 66 5923
-1.0291598 5.7921615 -0.99839497 953 73222700 3395 51 74 5967
-0.37894961 5.8029919 -1.0365002 946 73222700 3301 52 111 5907
-0.59625238 5.8122249 -1.0979761 900 73222700 3182 53 93 5945
-0.81465077 5.830317 -1.1643674 829 73222700 2985 54 114 6001
-1.032856 5.8123741 -1.2289902 897 73222700 3262 55 92 6030
-0.37756351 5.8318548 -1.2678026 898 73222700 3210 56 134 5980
-0.59360206 5.8163877 -1.3256323 788 73222700 2833 57 88 5995
-0.80883145 5.7967896 -1.386814 853 73222700 3087 58 65 6015
-1.0278473 5.7871194 -1.4545809 929 73222700 3407 59 76 6055
-0.3701641 5.823175 -1.497395 647 73222700 2347 60 50 6024
-0.58873641 5.8169546 -1.5591762 904 73222700 3308 61 47 6051
-0.81094599 5.8201075 -1.6292095 859 73222700 3196 62 58 6098
-1.0335808 5.8052769 -1.7009538 828 73222700 3117 63 49 6137
-0.3669754 5.8792653 1.8386992 789 73319360 3006 0 71 6171
-0.59014016 5.8569055 1.766837 833 73319360 3147 1 105 6146
-0.81673896 5.8816319 1.7194382 762 73319360 2914 2 60 6182
-1.0345397 5.8292689 1.6537735 894 73319360 3380 3 69 6147
-0.36905017 5.8647614 1.5874346 822 73319360 3046 4 101 6087
-0.58714747 5.8528061 1.5263851 877 73319360 3237 5 52 6077
-0.80948484 5.8458676 1.4701331 833 73319360 3082 6 95 6082
-1.0275971 5.8244119 1.4138014 890 73319360 3292 7 79 6081
-0.37033725 5.8672433 1.3547699 833 73319360 3032 8 118 6033
-0.58823836 5.8410969 1.2913889 810 73319360 2927 9 124 6011
-0.80454469 5.8334198 1.2362088 813 73319360 2945 10 77 6017
-1.0235809 5.8313851 1.1851896 836 73319360 3049 11 80 6038
-0.36883095 5.8288155 1.1205754 882 73319360 3119 12 124 5947
-0.58505005 5.8318982 1.0642042 865 73319360 3071 13 96 5957
-0.80183351 5.8220201 1.0092157 828 73319360 2944 14 94 5963
-1.0206144 5.8228393 0.95969528 824 73319360 2957 15 70 5989
-0.36714393 5.803762 0.89610904 810 73319360 2803 16 51 5884
-0.58255762 5.8203492 0.84395796 859 73319360 3001 17 99 5910
-0.80029917 5.8342323 0.79285711 793 73319360 2801 18 71 5942
-1.0172895 5.8247919 0.73932773 834 73319360 2962 19 93 5959
-0.36930373 5.8395214 0.68373317 507 73319360 1760 20 95 5891
-0.58175284 5.8215365 0.62668741 590 73319360 2043 21 95 5884
-0.79380345 5.8072019 0.57149458 702 73319360 2436 22 77 5889
-1.0102254 5.8028684 0.51936132 777 73319360 2716 23 148 5913
-0.37609115 5.9650264 0.47857785 192 73319360 691 24 82 5996
-0.59090769 5.9288349 0.42008716 197 73319360 704 25 88 5973
-0.80737561 5.9080286 0.36335108 325 73319360 1160 26 110 5974
-1.0103755 5.8241825 0.30430868 425 73319360 1489 27 121 5919
-0.37464103 5.9886274 0.26082608 201 73319360 727 28 67 6006
-0.59193665 5.9602404 0.20298509 308 73319360 1105 29 39 5993
-0.80721712 5.9486551 0.14807731 371 73319360 1336 30 48 6005
-1.0195255 5.8897433 0.089308113 359 73319360 1284 31 80 5978
-0.36830875 5.8923569 0.041217364 687 73319360 2395 32 96 5904
-0.58585483 5.9210682 -0.015057812 462 73319360 1637 33 84 5950
-0.8117829 5.987792 -0.072139941 152 73319360 556 34 88 6043
-1.0200187 5.915319 -0.12877651 315 73319360 1137 35 78 6004
-0.36088431 5.8192501 -0.17314497 907 73319360 3086 36 121 5833
-0.56896204 5.7936783 -0.22771165 908 73319360 3081 37 54 5826
-0.78737307 5.8260736 -0.28619584 857 73319360 2970 38 207 5886
-1.0154114 5.8879862 -0.34754491 612 73319360 2194 39 75 5985
-0.35459074 5.7913904 -0.38507894 959 73319360 3243 40 108 5815
-0.56786215 5.8095808 -0.44228756 932 73319360 3194 41 112 5854
-0.78142792 5.7942743 -0.49918568 928 73319360 3194 42 154 5868
-0.99961948 5.8152003 -0.55994266 915 73319360 3215 43 104 5927
-0.35316926 5.8013721 -0.60000819 972 73319360 3319 44 116 5843
-0.56531847 5.8076353 -0.65739721 897 73319360 3094 45 78 5872
-0.77968621 5.8043022 -0.71565622 952 73319360 3315 46 108 5900
-0.99472558 5.7952113 -0.77640867 926 73319360 3257 47 137 5931
-0.34872013 5.8085141 -0.81666404 1008 73319360 3480 48 130 5876
-0.56331861 5.813395 -0.8763265 883 73319360 3081 49 76 5906
-0.77720088 5.8088498 -0.93672478 867 73319360 3055 50 82 5935
-0.99160224 5.786706 -0.99638712 924 73319360 3279 51 61 5955
-0.34403348 5.8170009 -1.0386059 953 73319360 3339 52 98 5919
-0.55831498 5.7922959 -1.0935435 901 73319360 3159 53 97 5921
-0.77730381 5.8235373 -1.1620392 880 73319360 3157 54 98 5989
-0.99320364 5.795444 -1.2240987 904 73319360 3262 55 74 6006
-0.34177282 5.8340616 -1.2678026 927 73319360 3314 56 154 5980
-0.56348586 5.8781681 -1.3388997 257 73319360 944 57 71 6055
-0.77479047 5.8132176 -1.3895807 869 73319360 3157 58 82 6027
-0.99428546 5.8047991 -1.4574636 917 73319360 3376 59 92 6067
-0.33242825 5.790524 -1.4884466 795 73319360 2852 60 72 5988
-0.5541299 5.8320003 -1.5622683 902 73319360 3314 61 42 6063
-0.77674466 5.8364363 -1.6324154 846 73319360 3156 62 57 6110
-1.0018435 5.8342366 -1.7076058 797 73319360 3027 63 72 6161
-0.33218089 5.9042797 1.8458501 812 73417250 3117 0 81 6195
-0.55419171 5.8604164 1.766837 861 73417250 3253 1 100 6146
-0.78214991 5.8979592 1.7227758 755 73417250 2898 2 66 6194
-1.0007023 5.8468986 1.657002 897 73417250 3405 3 60 6159
-0.33371431 5.8784819 1.5905641 852 73417250 3170 4 91 6099
-0.55231279 5.8678627 1.5293992 842 73417250 3120 5 56 6089
-0.77207369 5.8391809 1.4672323 802 73417250 2955 6 107 6070
-0.99379712 5.8421135 1.4165914 877 73417250 3257 7 91 6093
-0.33366454 5.8577304 1.3520752 826 73417250 2995 8 111 6021
-0.55348974 5.8562641 1.2939669 780 73417250 2830 9 121 6023
-0.77026951 5.8498902 1.2386743 807 73417250 2935 10 83 6029
-0.98581791 5.8259549 1.1828341 866 73417250 3146 11 64 6026
-0.33373109 5.8427343 1.1228365 863 73417250 3064 12 125 5959
-0.54925519 5.8353782 1.0642042 852 73417250 3025 13 88 5957
-0.76763684 5.8385568 1.0112467 800 73417250 2856 14 114 5975
-0.98092014 5.8056331 0.95584941 824 73417250 2932 15 88 5965
-0.33287805 5.829587 0.89976418 817 73417250 2850 16 53 5908
-0.54572332 5.8119893 0.84224433 825 73417250 2871 17 96 5898
-0.7644859 5.8390331 0.79285711 790 73417250 2790 18 79 5942
-0.97955358 5.8191824 0.73783892 854 73417250 3022 19 75 5947
-0.33414543 5.8535767 0.68512595 503 73417250 1754 20 77 5903
-0.54713517 5.8368759 0.62796551 575 73417250 2000 21 88 5896
-0.75661123 5.8001204 0.57033008 667 73417250 2306 22 63 5877
-0.97262287 5.7971692 0.51830739 750 73417250 2611 23 145 5901
-0.33948335 5.9672217 0.47857785 220 73417250 793 24 67 5996
-0.55897415 5.9800229 0.42346308 193 73417250 701 25 85 6021
-0.77110946 5.9128714 0.36335108 270 73417250 963 26 114 5974
-0.97857189 5.8539128 0.30554259 373 73417250 1317 27 118 5943
-0.33653826 5.9668736 0.2597838 173 73417250 620 28 81 5982
-0.55313009 5.939877 0.2021722 286 73417250 1018 29 43 5969
-0.76454121 5.9059081 0.14689368 318 73417250 1127 30 45 5957
-0.9833675 5.8958883 0.089308113 362 73417250 1295 31 71 5978
-0.33147189 5.882525 0.041133586 669 73417250 2323 32 83 5892
-0.54840451 5.9126029 -0.015027444 551 73417250 1944 33 99 5938
-0.77194911 5.9688601 -0.071853429 181 73417250 656 34 101 6019
-0.97977161 5.8977966 -0.12826174 283 73417250 1013 35 79 5980
-0.32450229 5.8093791 -0.17278875 921 73417250 3119 36 158 5821
-0.53450066 5.809001 -0.22818068 897 73417250 3058 37 83 5838
-0.74854553 5.8070207 -0.2850289 884 73417250 3038 38 200 5862
-0.97533739 5.8704705 -0.34615126 714 73417250 2538 39 87 5961
-0.31904876 5.7934575 -0.38507894 993 73417250 3357 40 125 5815
-0.53111362 5.8010406 -0.44138098 918 73417250 3133 41 109 5842
-0.74280965 5.7752423 -0.49714401 911 73417250 3110 42 157 5844
-0.95806456 5.7858672 -0.55654162 917 73417250 3184 43 67 5891
-0.31887046 5.8272667 -0.60247266 938 73417250 3229 44 118 5867
-0.52967286 5.8109951 -0.65739721 907 73417250 3128 45 80 5872
-0.74103034 5.7853479 -0.71274507 919 73417250 3174 46 99 5876
-0.95526689 5.7777309 -0.77326691 904 73417250 3153 47 140 5907
-0.31243384 5.7986779 -0.81499624 980 73417250 3370 48 105 5864
-0.52656561 5.8049235 -0.87454593 877 73417250 3048 49 79 5894
-0.74004447 5.801755 -0.93483078 884 73417250 3102 50 81 5923
-0.95800364 5.8043547 -0.99839497 961 73417250 3423 51 87 5967
-0.30770943 5.8072052 -1.0365002 929 73417250 3242 52 107 5907
-0.52594203 5.8308501 -1.1001923 911 73417250 3233 53 110 5957
-0.74007076 5.8165193 -1.1597108 892 73417250 3188 54 81 5977
-0.95762479 5.8014293 -1.2240987 892 73417250 3219 55 74 6006
-0.30535528 5.8243375 -1.2652586 932 73417250 3318 56 141 5968
-0.5169552 5.7649531 -1.3123651 881 73417250 3104 57 83 5935
-0.74057823 5.8294458 -1.3923475 870 73417250 3174 58 80 6039
-0.95675302 5.7992973 -1.4545809 905 73417250 3319 59 95 6055
-0.30284172 5.908536 -1.5182751 151 73417250 562 60 53 6108
-0.51833498 5.8352909 -1.5622683 904 73417250 3322 61 48 6063
-0.74091834 5.8410926 -1.6324154 839 73417250 3134 62 69 6110
-0.96038175 5.8061481 -1.697628 775 73417250 2909 63 65 6125
-0.29480013 5.8833261 1.8386992 796 73515390 3032 0 91 6171
-0.51822245 5.8637066 1.766837 873 73515390 3299 1 80 6146
-0.74305564 5.879776 1.7161005 779 73515390 2967 2 62 6170
-0.96104789 5.8301215 1.6505451 855 73515390 3220 3 67 6135
-0.29705274 5.8688488 1.5874346 859 73515390 3183 4 89 6087
-0.51426286 5.8479996 1.5233709 851 73515390 3132 5 60 6065
-0.7376861 5.8553615 1.4701331 852 73515390 3153 6 87 6082
-0.952272 5.8135481 1.4082215 894 73515390 3281 7 76 6057
-0.29830927 5.871346 1.3547699 841 73515390 3062 8 97 6033
-0.51754594 5.85955 1.2939669 810 73515390 2938 9 125 6023
-0.73289907 5.8428535 1.2362088 862 73515390 3123 10 68 6017
-0.94816005 5.8202806 1.1804787 860 73515390 3112 11 71 6014
-0.29727465 5.8329024 1.1205754 856 73515390 3027 12 134 5947
-0.51240534 5.8268771 1.0620604 862 73515390 3048 13 85 5945
-0.73032796 5.8314214 1.0092157 846 73515390 3008 14 118 5963
-0.94527894 5.8115425 0.95584941 840 73515390 2990 15 78 5965
-0.29710212 5.8315201 0.89976418 767 73515390 2679 16 64 5908
-0.51108909 5.8270597 0.84395796 823 73515390 2875 17 95 5910
-0.72422934 5.8082099 0.78805351 827 73515390 2885 18 79 5906
-0.94192481 5.8133292 0.73635012 832 73515390 2931 19 114 5935
-0.29882851 5.8674207 0.68651873 441 73515390 1543 20 114 5915
-0.51235116 5.8520098 0.62924361 564 73515390 1969 21 88 5908
-0.72100812 5.8046536 0.57033008 644 73515390 2226 22 83 5877
-0.93322277 5.7794261 0.51619935 718 73515390 2480 23 133 5877
-0.30346891 5.9811387 0.47953567 257 73515390 929 24 71 6008
-0.52227092 5.9833398 0.42346308 191 73515390 694 25 69 6021
-0.74071831 5.9650373 0.36627051 237 73515390 859 26 112 6022
-0.94453788 5.8716388 0.30615953 315 73515390 1117 27 96 5955
-0.30052152 5.9808002 0.26030496 156 73515390 562 28 67 5994
-0.51667333 5.9431591 0.2021722 262 73515390 932 29 54 5969
-0.73122305 5.9343009 0.14748551 307 73515390 1097 30 45 5981
-0.94717252 5.9018111 0.089308113 338 73515390 1209 31 76 5978
-0.29476959 5.8724637 0.041049812 698 73515390 2414 32 97 5880
-0.50901037 5.8799911 -0.014936338 616 73515390 2147 33 90 5902
-0.73531038 5.9734845 -0.071853429 240 73515390 870 34 89 6019
-0.94924527 5.9392376 -0.12903389 206 73515390 747 35 72 6016
-0.28885052 5.8112607 -0.17278875 925 73515390 3133 36 142 5821
-0.49679649 5.7882771 -0.22724262 909 73515390 3074 37 90 5814
-0.71290022 5.8115044 -0.2850289 891 73515390 3062 38 201 5862
-0.93362576 5.8408556 -0.34406078 759 73515390 2666 39 85 5925
-0.28349477 5.7953057 -0.38507894 966 73515390 3266 40 133 5815
-0.49449128 5.7922678 -0.44047433 905 73515390 3076 41 111 5830
-0.70881194 5.7915592 -0.49816486 916 73515390 3140 42 131 5856
-0.91878664 5.7680416 -0.55427426 918 73515390 3161 43 77 5867
-0.28310901 5.8291135 -0.60247266 947 73515390 3260 44 106 5867
-0.49400729 5.8141356 -0.65739721 887 73515390 3059 45 82 5872
-0.70551819 5.7897859 -0.71274507 957 73515390 3305 46 105 5876
-0.92166597 5.7952328 -0.77483779 901 73515390 3156 47 131 5919
-0.27684793 5.8004861 -0.81499624 950 73515390 3267 48 100 5864
-0.49193689 5.81987 -0.8763265 867 73515390 3026 49 67 5906
-0.70300442 5.7944231 -0.93293685 895 73515390 3128 50 75 5911
-0.91866082 5.7867541 -0.99437928 925 73515390 3268 51 93 5943
-0.2720713 5.8089838 -1.0365002 946 73515390 3301 52 106 5907
-0.4891673 5.8222151 -1.0979761 921 73515390 3255 53 101 5945
-0.70295322 5.8092642 -1.1573824 863 73515390 3071 54 92 5965
-0.92385197 5.8187981 -1.2265444 923 73515390 3344 55 83 6018
-0.27015418 5.8378162 -1.2678026 921 73515390 3292 56 157 5980
-0.48449343 5.8030038 -1.3203254 735 73515390 2622 57 78 5971
-0.70199448 5.8106952 -1.386814 871 73515390 3152 58 78 6015
-0.92115116 5.8050585 -1.4545809 892 73515390 3270 59 119 6055
-0.26396325 5.8522248 -1.5033609 535 73515390 1955 60 54 6048
-0.48156554 5.8268061 -1.5591762 915 73515390 3352 61 70 6051
-0.70367944 5.8340487 -1.6292095 832 73515390 3095 62 68 6098
-0.92654943 5.823318 -1.7009538 740 73515390 2785 63 56 6137
-0.25919822 5.8964677 1.8422747 786 73613630 3006 0 74 6183
-0.48317525 5.8782306 1.7702868 853 73613630 3235 1 102 6158
-0.70558912 5.8727808 1.712763 815 73613630 3089 2 56 6158
-0.92344701 5.8244934 1.6473166 890 73613630 3339 3 61 6123
-0.26052195 5.8589873 1.5843052 877 73613630 3237 4 84 6075
-0.47931701 5.8626218 1.5263851 814 73613630 3005 5 33 6077
-0.69897527 5.8366542 1.4643317 847 73613630 3110 6 78 6058
-0.91658282 5.8192816 1.4082215 871 73613630 3196 7 86 6057
-0.26175603 5.8613839 1.3520752 841 73613630 3049 8 96 6021
-0.48062319 5.850935 1.2913889 821 73613630 2967 9 119 6011
-0.69564408 5.8355789 1.2337434 860 73613630 3103 10 81 6005
-0.91060901 5.8143635 1.1781232 841 73613630 3031 11 68 6002
-0.26253426 5.8581629 1.1250976 795 73613630 2834 12 122 5971
-0.47760478 5.8416791 1.0642042 869 73613630 3085 13 87 5957
-0.69593096 5.847537 1.0112467 829 73613630 2959 14 113 5975
-0.90960222 5.8172331 0.95584941 787 73613630 2801 15 63 5965
-0.26184574 5.8450809 0.90159166 768 73613630 2693 16 78 5920
-0.47339505 5.8064103 0.84053069 834 73613630 2890 17 93 5886
-0.68857718 5.8125443 0.78805351 826 73613630 2882 18 79 5906
-0.90440482 5.8072338 0.73486125 839 73613630 2944 19 94 5923
-0.26282105 5.8691435 0.68651873 413 73613630 1446 20 72 5915
-0.47353113 5.819366 0.62540931 504 73613630 1739 21 81 5872
-0.6853779 5.8089685 0.57033008 626 73613630 2164 22 74 5877
-0.89591026 5.773231 0.5151453 704 73613630 2421 23 138 5865
-0.26569799 5.9589882 0.47762007 263 73613630 943 24 70 5984
-0.48554799 5.9864321 0.42346308 189 73613630 686 25 88 6021
-0.70831275 6.0051556 0.36846009 189 73613630 693 26 118 6058
-0.91581523 5.9246979 0.30862731 317 73613630 1142 27 107 6003
-0.2632902 5.9705544 0.2597838 153 73613630 546 28 53 5982
-0.48116243 5.9581718 0.20257865 230 73613630 821 29 41 5981
-0.69619107 5.9505911 0.14778142 272 73613630 976 30 43 5993
-0.91094184 5.9075117 0.089308113 394 73613630 1409 31 78 5978
-0.25820327 5.862174 0.040966038 757 73613630 2607 32 95 5868
-0.47292185 5.8830037 -0.014936338 691 73613630 2407 33 117 5902
-0.69725108 5.9659662 -0.071710184 348 73613630 1257 34 82 6007
-0.91460568 5.9568086 -0.12929128 164 73613630 597 35 79 6028
-0.25370979 5.8249073 -0.17314497 948 73613630 3225 36 131 5833
-0.46127093 5.7912164 -0.22724262 920 73613630 3111 37 81 5814
-0.67722809 5.8157692 -0.2850289 902 73613630 3100 38 211 5862
-0.89231461 5.8109512 -0.34197029 832 73613630 2886 39 94 5889
-0.24844176 5.8088989 -0.38587359 983 73613630 3338 40 115 5827
-0.45799664 5.7832642 -0.43956769 915 73613630 3098 41 98 5818
-0.67188263 5.7839227 -0.49714401 924 73613630 3155 42 125 5844
-0.8869909 5.7971883 -0.55654162 931 73613630 3232 43 91 5891
-0.24683103 5.8188157 -0.60124046 974 73613630 3340 44 110 5855
-0.45925975 5.8289452 -0.6587407 907 73613630 3141 45 84 5884
-0.67271584 5.8176703 -0.71565622 909 73613630 3165 46 117 5900
-0.88788617 5.8125391 -0.77640867 898 73613630 3158 47 149 5931
-0.24174531 5.8139486 -0.81666404 957 73613630 3305 48 93 5876
-0.45621759 5.8227792 -0.8763265 890 73613630 3105 49 80 5906
-0.66743731 5.7986274 -0.93293685 910 73613630 3181 50 59 5911
-0.88670313 5.8156738 -0.99839497 929 73613630 3309 51 94 5967
-0.23690322 5.8223481 -1.0386059 990 73613630 3469 52 114 5919
-0.4525184 5.8133492 -1.0957597 880 73613630 3098 53 99 5933
-0.66997987 5.8368583 -1.1620392 922 73613630 3308 54 96 5989
-0.88636023 5.8127437 -1.2240987 877 73613630 3165 55 81 6006
-0.2338587 5.8276463 -1.2652586 947 73613630 3372 56 135 5968
-0.45880103 5.9342165 -1.3495136 162 73613630 604 57 102 6103
-0.66765684 5.8264942 -1.3895807 882 73613630 3204 58 85 6027
-0.88375974 5.7990856 -1.4516981 904 73613630 3303 59 70 6043
-0.23121707 5.9350367 -1.5242409 163 73613630 612 60 32 6132
-0.44580388 5.8296509 -1.5591762 889 73613630 3253 61 51 6051
-0.66918337 5.8497448 -1.6324154 855 73613630 3193 62 67 6110
-0.89254266 5.840291 -1.7042798 771 73613630 2916 63 86 6149
-0.22258048 5.8865008 1.8386992 787 73711730 2997 0 99 6171
-0.44535547 5.8581638 1.7633873 844 73711730 3176 1 107 6134
-0.67084581 5.8884521 1.7161005 782 73711730 2975 2 56 6170
-0.8876912 5.83005 1.6473166 870 73711730 3264 3 64 6123
-0.22545415 5.8836284 1.5905641 869 73711730 3234 4 79 6099
-0.44421104 5.8770347 1.5293992 821 73711730 3042 5 50 6089
-0.66183549 5.8292637 1.4614313 855 73711730 3126 6 98 6046
-0.88085908 5.8247962 1.4082215 910 73711730 3340 7 82 6057
-0.22668633 5.8862491 1.3574646 861 73711730 3146 8 126 6045
-0.44471347 5.8537736 1.2913889 759 73711730 2742 9 131 6011
-0.65718746 5.8163986 1.2288126 847 73711730 3031 10 82 5981
-0.87841415 5.8431134 1.1828341 852 73711730 3095 11 74 6026
-0.22567357 5.8361115 1.1205754 880 73711730 3113 12 107 5947
-0.4417519 5.8444996 1.0642042 852 73711730 3025 13 92 5957
-0.65871245 5.8399448 1.0092157 822 73711730 2923 14 99 5963
-0.87389123 5.8227048 0.95584941 838 73711730 2982 15 84 5965
-0.22551803 5.8347268 0.89976418 735 73711730 2567 16 71 5908
-0.43775868 5.809206 0.84053069 781 73711730 2707 17 89 5886
-0.65157253 5.8048415 0.78645229 793 73711730 2755 18 88 5894
-0.87051541 5.8244505 0.73635012 821 73711730 2893 19 99 5935
-0.22726384 5.8825555 0.68791145 353 73711730 1241 20 97 5927
-0.43870997 5.8340602 0.62668741 478 73711730 1656 21 70 5884
-0.6523751 5.8368034 0.57265913 585 73711730 2039 22 70 5901
-0.8639906 5.8022666 0.51725334 710 73711730 2462 23 135 5889
-0.22866984 5.9485536 0.47666225 272 73711730 968 24 54 5972
-0.44791231 5.9773617 0.4226191 234 73711730 846 25 86 6009
-0.66480225 5.9498701 0.36481076 161 73711730 578 26 137 5998
-0.87944472 5.9302053 0.30862731 245 73711730 883 27 104 6003
-0.22710527 5.9840374 0.26030496 190 73711730 684 28 60 5994
-0.44548672 5.9729719 0.20298509 202 73711730 724 29 43 5993
-0.65702409 5.9309039 0.1471896 228 73711730 811 30 43 5969
-0.87467688 5.9129901 0.089308113 365 73711730 1306 31 78 5978
-0.22131988 5.8396654 0.040798489 762 73711730 2603 32 101 5844
-0.43415108 5.8498931 -0.014845232 739 73711730 2543 33 106 5866
-0.65799201 5.9462795 -0.071423672 446 73711730 1598 34 87 5983
-0.87803817 5.9623084 -0.12929128 220 73711730 801 35 60 6028
-0.21751565 5.8143678 -0.17278875 928 73711730 3143 36 162 5821
-0.4248493 5.7819791 -0.22677359 898 73711730 3025 37 69 5802
-0.64021713 5.8079014 -0.28444543 872 73711730 2985 38 213 5850
-0.8548969 5.8044653 -0.34127346 852 73711730 2944 39 85 5877
-0.21235611 5.7983484 -0.38507894 963 73711730 3255 40 155 5815
-0.423374 5.7978997 -0.44047433 907 73711730 3083 41 116 5830
-0.63768727 5.7998214 -0.49816486 928 73711730 3181 42 140 5856
-0.84793472 5.778882 -0.55427426 937 73711730 3226 43 85 5867
-0.2106901 5.8082919 -0.60000819 977 73711730 3336 44 113 5843
-0.42175803 5.8078666 -0.65605378 926 73711730 3181 45 67 5860
-0.63571107 5.8098483 -0.71420068 926 73711730 3210 46 127 5888
-0.84703171 5.7825646 -0.77169603 933 73711730 3241 47 139 5895
-0.2056462 5.8034463 -0.81499624 968 73711730 3329 48 106 5864
-0.42048109 5.8254685 -0.8763265 900 73711730 3141 49 68 5906
-0.631845 5.8026137 -0.93293685 900 73711730 3146 50 69 5911
-0.8475793 5.7975917 -0.99437928 976 73711730 3448 51 91 5943
-0.20035779 5.8000789 -1.0343946 941 73711730 3271 52 104 5895
-0.41852602 5.8395433 -1.1001923 911 73711730 3232 53 124 5957
-0.63161165 5.8174529 -1.1573824 909 73711730 3236 54 72 5965
-0.85067719 5.8180728 -1.2240987 889 73711730 3208 55 72 6006
-0.19849485 5.840692 -1.2678026 907 73711730 3243 56 133 5980
-0.41324517 5.8085122 -1.3203254 734 73711730 2618 57 74 5971
-0.62937731 5.8072634 -1.3840473 881 73711730 3175 58 86 6003
-0.84816056 5.804399 -1.4516981 913 73711730 3334 59 114 6043
-0.19250879 5.8666406 -1.5063437 827 73711730 3039 60 70 6060
-0.41002542 5.8322768 -1.5591762 886 73711730 3243 61 49 6051
-0.63078994 5.8307476 -1.6260034 838 73711730 3106 62 60 6086
-0.85167491 5.8114338 -1.694302 815 73711730 3044 63 53 6113
-0.18718255 5.9106536 1.8458501 785 73808480 3014 0 83 6195
-0.41020301 5.872252 1.766837 843 73808480 3185 1 97 6146
-0.6322335 5.8695374 1.7094253 819 73808480 3095 2 66 6146
-0.85023242 5.8239508 1.6440881 896 73808480 3348 3 65 6111
-0.18897609 5.873322 1.5874346 874 73808480 3238 4 106 6087
-0.40653315 5.8564749 1.5233709 876 73808480 3221 5 41 6065
-0.62978309 5.8679476 1.4701331 861 73808480 3186 6 97 6082
-0.84510225 5.8300915 1.4082215 895 73808480 3285 7 81 6057
-0.18980815 5.8641548 1.3520752 832 73808480 3017 8 105 6021
-0.40960309 5.868084 1.2939669 764 73808480 2772 9 108 6023
-0.62398016 5.8436761 1.2337434 851 73808480 3067 10 56 6005
-0.8408671 5.8367467 1.1804787 818 73808480 2960 11 67 6014
-0.1894765 5.8256073 1.1183144 851 73808480 2998 12 112 5935
-0.40588242 5.8471003 1.0642042 870 73808480 3089 13 84 5957
-0.62286681 5.8438764 1.0092157 835 73808480 2968 14 126 5963
-0.83646119 5.8162332 0.9539265 891 73808480 3159 15 68 5953
-0.18971258 5.8360004 0.89976418 733 73808480 2560 16 73 5908
-0.40292561 5.8236313 0.84224433 757 73808480 2635 17 81 5898
-0.61719644 5.8205566 0.78805351 782 73808480 2729 18 77 5906
-0.8313852 5.806108 0.73337239 845 73808480 2953 19 87 5911
-0.19155192 5.895752 0.68930423 315 73808480 1112 20 77 5939
-0.40454799 5.8604488 0.62924361 421 73808480 1470 21 90 5908
-0.61404133 5.8169417 0.57033008 523 73808480 1808 22 84 5877
-0.8300603 5.8192925 0.51830739 669 73808480 2329 23 132 5901
-0.19255203 5.9618001 0.47762007 266 73808480 954 24 83 5984
-0.409585 5.9561133 0.42093116 264 73808480 947 25 75 5985
-0.62828201 5.9538374 0.36481076 172 73808480 618 26 145 5998
-0.84641165 5.9592204 0.30986121 229 73808480 832 27 103 6027
-0.19114593 6.0092835 0.2613472 297 73808480 1077 28 66 6018
-0.41128471 6.011488 0.20420443 166 73808480 602 29 49 6029
-0.62436342 5.9706173 0.14807731 208 73808480 749 30 46 6005
-0.84342784 5.953886 0.089845933 351 73808480 1270 31 86 6014
-0.18586507 5.8529072 0.040882263 808 73808480 2771 32 90 5856
-0.39824864 5.852447 -0.014845232 786 73808480 2705 33 117 5866
-0.6177544 5.9144025 -0.070993915 568 73808480 2009 34 107 5947
-0.83976251 5.9557037 -0.12903389 351 73808480 1271 35 96 6016
-0.18221012 5.8275819 -0.17314497 940 73808480 3197 36 165 5833
-0.39016905 5.7964406 -0.22724262 888 73808480 3004 37 62 5814
-0.60208821 5.7878771 -0.28327847 940 73808480 3192 38 192 5826
-0.81926531 5.8096013 -0.34127346 892 73808480 3082 39 78 5877
-0.17713891 5.8115106 -0.38587359 986 73808480 3348 40 108 5827
-0.3877908 5.8003883 -0.44047433 920 73808480 3127 41 117 5830
-0.59962058 5.7798395 -0.49612316 929 73808480 3159 42 135 5832
-0.81412196 5.7958064 -0.55540794 950 73808480 3285 43 79 5879
-0.17504713 5.8094754 -0.60000819 939 73808480 3206 44 125 5843
-0.38611367 5.8103452 -0.65605378 916 73808480 3147 45 72 5860
-0.5988276 5.8017912 -0.71274507 938 73808480 3239 46 105 5876
-0.81649053 5.8229971 -0.77640867 923 73808480 3246 47 128 5931
-0.17038101 5.8164773 -0.81666404 967 73808480 3339 48 108 5876
-0.38472876 5.827939 -0.8763265 892 73808480 3112 49 81 5906
-0.59743935 5.8181691 -0.93483078 911 73808480 3197 50 85 5923
-0.81362951 5.8144002 -0.99638712 917 73808480 3253 51 82 5955
-0.1657716 5.8366261 -1.0407115 968 73808480 3406 52 107 5931
-0.3811456 5.8184643 -1.0957597 933 73808480 3285 53 87 5933
-0.59590453 5.821219 -1.1573824 855 73808480 3043 54 83 5965
-0.81170559 5.7999134 -1.2192072 934 73808480 3343 55 91 5982
-0.16297969 5.8535223 -1.2703466 934 73808480 3352 56 148 5992
-0.38063246 5.8576517 -1.3309393 394 73808480 1428 57 79 6019
-0.59491968 5.8226323 -1.386814 891 73808480 3224 58 83 6015
-0.814143 5.8210301 -1.4545809 891 73808480 3267 59 104 6055
-0.15588829 5.8444729 -1.5003779 901 73808480 3284 60 74 6036
-0.37645799 5.8693962 -1.5684525 535 73808480 1981 61 50 6087
-0.59617448 5.8460126 -1.6292095 860 73808480 3196 62 49 6098
-0.82240796 5.8622222 -1.7076058 814 73808480 3091 63 59 6161
-0.15120426 5.9231424 1.8494257 758 73907040 2921 0 86 6207
-0.37343326 5.8631878 1.7633873 840 73907040 3162 1 90 6134
-0.59737086 5.8847737 1.712763 804 73907040 3047 2 56 6158
-0.81608069 5.8405042 1.6473166 872 73907040 3271 3 68 6123
-0.15293451 5.8743711 1.5874346 850 73907040 3150 4 107 6087
-0.37059087 5.8588591 1.5233709 849 73907040 3124 5 77 6065
-0.59259462 5.8601165 1.4672323 799 73907040 2944 6 105 6070
-0.80610681 5.8120465 1.4026417 855 73907040 3113 7 87 6033
-0.15443593 5.888588 1.3574646 839 73907040 3067 8 90 6045
-0.37358952 5.8704867 1.2939669 814 73907040 2953 9 122 6023
-0.5904628 5.8707652 1.2386743 860 73907040 3128 10 68 6029
-0.80182499 5.8184834 1.1757678 852 73907040 3055 11 52 5990
-0.1540385 5.8384414 1.1205754 897 73907040 3172 12 134 5947
-0.36999765 5.8494806 1.0642042 878 73907040 3117 13 77 5957
-0.58581644 5.8358207 1.0071847 842 73907040 2982 14 86 5951
-0.80075771 5.8212562 0.9539265 849 73907040 3009 15 82 5953
-0.15327479 5.813343 0.89610904 673 73907040 2331 16 78 5884
-0.36793196 5.8378477 0.84395796 744 73907040 2600 17 84 5910
-0.58028913 5.8123999 0.78645229 823 73907040 2860 18 87 5894
-0.79574394 5.8110995 0.73337239 804 73907040 2809 19 111 5911
-0.15725629 5.9683046 0.69766086 321 73907040 1161 20 73 6011
-0.36708406 5.8390045 0.62668741 379 73907040 1313 21 76 5884
-0.57951856 5.8324847 0.57149458 492 73907040 1708 22 72 5889
-0.78949213 5.788744 0.5151453 612 73907040 2105 23 139 5865
-0.15596749 5.9628696 0.47762007 266 73907040 954 24 76 5984
-0.37303126 5.9585142 0.42093116 283 73907040 1014 25 88 5985
-0.59647363 6.0052571 0.36773026 212 73907040 775 26 104 6046
-0.81466776 5.999927 0.31171203 183 73907040 673 27 105 6063
-0.15365483 5.9863739 0.26030496 358 73907040 1288 28 64 5994
-0.37290078 5.9899588 0.20339152 145 73907040 522 29 39 6005
-0.58889109 5.9862747 0.14837322 158 73907040 571 30 41 6017
-0.8052696 5.9470587 0.089666657 313 73907040 1128 31 96 6002
-0.14933427 5.829946 0.040714711 815 73907040 2772 32 98 5832
-0.36159 5.8428035 -0.014814863 802 73907040 2749 33 97 5854
-0.58027941 5.9061399 -0.070850663 660 73907040 2326 34 84 5935
-0.80160105 5.9488544 -0.12877651 428 73907040 1544 35 73 6004
-0.1467506 5.8405814 -0.17350118 927 73907040 3166 36 135 5845
-0.35386354 5.786757 -0.22677359 885 73907040 2980 37 83 5802
-0.56773007 5.8033915 -0.28386194 924 73907040 3150 38 196 5838
-0.78360283 5.8145189 -0.34127346 842 73907040 2909 39 100 5877
-0.14118546 5.8005176 -0.38507894 980 73907040 3314 40 108 5815
-0.35219297 5.8026586 -0.44047433 922 73907040 3134 41 93 5830
-0.56414491 5.7834101 -0.49612316 916 73907040 3114 42 160 5832
-0.77536601 5.7770123 -0.55314064 920 73907040 3155 43 77 5855
-0.13968386 5.8223734 -0.60124046 977 73907040 3350 44 120 5855
-0.35045481 5.8126049 -0.65605378 904 73907040 3106 45 64 5860
-0.56321722 5.8053565 -0.71274507 941 73907040 3249 46 132 5876
-0.776007 5.7925234 -0.77169603 925 73907040 3213 47 152 5895
-0.13468857 5.8174133 -0.81666404 996 73907040 3439 48 114 5876
-0.34825292 5.8183441 -0.87454593 918 73907040 3191 49 58 5894
-0.56172854 5.8217254 -0.93483078 880 73907040 3089 50 66 5923
-0.77637011 5.8075566 -0.99437928 932 73907040 3293 51 82 5943
-0.12942976 5.8139114 -1.0365002 963 73907040 3361 52 92 5907
-0.34473833 5.8089213 -1.0935435 926 73907040 3246 53 111 5921
-0.560175 5.8247657 -1.1573824 807 73907040 2872 54 87 5965
-0.77610266 5.8047848 -1.2192072 913 73907040 3268 55 70 5982
-0.12680563 5.8426881 -1.2678026 940 73907040 3361 56 127 5980
-0.34399626 5.8481946 -1.3282859 832 73907040 3003 57 96 6007
-0.55918145 5.8261728 -1.386814 881 73907040 3188 58 95 6015
-0.77686781 5.8143702 -1.4516981 886 73907040 3237 59 78 6043
-0.12026297 5.8569403 -1.5033609 936 73907040 3426 60 59 6048
-0.34446383 5.9410477 -1.5870049 268 73907040 1015 61 47 6159
-0.55919021 5.8380494 -1.6260034 841 73907040 3116 62 71 6086
-0.78029555 5.8214478 -1.694302 820 73907040 3066 63 58 6113
-0.1148577 5.9239583 1.8494257 682 74005040 2629 0 82 6207
-0.33745039 5.8653688 1.7633873 886 74005040 3335 1 100 6134
-0.5601576 5.8768535 1.7094253 798 74005040 3016 2 67 6146
-0.77869958 5.8339458 1.6440881 897 74005040 3352 3 69 6111
-0.1171176 5.8867812 1.5905641 826 74005040 3073 4 87 6099
-0.33397251 5.8494267 1.5203569 876 74005040 3208 5 48 6053
-0.55772692 5.8752341 1.4701331 778 74005040 2878 6 116 6082
-0.77042961 5.8168831 1.4026417 882 74005040 3211 7 83 6033
-0.11806649 5.8777337 1.3547699 825 74005040 3002 8 126 6033
-0.33621675 5.849267 1.2888108 792 74005040 2851 9 112 5999
-0.55222231 5.8508935 1.2337434 870 74005040 3139 10 73 6005
-0.76610833 5.8232937 1.1757678 901 74005040 3231 11 47 5990
-0.1182116 5.8392768 1.1205754 852 74005040 3013 12 127 5947
-0.33275288 5.8280649 1.0599166 890 74005040 3134 13 89 5933
-0.54888844 5.8275304 1.0051538 832 74005040 2934 14 113 5939
-0.76193982 5.8025718 0.95008069 875 74005040 3077 15 61 5929
-0.11856126 5.8616042 0.9034192 670 74005040 2359 16 71 5932
-0.33143035 5.8281374 0.84224433 732 74005040 2547 17 89 5898
-0.54461396 5.8158512 0.78645229 762 74005040 2648 18 83 5894
-0.76007277 5.8158731 0.73337239 817 74005040 2855 19 98 5911
-0.11991002 5.9334083 0.69348258 260 74005040 929 20 88 5975
-0.33395192 5.8887973 0.6317997 353 74005040 1243 21 96 5932
-0.54482812 5.8478227 0.57265913 446 74005040 1555 22 61 5901
-0.75704348 5.8171868 0.51725334 584 74005040 2025 23 136 5889
-0.11889829 5.939796 0.47570449 265 74005040 943 24 63 5960
-0.33511427 5.9367886 0.41924322 294 74005040 1046 25 85 5961
-0.55406123 5.949173 0.36408091 265 74005040 950 26 111 5986
-0.77629805 5.992928 0.31109509 189 74005040 692 27 106 6051
-0.11598393 5.9392581 0.2582204 454 74005040 1607 28 71 5946
-0.33614007 5.9921336 0.20339152 176 74005040 633 29 43 6005
-0.55325013 6.0017209 0.14866914 143 74005040 519 30 30 6029
-0.76722693 5.9399881 0.089487381 252 74005040 906 31 66 5990
-0.1140269 5.8547473 0.040882263 827 74005040 2836 32 116 5856
-0.32573241 5.8449121 -0.014814863 835 74005040 2863 33 87 5854
-0.54292911 5.8976402 -0.070707411 693 74005040 2431 34 122 5923
-0.76049703 5.917963 -0.12800437 551 74005040 1963 35 105 5968
-0.11068301 5.8293791 -0.17314497 942 74005040 3204 36 147 5833
-0.31900844 5.8007922 -0.22724262 939 74005040 3175 37 79 5814
-0.5332042 5.8187017 -0.28444543 947 74005040 3242 38 192 5850
-0.74638373 5.8073354 -0.34057662 882 74005040 3035 39 99 5865
-0.10580941 5.8132467 -0.38587359 976 74005040 3314 40 105 5827
-0.31593028 5.7927623 -0.43956769 945 74005040 3199 41 116 5818
-0.52973568 5.7986693 -0.49714401 946 74005040 3230 42 113 5844
-0.74293721 5.8053603 -0.55540794 999 74005040 3454 43 82 5879
-0.10416886 5.8350549 -0.60247266 1004 74005040 3456 44 134 5867
-0.31413811 5.8027387 -0.65471029 903 74005040 3090 45 70 5848
-0.5286631 5.8205657 -0.71420068 956 74005040 3315 46 99 5888
-0.74346465 5.8207774 -0.77483779 933 74005040 3267 47 155 5919
-0.099395372 5.8418937 -0.81999958 960 74005040 3341 48 129 5900
-0.31254569 5.8203712 -0.87454593 923 74005040 3207 49 77 5894
-0.52493083 5.8132606 -0.93293685 918 74005040 3209 50 77 5911
-0.74072099 5.812211 -0.99437928 891 74005040 3148 51 89 5943
-0.093944289 5.8264084 -1.0386059 963 74005040 3374 52 129 5919
-0.30971539 5.8227034 -1.0957597 933 74005040 3285 53 103 5933
-0.52547938 5.839818 -1.1597108 819 74005040 2927 54 90 5977
-0.74047059 5.8094378 -1.2192072 918 74005040 3286 55 77 5982
-0.090953186 5.8433561 -1.2678026 927 74005040 3313 56 161 5980
-0.30625945 5.8151345 -1.3203254 871 74005040 3107 57 70 5971
-0.52655488 5.8643842 -1.3951141 433 74005040 1587 58 67 6051
-0.73823321 5.795917 -1.4459326 903 74005040 3272 59 100 6019
-0.08415588 5.8459458 -1.5003779 915 74005040 3332 60 55 6036
-0.29780197 5.746202 -1.5344397 1021 74005040 3619 61 56 5955
-0.52438998 5.8528881 -1.6292095 838 74005040 3115 62 43 6098
-0.74309957 5.8146892 -1.690976 822 74005040 3058 63 57 6101
-0.078506812 5.924552 1.8494257 758 74103940 2921 0 78 6207
-0.30204457 5.8788075 1.766837 836 74103940 3159 1 100 6146
-0.52408737 5.8801799 1.7094253 776 74103940 2929 2 51 6146
-0.74434727 5.8500791 1.6473166 820 74103940 3073 3 38 6123
-0.080835424 5.8758054 1.5874346 861 74103940 3191 4 95 6087
-0.29807481 5.8513656 1.5203569 869 74103940 3182 5 55 6053
-0.52063739 5.8669472 1.4672323 775 74103940 2856 6 91 6070
-0.73618472 5.8330798 1.4054315 881 74103940 3220 7 98 6045
-0.082162268 5.8900394 1.3574646 846 74103940 3092 8 97 6045
-0.30092072 5.8629246 1.2913889 812 74103940 2934 9 134 6011
-0.51527977 5.8424735 1.2312781 854 74103940 3069 10 70 5993
-0.73182607 5.8395605 1.1781232 895 74103940 3226 11 58 6002
-0.082546473 5.8516755 1.1228365 854 74103940 3033 12 113 5959
-0.29818764 5.8535805 1.0642042 890 74103940 3159 13 100 5957
-0.51415789 5.8425698 1.0071847 842 74103940 2981 14 119 5951
-0.72632158 5.807138 0.95008069 865 74103940 3042 15 64 5929
-0.082425825 5.8503623 0.90159166 597 74103940 2094 16 62 5920
-0.29506177 5.8181996 0.84053069 700 74103940 2425 17 110 5886
-0.50891834 5.8190832 0.78645229 794 74103940 2759 18 68 5894
-0.72143179 5.7967949 0.73039472 762 74103940 2641 19 126 5887
-0.084004164 5.9697852 0.69766086 236 74103940 854 20 82 6011
-0.29901755 5.9145684 0.6343559 338 74103940 1200 21 98 5956
-0.5099712 5.8629537 0.57382363 409 74103940 1431 22 79 5913
-0.72133565 5.821722 0.51725334 547 74103940 1896 23 147 5889
-0.082616158 5.9523735 0.47666225 251 74103940 896 24 84 5972
-0.29928178 5.9506879 0.42008716 282 74103940 1007 25 78 5973
-0.51547235 5.9285955 0.36262119 271 74103940 963 26 104 5962
-0.73804504 5.9856844 0.31047815 210 74103940 766 27 100 6039
-0.079539143 5.939858 0.2582204 529 74103940 1872 28 79 5946
-0.29996496 6.006062 0.20379797 175 74103940 632 29 41 6017
-0.5123024 5.9571939 0.14748551 98 74103940 352 30 59 5981
-0.72930145 5.9326749 0.089308113 250 74103940 895 31 74 5978
-0.078100704 5.8553367 0.040882263 836 74103940 2868 32 86 5856
-0.28926843 5.834816 -0.014784495 846 74103940 2888 33 107 5842
-0.50365168 5.864995 -0.070277646 756 74103940 2621 34 92 5887
-0.72271466 5.9106092 -0.12774698 668 74103940 2370 35 95 5956
-0.07475841 5.8179545 -0.17278875 904 74103940 3062 36 151 5821
-0.28340945 5.8026404 -0.22724262 887 74103940 3000 37 68 5814
-0.49647081 5.8099213 -0.28386194 948 74103940 3232 38 202 5838
-0.70928234 5.7999148 -0.33987978 905 74103940 3102 39 74 5853
-0.070138 5.8137865 -0.38587359 1007 74103940 3419 40 113 5827
-0.28095892 5.8065438 -0.44047433 922 74103940 3134 41 113 5830
-0.49414575 5.8018107 -0.49714401 936 74103940 3195 42 154 5844
-0.70585847 5.7979507 -0.55427426 960 74103940 3305 43 95 5867
-0.068223856 5.8236489 -0.60124046 1004 74103940 3442 44 134 5855
-0.27909881 5.8164678 -0.65605378 926 74103940 3181 45 80 5860
-0.49193415 5.8118305 -0.71274507 941 74103940 3249 46 120 5876
-0.7048654 5.80161 -0.77169603 890 74103940 3092 47 133 5895
-0.063031316 5.7948623 -0.81332844 993 74103940 3401 48 114 5852
-0.27682668 5.8221793 -0.87454593 882 74103940 3065 49 75 5894
-0.48825821 5.8045645 -0.93104285 901 74103940 3136 50 79 5899
-0.70504397 5.8166466 -0.99437928 948 74103940 3350 51 76 5943
-0.05807437 5.815062 -1.0365002 988 74103940 3447 52 120 5907
-0.27398211 5.8244944 -1.0957597 930 74103940 3274 53 98 5933
-0.48668793 5.8077402 -1.1527258 892 74103940 3149 54 86 5941
-0.70481062 5.8138719 -1.2192072 926 74103940 3315 55 83 5982
-0.055097312 5.8438044 -1.2678026 903 74103940 3228 56 161 5980
-0.27111647 5.8285947 -1.3229789 865 74103940 3097 57 97 5983
-0.49445325 5.9140491 -1.406181 419 74103940 1560 58 64 6099
-0.70545805 5.8234658 -1.4516981 931 74103940 3401 59 83 6043
-0.048284248 5.8463521 -1.5003779 905 74103940 3299 60 77 6036
-0.26729974 5.8521652 -1.5622683 435 74103940 1600 61 78 6063
-0.486545 5.8329482 -1.6227974 851 74103940 3138 62 56 6074
-0.7074073 5.819139 -1.690976 800 74103940 2979 63 59 6101
-0.041989975 5.9020123 1.8422747 758 74202140 2899 0 80 6183
-0.26596719 5.8805499 1.766837 876 74202140 3310 1 91 6146
-0.48799741 5.883285 1.7094253 812 74202140 3068 2 73 6146
-0.70566106 5.8315887 1.6408597 864 74202140 3216 3 62 6099
-0.04486892 5.8877754 1.5905641 860 74202140 3200 4 88 6099
-0.26320538 5.8762918 1.5263851 856 74202140 3162 5 74 6077
-0.48367059 5.8584266 1.4643317 849 74202140 3117 6 96 6058
-0.69898951 5.8258996 1.4026417 906 74202140 3298 7 88 6033
-0.045928769 5.8787398 1.3547699 852 74202140 3101 8 105 6033
-0.26546976 5.8763685 1.2939669 806 74202140 2924 9 123 6023
-0.47846133 5.8338203 1.2288126 854 74202140 3056 10 79 5981
-0.69319838 5.8205729 1.1734123 894 74202140 3193 11 46 5978
-0.0465458 5.8402877 1.1205754 786 74202140 2780 12 105 5947
-0.26173681 5.8435049 1.0620604 865 74202140 3058 13 91 5945
-0.47636989 5.8220396 1.0031228 816 74202140 2866 14 108 5927
-0.69347173 5.8350091 0.9539265 872 74202140 3091 15 88 5953
-0.046338502 5.8270388 0.89793658 612 74202140 2127 16 42 5896
-0.25882766 5.8080349 0.83881706 687 74202140 2371 17 85 5874
-0.47320354 5.8220963 0.78645229 757 74202140 2631 18 73 5894
-0.68584973 5.8011122 0.73039472 785 74202140 2721 19 100 5887
-0.047750957 6.0178628 0.70323199 211 74202140 776 20 89 6059
-0.26430878 5.9520516 0.63819015 269 74202140 967 21 85 5992
-0.47591108 5.889782 0.57615274 376 74202140 1327 22 80 5937
-0.68699771 5.8379107 0.51830739 494 74202140 1720 23 122 5901
-0.046276756 5.9766917 0.47857785 233 74202140 839 24 79 5996
-0.26434711 5.9882884 0.4226191 297 74202140 1073 25 88 6009
-0.48004976 5.9435854 0.36335108 307 74202140 1095 26 127 5974
-0.69572943 5.9424887 0.30801037 251 74202140 901 27 105 5991
-0.04309136 5.9402342 0.2582204 615 74202140 2176 28 62 5946
-0.26258206 5.9958076 0.20339152 249 74202140 897 29 39 6005
-0.48146713 6.0319753 0.14926095 131 74202140 479 30 27 6053
-0.69566727 5.9608736 0.089666657 198 74202140 715 31 75 6002
