# .PCD v0.7 - Point Cloud Data file format
VERSION 0.7
FIELDS x y z intensity t reflectivity ring noise range
SIZE 4 4 4 4 4 2 1 2 4
TYPE F F F F U U U U U
COUNT 1 1 1 1 1 1 1 1 1
WIDTH 822
HEIGHT 1
VIEWPOINT 0 0 0 1 0 0 0
POINTS 822
DATA ascii
6.1913967 -1.6878307 1.7925968 183 5181910 815 3 62 6663
2.2844212 -0.90962726 0.66423464 78 5181910 51 4 89 2547
2.3902173 -0.85035729 0.65832734 124 5181910 85 5 57 2621
5.4862766 -1.7223252 1.4324249 199 5181910 699 6 98 5926
2.3949585 -0.6554926 0.59355944 338 5181910 221 7 65 2553
2.2028327 -0.87664974 0.54635423 134 5181910 79 8 86 2433
2.3292246 -0.82765073 0.54375398 57 5181910 37 9 58 2531
2.3236747 -0.73086029 0.51137173 259 5181910 161 10 71 2489
2.2371385 -0.61439681 0.46441847 281 5181910 157 11 41 2366
2.3059914 -0.91728377 0.47615507 264 5181910 169 12 109 2527
2.2405491 -0.79711044 0.43179142 267 5181910 156 13 79 2417
2.1876345 -0.68853348 0.39383614 229 5181910 124 14 90 2327
2.1253033 -0.58424139 0.3578226 259 5181910 129 15 81 2233
2.1746292 -0.8650741 0.36063665 84 5181910 47 16 48 2368
2.0979474 -0.74691397 0.32130378 257 5181910 130 17 85 2250
2.0434778 -0.64437711 0.2884815 267 5181910 125 18 77 2162
2.0729949 -0.57122415 0.26885772 259 5181910 122 19 80 2167
2.0589743 -0.81910783 0.25893885 224 5181910 112 20 84 2231
2.0044634 -0.71398646 0.22792506 233 5181910 107 21 92 2140
2.0015779 -0.63220185 0.20466669 220 5181910 98 22 99 2109
1.9213587 -0.53055871 0.17575547 260 5181910 104 23 157 2001
1.9522974 -0.77710348 0.16825251 224 5181910 100 24 71 2108
1.891421 -0.67427897 0.14157633 234 5181910 95 25 64 2013
1.9054831 -0.60192329 0.12176578 221 5181910 88 26 143 2002
1.8624219 -0.51547372 0.099482566 222 5181910 83 27 125 1935
1.843096 -0.73467994 0.086247183 261 5181910 103 28 41 1986
1.8345507 -0.65472698 0.066013336 202 5181910 77 29 34 1949
1.8230526 -0.57777452 0.047172673 182 5181910 66 30 44 1913
1.7825881 -0.49408114 0.027638009 230 5181910 79 31 73 1850
1.7945936 -0.71545517 0.013487795 170 5181910 64 32 81 1932
1.7496637 -0.62515497 -0.0047020866 229 5181910 79 33 63 1858
1.7452469 -0.55335045 -0.021858055 181 5181910 61 34 106 1831
1.7030691 -0.47322527 -0.037920866 192 5181910 60 35 81 1768
1.7498662 -0.6986149 -0.05595376 20 5181910 7 36 136 1885
1.7328224 -0.62057036 -0.07199534 234 5181910 79 37 46 1842
1.7421231 -0.55316323 -0.088980362 207 5181910 69 38 110 1830
1.705404 -0.47384202 -0.10295692 215 5181910 68 39 70 1773
0 -0 -0 4 5181910 0 40 92 0
1.7101377 -0.61332202 -0.13765767 60 5181910 20 41 96 1822
1.675038 -0.53237712 -0.15006195 105 5181910 33 42 135 1764
1.6217484 -0.45154387 -0.15975419 70 5181910 20 43 74 1691
1.8606341 -0.74528611 -0.20691708 239 5181910 97 44 90 2015
1.8779674 -0.67436326 -0.22480479 231 5181910 93 45 57 2008
1.8576065 -0.591474 -0.23822862 268 5181910 103 46 109 1964
1.8479263 -0.51500517 -0.25330481 260 5181910 97 47 171 1935
1.8710449 -0.75127578 -0.28296936 267 5181910 111 48 88 2036
1.92261 -0.69134134 -0.30655104 256 5181910 109 49 44 2066
1.9031653 -0.6070779 -0.31929135 274 5181910 112 50 79 2023
1.9401071 -0.54127932 -0.34183353 247 5181910 103 51 90 2043
4.5507865 -1.8319709 -0.87436616 275 5181910 683 52 117 4983
5.0643368 -1.8239537 -1.0115416 65 5181910 196 53 90 5477
0 -0 -0 7 5181910 0 54 81 0
6.2634172 -1.7473415 -1.3537235 220 5181910 972 55 77 6642
1.1456438 -0.4619357 -0.267977 52 5181910 8 56 131 1264
1.316437 -0.47490215 -0.3173115 10 5181910 2 57 71 1435
5.61972 -1.7957309 -1.3978808 145 5181910 535 58 63 6063
6.244802 -1.7427356 -1.6044831 240 5181910 1072 59 88 6679
1.2175699 -0.49259314 -0.33706304 38 5181910 7 60 46 1356
4.98562 -1.8032746 -1.413849 244 5181910 733 61 52 5487
5.5861487 -1.7861855 -1.6260034 205 5181910 761 62 63 6086
6.2355585 -1.737341 -1.8672522 249 5181910 1128 63 56 6737
2.4013975 -0.97473407 0.80895615 154 5277330 114 0 86 2715
2.4440577 -0.88523716 0.78021413 156 5277330 115 1 108 2714
2.515626 -0.80566365 0.7648747 52 5277330 40 2 66 2750
6.1141334 -1.7071398 1.7732261 199 5277330 866 3 79 6591
2.2465878 -0.91057223 0.65484613 121 5277330 76 4 99 2511
2.3412776 -0.84916598 0.64627099 78 5277330 52 5 64 2573
5.4090776 -1.7346214 1.4150212 186 5277330 638 6 111 5854
2.4133675 -0.67647558 0.59913933 313 5277330 208 7 79 2577
2.1648979 -0.87697846 0.53827012 154 5277330 89 8 76 2397
2.2910452 -0.82995176 0.53601986 74 5277330 46 9 53 2495
2.3191464 -0.74510437 0.51137173 268 5277330 166 10 59 2489
2.267308 -0.63766915 0.47148484 281 5277330 162 11 51 2402
2.289396 -0.92699277 0.47389394 254 5277330 161 12 141 2515
2.2245166 -0.80681753 0.42964768 249 5277330 144 13 64 2405
2.2621837 -0.72728229 0.40805283 135 5277330 78 14 112 2411
2.1216784 -0.59727103 0.3578226 263 5277330 131 15 63 2233
2.1582875 -0.87394977 0.35880914 252 5277330 140 16 45 2356
2.0821607 -0.75572062 0.31959018 264 5277330 132 17 112 2238
2.0508053 -0.66054958 0.29008269 262 5277330 124 18 70 2174
2.0694509 -0.58393306 0.26885772 251 5277330 118 19 80 2167
2.0318143 -0.82277864 0.25615329 227 5277330 111 20 97 2207
2.0000448 -0.72627223 0.22792506 229 5277330 105 21 86 2140
1.974928 -0.63713741 0.20233761 232 5277330 101 22 76 2085
1.952575 -0.55209517 0.17891748 265 5277330 110 23 123 2037
1.9031475 -0.77110058 0.16442135 231 5277330 98 24 78 2060
1.9097489 -0.69404918 0.14326429 255 5277330 106 25 82 2037
1.8903548 -0.60992587 0.12103593 212 5277330 84 26 114 1990
1.8707541 -0.53015918 0.10009952 211 5277330 80 27 111 1947
1.8052262 -0.73245293 0.084683791 263 5277330 100 28 42 1950
1.8304988 -0.66597122 0.066013336 187 5277330 71 29 17 1949
1.853713 -0.60003293 0.048060399 182 5277330 69 30 46 1949
1.779523 -0.50500959 0.027638009 260 5277330 89 31 73 1850
1.7790508 -0.72194099 0.01340402 182 5277330 67 32 50 1920
1.7232444 -0.62766528 -0.0046413494 194 5277330 65 33 65 1834
1.7418188 -0.56404865 -0.021858055 186 5277330 62 34 88 1831
1.723212 -0.49023178 -0.038435627 208 5277330 67 35 75 1792
1.7899956 -0.72740144 -0.057378575 20 5277330 7 36 131 1933
1.7177182 -0.62707901 -0.071526311 230 5277330 77 37 52 1830
1.7272949 -0.56014496 -0.088396885 225 5277330 74 38 117 1818
1.7370323 -0.49413073 -0.10504742 232 5277330 76 39 82 1809
0 -0 -0 4 5277330 0 40 104 0
1.6501509 -0.60326129 -0.13312449 70 5277330 22 41 102 1762
1.6944846 -0.55002791 -0.1521036 102 5277330 33 42 148 1788
1.6074587 -0.45821136 -0.15862052 59 5277330 17 43 72 1679
1.8339195 -0.74767601 -0.20445256 228 5277330 91 44 78 1991
1.8402003 -0.67357701 -0.22077441 231 5277330 90 45 48 1972
1.8312873 -0.59549397 -0.23531747 269 5277330 101 46 129 1940
1.9133728 -0.5459187 -0.26273012 249 5277330 100 47 120 2007
1.8664 -0.76274216 -0.28296936 286 5277330 119 48 85 2036
1.9294742 -0.70720923 -0.30833161 239 5277330 103 49 62 2078
1.8994046 -0.61874408 -0.31929135 267 5277330 109 50 53 2023
1.9595013 -0.55967182 -0.34584925 255 5277330 109 51 72 2067
1.1724433 -0.48036107 -0.22582968 16 5277330 3 52 113 1287
4.9091253 -1.8021582 -0.98273009 41 5277330 117 53 95 5321
0 -0 -0 9 5277330 0 54 74 0
6.0605388 -1.7308936 -1.3121457 247 5277330 1025 55 79 6438
1.1536372 -0.47340864 -0.27052107 114 5277330 19 56 129 1276
1.3354663 -0.49104831 -0.32261845 11 5277330 2 57 70 1459
0 -0 -0 5 5277330 0 58 57 0
6.1219869 -1.7490211 -1.5756558 229 5277330 986 59 102 6559
1.2145246 -0.50005472 -0.33706304 52 5277330 9 60 44 1356
4.9200654 -1.8137789 -1.3983885 240 5277330 706 61 39 5427
5.47615 -1.7881231 -1.5971489 228 5277330 816 62 80 5978
6.1804304 -1.7629182 -1.8539482 176 5277330 789 63 67 6689
2.2471495 -0.9282248 0.75889921 94 5374920 61 0 89 2547
2.4062333 -0.88827598 0.76986492 166 5374920 119 1 70 2678
2.4558575 -0.80316943 0.74818647 140 5374920 101 2 86 2690
5.9479685 -1.7001541 1.7280279 222 5374920 917 3 74 6423
2.4444382 -1.0082704 0.71430647 218 5374920 164 4 99 2739
2.2706544 -0.83935213 0.62818646 112 5374920 70 5 45 2501
5.3651347 -1.7569071 1.4063193 133 5374920 450 6 113 5818
2.4203899 -0.69448996 0.60192931 259 5374920 174 7 90 2589
2.1594763 -0.8902455 0.53827012 90 5374920 52 8 88 2397
2.2199435 -0.81963801 0.52055156 91 5374920 54 9 62 2423
2.3480074 -0.77030289 0.51876807 277 5374920 177 10 92 2525
2.2746596 -0.65482414 0.47384027 290 5374920 169 11 46 2414
2.1420143 -0.88265324 0.44449934 138 5374920 77 12 103 2359
2.2416732 -0.82863915 0.4339352 201 5374920 119 13 76 2429
2.201494 -0.72270495 0.39789805 226 5374920 125 14 95 2351
2.1407375 -0.61683738 0.36166844 275 5374920 140 15 65 2257
2.1748152 -0.89621377 0.36246422 263 5374920 149 16 53 2380
2.0997632 -0.77672333 0.32301742 252 5374920 129 17 99 2262
2.0693085 -0.68055165 0.2932851 225 5374920 109 18 88 2198
2.0315096 -0.58670843 0.26439124 239 5374920 109 19 83 2131
1.9936682 -0.8216061 0.251975 125 5374920 59 20 98 2171
2.006741 -0.74267191 0.22920315 218 5374920 101 21 86 2152
1.9596378 -0.64550674 0.2011731 234 5374920 101 22 79 2073
1.9376681 -0.56074262 0.17786348 249 5374920 102 23 123 2025
1.9536728 -0.8055625 0.16921031 208 5374920 93 24 53 2120
1.8942292 -0.7015965 0.14242032 232 5374920 95 25 63 2025
1.8752004 -0.61776555 0.12030605 221 5374920 86 26 126 1978
1.8674659 -0.54162794 0.10009952 200 5374920 76 27 112 1947
1.8450229 -0.76181775 0.086768314 238 5374920 95 28 63 1998
1.837623 -0.68135989 0.06641978 228 5374920 88 29 25 1961
1.8613869 -0.61516011 0.048356306 185 5374920 71 30 45 1961
1.7763908 -0.51591903 0.027638009 229 5374920 78 31 87 1850
1.7745876 -0.73284346 0.01340402 203 5374920 75 32 53 1920
1.7193607 -0.63822705 -0.0046413494 197 5374920 66 33 67 1834
1.738325 -0.57472563 -0.021858055 181 5374920 61 34 98 1831
1.7316906 -0.50414956 -0.038693011 191 5374920 62 35 90 1804
1.7411613 -0.72003585 -0.05595376 18 5374920 6 36 145 1885
1.6801233 -0.62506384 -0.070119239 230 5374920 74 37 72 1794
1.7465823 -0.57826734 -0.089563839 215 5374920 73 38 119 1842
1.7684745 -0.51482499 -0.10713791 205 5374920 70 39 67 1845
0 -0 -0 4 5374920 0 40 99 0
1.7136953 -0.63843924 -0.1385643 71 5374920 24 41 89 1834
1.6116313 -0.53408653 -0.14495781 117 5374920 34 42 155 1704
1.6963638 -0.49482846 -0.16768993 83 5374920 26 43 62 1775
1.8292974 -0.75891471 -0.20445256 266 5374920 105 44 113 1991
1.8472053 -0.68902308 -0.22211787 229 5374920 90 45 54 1984
1.8502084 -0.61422515 -0.23822862 252 5374920 97 46 107 1964
1.8643072 -0.54431176 -0.25644657 237 5374920 91 47 131 1959
1.8946025 -0.78786868 -0.28797275 270 5374920 116 48 75 2072
1.9139816 -0.71488267 -0.30655104 228 5374920 97 49 57 2066
1.9405489 -0.64534426 -0.32686722 257 5374920 110 50 64 2071
1.9333186 -0.56504667 -0.34183353 261 5374920 109 51 75 2043
1.180378 -0.49209189 -0.2279353 45 5374920 8 52 97 1299
4.8206534 -1.8033215 -0.96721631 18 5374920 50 53 88 5237
0 -0 -0 4 5374920 0 54 68 0
5.993422 -1.7515702 -1.299917 313 5374920 1274 55 94 6378
1.1939976 -0.49855277 -0.28069744 109 5374920 19 56 98 1324
1.3981819 -0.52386987 -0.3385393 14 5374920 3 57 45 1531
0 -0 -0 8 5374920 0 58 61 0
5.9657917 -1.7440604 -1.5381802 254 5374920 1042 59 95 6403
1.2007128 -0.5030064 -0.33408019 81 5374920 15 60 47 1344
4.82201 -1.8113159 -1.3736521 254 5374920 723 61 59 5331
5.3663421 -1.7887795 -1.5682944 188 5374920 649 62 71 5870
6.0256128 -1.7588093 -1.8107108 186 5374920 796 63 67 6533
2.0618875 -0.86654717 0.69811577 101 5472650 56 0 87 2343
2.3899801 -0.89897716 0.76641518 174 5472650 124 1 114 2666
5.2388768 -1.7489902 1.5992835 147 5472650 487 2 77 5750
5.8708677 -1.7171512 1.7086571 194 5472650 784 3 69 6351
2.4702523 -1.0366993 0.72369492 124 5472650 96 4 93 2775
2.2545917 -0.84917474 0.62517232 158 5472650 98 5 58 2489
2.3614671 -0.78937972 0.62025017 38 5472650 25 6 94 2566
2.4608769 -0.72247899 0.61308903 174 5472650 121 7 163 2637
2.2833734 -0.95775563 0.57060671 146 5472650 94 8 94 2541
2.2477803 -0.84562391 0.52828568 109 5472650 66 9 52 2459
2.3209643 -0.777237 0.51383722 280 5472650 175 10 66 2501
2.2593119 -0.66544443 0.47148484 269 5472650 155 11 60 2402
2.1148212 -0.88666618 0.43997705 116 5472650 63 12 118 2335
2.2586451 -0.85070139 0.43822274 56 5472650 34 13 64 2453
2.1858044 -0.73244178 0.39586711 233 5472650 128 14 94 2339
2.1709971 -0.64000922 0.36743718 260 5472650 137 15 63 2293
2.1364627 -0.89578354 0.35698158 246 5472650 135 16 51 2344
2.1394131 -0.80634797 0.32987189 244 5472650 130 17 89 2310
2.0763681 -0.69702059 0.29488626 247 5472650 121 18 91 2210
2.0278714 -0.59916252 0.26439124 232 5472650 105 19 83 2131
1.966606 -0.82460582 0.24918947 54 5472650 25 20 101 2147
1.9909817 -0.75076115 0.22792506 222 5472650 102 21 108 2140
1.9896021 -0.66893727 0.20466669 241 5472650 107 22 69 2109
1.945653 -0.5760147 0.17891748 255 5472650 106 23 119 2037
1.9486932 -0.8175348 0.16921031 202 5472650 91 24 72 2120
1.8898886 -0.71320605 0.14242032 229 5472650 94 25 61 2025
1.8827277 -0.6330775 0.12103593 236 5472650 93 26 126 1990
1.8641074 -0.55307633 0.10009952 195 5472650 74 27 81 1947
1.8845254 -0.7916978 0.088852838 252 5472650 105 28 37 2046
1.8446269 -0.69686085 0.066826224 197 5472650 77 29 24 1973
1.8348429 -0.61890143 0.047764488 183 5472650 69 30 61 1937
1.7961953 -0.53364331 0.027996555 255 5472650 90 31 70 1874
1.7589947 -0.73907012 0.013320246 177 5472650 65 32 83 1908
1.7378603 -0.65725464 -0.0047020866 185 5472650 64 33 43 1858
1.7575045 -0.59305394 -0.022144562 203 5472650 70 34 96 1855
1.7170664 -0.51134133 -0.038435627 201 5472650 65 35 91 1792
1.9357182 -0.81443655 -0.062365435 14 5472650 6 36 130 2101
1.7659558 -0.6693604 -0.073871441 169 5472650 60 37 57 1890
1.7430012 -0.58897328 -0.089563839 216 5472650 73 38 112 1842
1.7423192 -0.51882851 -0.10574425 222 5472650 74 39 69 1821
0 -0 -0 4 5472650 0 40 93 0
1.6761847 -0.636204 -0.13584439 98 5472650 32 41 99 1798
1.6309762 -0.55162668 -0.14699946 114 5472650 34 42 145 1728
1.6131623 -0.48131844 -0.15975419 69 5472650 20 43 65 1691
1.8356035 -0.77476639 -0.20568481 237 5472650 95 44 91 2003
1.820649 -0.69187242 -0.21943095 234 5472650 90 45 65 1960
1.8351233 -0.62174404 -0.23677304 267 5472650 102 46 119 1952
1.8837308 -0.56254911 -0.25958833 240 5472650 94 47 115 1983
1.9006771 -0.8041091 -0.28964055 214 5472650 93 48 86 2084
1.8984678 -0.7223928 -0.30477053 244 5472650 103 49 69 2054
1.9253316 -0.65343082 -0.32497326 247 5472650 105 50 52 2059
1.9524857 -0.58367574 -0.34584925 268 5472650 115 51 73 2067
1.1012037 -0.46703637 -0.21319585 78 5472650 12 52 74 1215
4.754395 -1.8118672 -0.95613486 11 5472650 30 53 105 5177
0 -0 -0 4 5472650 0 54 75 0
5.8587456 -1.7513011 -1.2730137 316 5472650 1234 55 72 6246
1.1693285 -0.49669978 -0.27560925 66 5472650 11 56 99 1300
1.2637384 -0.48235995 -0.30669761 43 5472650 8 57 69 1387
1.3515162 -0.45944887 -0.33823046 11 5472650 2 58 64 1467
5.865695 -1.7539359 -1.5151184 233 5472650 927 59 105 6307
1.176218 -0.50125068 -0.32811445 76 5472650 13 60 38 1320
4.745831 -1.8160064 -1.3550997 248 5472650 685 61 42 5259
5.2895789 -1.7993288 -1.5490581 189 5472650 637 62 68 5798
5.9042273 -1.7627639 -1.777451 201 5472650 825 63 52 6413
2.3935816 -1.0232737 0.81253165 119 5570420 89 0 86 2727
2.3951516 -0.91773725 0.76986492 191 5570420 137 1 96 2678
5.1516719 -1.7550828 1.57592 193 5570420 621 2 80 5666
5.7273488 -1.7133918 1.6699158 220 5570420 849 3 61 6207
2.5597348 -1.0927733 0.75186038 71 5570420 59 4 90 2883
2.2493386 -0.86299264 0.62517232 155 5570420 96 5 68 2489
5.1117377 -1.7436689 1.3454063 107 5570420 331 6 135 5566
5.7315946 -1.7209852 1.430541 186 5570420 703 7 153 6153
2.3742521 -1.0130503 0.59485918 179 5570420 126 8 96 2649
2.2097182 -0.84681839 0.52055156 83 5570420 49 9 59 2423
2.3494909 -0.80285609 0.5212335 266 5570420 171 10 74 2537
2.2664528 -0.68268842 0.47384027 279 5570420 163 11 59 2414
2.0551393 -0.87650913 0.42867145 150 5570420 78 12 123 2275
2.2423594 -0.86031491 0.436079 176 5570420 105 13 76 2441
2.2036505 -0.75349271 0.39992902 244 5570420 136 14 116 2363
2.1783698 -0.65673715 0.36936009 262 5570420 139 15 73 2305
2.1636536 -0.92283458 0.36246422 273 5570420 154 16 48 2380
2.1011615 -0.80668914 0.32473105 273 5570420 141 17 77 2274
2.1170561 -0.72516316 0.30129105 286 5570420 146 18 98 2258
2.0355554 -0.61503804 0.26588008 230 5570420 106 19 88 2143
2.0821052 -0.8880958 0.26450992 155 5570420 81 20 102 2279
2.0086143 -0.77152002 0.23048122 215 5570420 101 21 99 2164
2.0306482 -0.69663489 0.20932481 225 5570420 105 22 64 2157
1.9420819 -0.58794218 0.17891748 209 5570420 87 23 133 2037
1.9766455 -0.84356183 0.17208371 210 5570420 98 24 71 2156
1.9413428 -0.74626392 0.14664018 238 5570420 104 25 69 2085
1.8561487 -0.6368435 0.11957619 242 5570420 93 26 151 1966
1.8606787 -0.56450385 0.10009952 220 5570420 83 27 112 1947
1.8465594 -0.78911275 0.087289445 252 5570420 102 28 49 2010
1.8291234 -0.70385903 0.06641978 182 5570420 70 29 39 1961
1.7856374 -0.61453271 0.046580859 200 5570420 71 30 40 1889
1.7814065 -0.54116684 0.027817281 232 5570420 81 31 94 1862
1.7985632 -0.7687133 0.013655346 197 5570420 76 32 73 1956
1.7449926 -0.67221934 -0.0047324556 190 5570420 66 33 55 1870
1.742487 -0.59992045 -0.022001307 209 5570420 71 34 110 1843
1.7138965 -0.52186745 -0.038435627 211 5570420 68 35 69 1792
1.6880854 -0.72247052 -0.05452894 14 5570420 5 36 145 1837
1.6946987 -0.65427178 -0.07105729 111 5570420 37 37 52 1818
1.7280232 -0.59575045 -0.088980362 223 5570420 75 38 129 1830
1.739103 -0.52950943 -0.10574425 220 5570420 73 39 77 1821
0 -0 -0 4 5570420 0 40 89 0
1.694571 -0.65510619 -0.13765767 71 5570420 24 41 89 1822
1.6275607 -0.56162381 -0.14699946 111 5570420 33 42 164 1728
1.6101786 -0.49120757 -0.15975419 75 5570420 22 43 74 1691
1.8198466 -0.78130585 -0.20445256 250 5570420 99 44 97 1991
1.8386108 -0.71163923 -0.22211787 257 5570420 101 45 54 1984
1.8537893 -0.64077508 -0.23968418 248 5570420 97 46 112 1976
1.8916218 -0.57757103 -0.26115921 238 5570420 95 47 126 1995
1.6773918 -0.72181123 -0.25628462 24 5570420 8 48 92 1844
1.9271953 -0.74689311 -0.31011218 241 5570420 105 49 54 2090
1.9436809 -0.67298627 -0.32876122 263 5570420 114 50 45 2083
1.9828101 -0.60601908 -0.35187274 255 5570420 113 51 79 2103
1.0983173 -0.47378442 -0.21319585 130 5570420 19 52 88 1215
1.3129205 -0.50959265 -0.26465932 12 5570420 3 53 91 1433
0 -0 -0 0 5570420 0 54 72 0
5.7917137 -1.7700484 -1.260785 233 5570420 893 55 71 6186
1.1339624 -0.48991209 -0.267977 80 5570420 13 56 112 1264
1.2280316 -0.47738421 -0.29873717 64 5570420 12 57 62 1351
0 -0 -0 0 5570420 0 58 63 0
5.7879844 -1.7694609 -1.4978219 224 5570420 872 59 83 6235
1.1517907 -0.49921367 -0.32214874 90 5570420 15 60 37 1296
4.6697779 -1.8198313 -1.3365473 264 5570420 709 61 56 5187
5.1801162 -1.7976309 -1.5202036 194 5570420 629 62 66 5690
5.7940526 -1.7686625 -1.7475175 202 5570420 805 63 68 6305
2.3977628 -1.0425085 0.81610709 58 5668270 44 0 80 2739
2.443011 -0.95330691 0.78711355 198 5668270 149 1 92 2738
5.1081424 -1.7753079 1.565907 129 5668270 410 2 71 5630
5.6725192 -1.7349803 1.657002 235 5668270 893 3 80 6159
2.5317287 -1.0992315 0.74560142 50 5668270 41 4 72 2859
2.3305516 -0.91059512 0.64928502 122 5668270 81 5 49 2585
5.0679502 -1.7635206 1.3367043 259 5668270 793 6 95 5530
5.6428251 -1.7321469 1.4110115 257 5668270 947 7 96 6069
2.3358104 -1.0136342 0.58677506 204 5668270 139 8 83 2613
2.2481518 -0.87740493 0.53086376 103 5668270 63 9 47 2471
2.3445206 -0.81725717 0.5212335 244 5668270 157 10 62 2537
2.2847123 -0.70350772 0.47855124 304 5668270 180 11 52 2438
2.0497227 -0.8891027 0.42867145 165 5668270 85 12 118 2275
2.259033 -0.88265133 0.44036651 268 5668270 163 13 69 2465
2.1543171 -0.75141966 0.39180517 264 5668270 141 14 100 2315
2.1629796 -0.66660249 0.36743718 275 5668270 145 15 58 2293
2.1579504 -0.93609315 0.36246422 244 5668270 139 16 60 2380
2.1182952 -0.8282162 0.32815829 224 5668270 118 17 91 2298
2.0901127 -0.73029399 0.29808867 244 5668270 122 18 74 2234
2.0431204 -0.63103026 0.26736891 246 5668270 114 19 94 2155
2.0984855 -0.9103415 0.26729548 229 5668270 122 20 109 2303
2.0149546 -0.78817672 0.23175931 227 5668270 108 21 76 2176
1.9586971 -0.6854127 0.20233761 234 5668270 102 22 68 2085
1.915599 -0.59277999 0.17680946 232 5668270 94 23 130 2013
1.9714322 -0.85567445 0.17208371 131 5668270 61 24 78 2156
1.9032874 -0.74507117 0.14410825 221 5668270 93 25 70 2049
1.8861225 -0.66009039 0.12176578 260 5668270 104 26 123 2002
1.9029655 -0.59010822 0.1025673 202 5668270 80 27 93 1995
1.8746681 -0.8147642 0.088852838 237 5668270 99 28 62 2046
1.8471029 -0.72382057 0.067232668 194 5668270 76 29 37 1985
1.8157908 -0.63739777 0.04746858 206 5668270 76 30 49 1925
1.7895113 -0.55564523 0.027996555 225 5668270 79 31 86 1874
1.8158226 -0.78930193 0.013822896 184 5668270 72 32 87 1980
1.7631773 -0.6916784 -0.0047931927 182 5668270 65 33 67 1894
1.7500945 -0.61457658 -0.022144562 169 5668270 58 34 84 1855
1.6992068 -0.52880889 -0.038178246 206 5668270 65 35 79 1780
0 -0 -0 8 5668270 0 36 129 0
0 -0 -0 8 5668270 0 37 93 0
1.7469494 -0.61429423 -0.090147316 225 5668270 77 38 126 1854
1.7243826 -0.53661078 -0.10504742 213 5668270 70 39 76 1809
0 -0 -0 4 5668270 0 40 108 0
1.612581 -0.63481027 -0.13131121 55 5668270 17 41 125 1738
1.6240841 -0.57159972 -0.14699946 128 5668270 38 42 170 1728
1.6755635 -0.52241331 -0.16655627 71 5668270 22 43 69 1763
1.8587756 -0.81156242 -0.2093816 253 5668270 105 44 88 2039
1.8896798 -0.74476945 -0.22883515 229 5668270 95 45 57 2044
1.8610564 -0.65609801 -0.24113975 240 5668270 95 46 124 1988
1.8539723 -0.57853538 -0.25644657 256 5668270 98 47 137 1959
1.1830273 -0.51770347 -0.18123381 31 5668270 5 48 105 1304
1.9004986 -0.74999166 -0.30655104 238 5668270 102 49 63 2066
1.9283415 -0.6809541 -0.32686722 258 5668270 111 50 67 2071
1.900005 -0.59348226 -0.33781788 235 5668270 96 51 87 2019
1.1170269 -0.49000633 -0.21740712 98 5668270 15 52 88 1239
1.1891203 -0.46995696 -0.24028039 44 5668270 7 53 97 1301
0 -0 -0 8 5668270 0 54 84 0
5.735889 -1.7915423 -1.251002 60 5668270 228 55 67 6138
1.1631452 -0.51101184 -0.27560925 80 5668270 14 56 109 1300
1.15979 -0.45906752 -0.28281632 61 5668270 10 57 77 1279
0 -0 -0 0 5668270 0 58 51 0
5.6769514 -1.7736776 -1.4718773 245 5668270 921 59 84 6127
1.1380699 -0.50158381 -0.31916589 99 5668270 16 60 33 1284
4.6261916 -1.8356211 -1.327271 253 5668270 670 61 52 5151
5.1144829 -1.8100911 -1.5041733 236 5668270 750 62 60 5630
5.7060442 -1.7801441 -1.7242357 155 5668270 601 63 72 6221
2.4960887 -1.1035191 0.85186213 36 5765640 30 0 78 2859
2.3730278 -0.94281662 0.76641518 197 5765640 140 1 93 2666
2.3810859 -0.84394383 0.7314983 66 5765640 45 2 49 2630
5.4962983 -1.7180315 1.6085752 182 5765640 652 3 65 5979
2.620317 -1.1568552 0.77376682 34 5765640 30 4 89 2967
2.0874817 -0.8304224 0.58297509 124 5765640 67 5 57 2321
4.969245 -1.7634301 1.3134993 243 5765640 718 6 113 5434
5.52073 -1.731805 1.3831121 225 5765640 797 7 80 5949
2.37234 -1.0468304 0.59755391 89 5765640 63 8 115 2661
2.1773772 -0.86521554 0.51539546 120 5765640 69 9 72 2399
2.3394618 -0.83162749 0.5212335 90 5765640 58 10 63 2537
2.2579045 -0.71044987 0.47384027 269 5765640 157 11 45 2414
2.0010974 -0.88263869 0.41962692 193 5765640 96 12 134 2227
2.275516 -0.90522438 0.44465405 231 5765640 143 13 70 2489
2.183095 -0.77651465 0.39789805 256 5765640 142 14 100 2351
2.1475508 -0.6763038 0.36551425 265 5765640 138 15 78 2281
1.978546 -0.872733 0.33322343 125 5765640 60 16 49 2188
2.1683476 -0.86316162 0.33672637 66 5765640 37 17 93 2358
2.0743895 -0.73911327 0.29648745 230 5765640 114 18 87 2222
2.0619204 -0.65072191 0.27034655 243 5765640 115 19 98 2179
2.0819552 -0.91838998 0.2659027 212 5765640 111 20 107 2291
2.0322504 -0.80935472 0.23431547 245 5765640 119 21 107 2200
2.0219464 -0.72150165 0.20932481 233 5765640 109 22 75 2157
1.9575156 -0.61893761 0.18102549 268 5765640 114 23 142 2061
1.9661448 -0.86775482 0.17208371 42 5765640 20 24 86 2156
1.9097996 -0.76116741 0.14495224 241 5765640 102 25 96 2061
1.836913 -0.65554744 0.11884633 207 5765640 79 26 132 1954
1.8421867 -0.58367503 0.099482566 230 5765640 86 27 114 1935
1.8148056 -0.80202138 0.086247183 251 5765640 99 28 51 1986
1.8537661 -0.73958474 0.067639112 194 5765640 77 29 23 1997
1.8457295 -0.66065556 0.048356306 201 5765640 77 30 39 1961
1.7631944 -0.55935848 0.027638009 226 5765640 77 31 75 1850
1.7889946 -0.7907266 0.013655346 204 5765640 78 32 71 1956
1.7700442 -0.70693487 -0.0048235618 160 5765640 58 33 73 1906
1.7575873 -0.62934846 -0.022287816 175 5765640 61 34 79 1867
1.7073634 -0.54286027 -0.038435627 186 5765640 60 35 62 1792
0 -0 -0 8 5765640 0 36 130 0
1.3971026 -0.55917418 -0.058862638 10 5765640 2 37 76 1506
1.7318648 -0.62095648 -0.089563839 228 5765640 77 38 121 1842
1.7553073 -0.55807048 -0.10713791 227 5765640 77 39 67 1845
0 -0 -0 4 5765640 0 40 102 0
0 -0 -0 7 5765640 0 41 96 0
1.6318001 -0.58559281 -0.1480203 128 5765640 39 42 144 1740
1.695092 -0.53993601 -0.16882361 73 5765640 23 43 70 1787
1.8319414 -0.81326586 -0.20691708 223 5765640 91 44 105 2015
1.8740073 -0.75190985 -0.22749169 206 5765640 85 45 55 2032
1.8682048 -0.67153412 -0.24259531 254 5765640 102 46 116 2000
1.8843917 -0.60074067 -0.26115921 245 5765640 97 47 131 1995
1.0712552 -0.47664416 -0.16455585 32 5765640 5 48 103 1184
1.9068727 -0.76606268 -0.30833161 228 5765640 99 49 64 2078
1.9241269 -0.69277334 -0.32686722 280 5765640 120 50 50 2071
1.9752241 -0.63030559 -0.35187274 236 5765640 105 51 81 2103
1.1571566 -0.51609951 -0.22582968 83 5765640 14 52 74 1287
1.219038 -0.49045023 -0.24692917 77 5765640 14 53 85 1337
1.4627787 -0.52718616 -0.3075358 10 5765640 3 54 73 1585
0 -0 -0 6 5765640 0 55 59 0
1.1492802 -0.51335633 -0.27306518 83 5765640 14 56 117 1288
1.2329358 -0.4967919 -0.30139065 87 5765640 16 57 62 1363
0 -0 -0 8 5765640 0 58 49 0
5.5993791 -1.7872255 -1.4545809 202 5765640 742 59 73 6055
1.0713274 -0.48004022 -0.30126873 87 5765640 13 60 33 1212
4.5288339 -1.8292333 -1.3025345 248 5765640 635 61 66 5055
5.005384 -1.8061148 -1.4753189 232 5765640 706 62 56 5522
5.5961456 -1.7836108 -1.694302 198 5765640 738 63 46 6113
2.5415113 -1.1422938 0.86973959 32 5863170 28 0 81 2919
2.3458881 -0.94874108 0.7595157 127 5863170 89 1 88 2642
2.3758626 -0.85853803 0.7314983 103 5863170 71 2 45 2630
2.4799666 -0.79192334 0.72720838 40 5863170 29 3 95 2703
2.3912218 -1.0732909 0.70804751 17 5863170 13 4 90 2715
2.3192017 -0.93912601 0.64928502 107 5863170 71 5 52 2585
4.848835 -1.7542728 1.2844931 103 5863170 290 6 152 5314
5.4210839 -1.7371542 1.3607925 250 5863170 858 7 78 5853
2.4512248 -1.0996578 0.61911172 39 5863170 30 8 93 2757
2.1177042 -0.85658628 0.50250518 130 5863170 71 9 43 2339
2.3563974 -0.85396934 0.52616435 77 5863170 50 10 49 2561
2.2647049 -0.72789121 0.47619575 263 5863170 155 11 46 2426
2.0063975 -0.8997227 0.42188808 152 5863170 76 12 126 2239
2.2808626 -0.92360121 0.44679785 242 5863170 152 13 65 2501
2.200526 -0.79795879 0.40195996 257 5863170 145 14 108 2375
2.1433606 -0.6894682 0.36551425 282 5863170 147 15 68 2281
2.0164404 -0.9042685 0.34053361 136 5863170 68 16 67 2236
2.1960337 -0.88983101 0.34186724 102 5863170 59 17 84 2394
2.0921714 -0.75994807 0.29968983 228 5863170 115 18 88 2246
2.0352228 -0.65605497 0.26736891 246 5863170 114 19 81 2155
2.0545301 -0.92139286 0.26311716 180 5863170 93 20 115 2267
2.0383039 -0.82629174 0.23559357 230 5863170 113 21 100 2212
1.9389148 -0.70531452 0.2011731 239 5863170 103 22 83 2073
1.9650563 -0.63461065 0.18207951 246 5863170 106 23 152 2073
1.9935237 -0.8944931 0.17495708 113 5863170 54 24 83 2192
1.9050932 -0.77287138 0.14495224 225 5863170 96 25 77 2061
1.9003922 -0.69137633 0.12322551 209 5863170 86 26 126 2026
1.8841786 -0.60972637 0.10195035 223 5863170 88 27 116 1983
1.8645285 -0.83770788 0.088852838 265 5863170 111 28 66 2046
1.8158578 -0.73740798 0.06641978 187 5863170 72 29 39 1961
1.8303714 -0.66785634 0.048060399 180 5863170 68 30 50 1949
1.8168014 -0.58865857 0.028534375 241 5863170 88 31 88 1910
1.784109 -0.80168873 0.013655346 172 5863170 66 32 88 1956
1.7323236 -0.70422506 -0.0047324556 202 5863170 71 33 48 1870
1.7424209 -0.63600665 -0.022144562 168 5863170 58 34 90 1855
1.7040002 -0.55332625 -0.038435627 204 5863170 66 35 80 1792
0 -0 -0 11 5863170 0 36 145 0
0 -0 -0 0 5863170 0 37 88 0
1.750537 -0.63980019 -0.090730794 237 5863170 82 38 123 1866
1.75185 -0.56883031 -0.10713791 242 5863170 83 39 67 1845
0 -0 -0 0 5863170 0 40 99 0
0 -0 -0 0 5863170 0 41 101 0
1.6506338 -0.60380936 -0.15006195 93 5863170 29 42 142 1764
1.6463057 -0.53554463 -0.16428891 73 5863170 22 43 61 1739
1.8486766 -0.83431137 -0.2093816 235 5863170 98 44 102 2039
1.8693584 -0.76339442 -0.22749169 206 5863170 85 45 62 2032
1.886418 -0.69118041 -0.24550648 242 5863170 99 46 125 2024
1.8806702 -0.61229175 -0.26115921 237 5863170 94 47 141 1995
1.1007929 -0.49790043 -0.16955924 39 5863170 6 48 87 1220
1.9460742 -0.79571396 -0.31545383 240 5863170 109 49 60 2126
1.9532123 -0.71681398 -0.33254912 263 5863170 117 50 68 2107
1.9713194 -0.64241344 -0.35187274 268 5863170 119 51 94 2103
1.1216893 -0.50855529 -0.21951276 64 5863170 10 52 106 1251
1.1396074 -0.46663791 -0.2314153 91 5863170 14 53 93 1253
0 -0 -0 9 5863170 0 54 54 0
1.4911994 -0.48592317 -0.32650784 11 5863170 3 55 69 1602
1.0927185 -0.49615633 -0.26034474 70 5863170 11 56 100 1228
1.1540693 -0.47326538 -0.28281632 93 5863170 15 57 60 1279
1.3069544 -0.48039299 -0.32993034 13 5863170 3 58 65 1431
5.5107818 -1.7962788 -1.4344016 54 5863170 194 59 78 5971
1.1529846 -0.52514768 -0.3251316 84 5863170 14 60 41 1308
4.4424562 -1.8261293 -1.28089 201 5863170 498 61 66 4971
4.9290895 -1.8128438 -1.4560826 215 5863170 640 62 64 5450
5.4644957 -1.7786597 -1.6577164 172 5863170 617 63 73 5981
2.5240352 -1.1531067 0.86616409 25 5961210 21 0 83 2907
2.1168258 -0.87125295 0.68707132 95 5961210 54 1 97 2390
2.4246309 -0.89301848 0.74818647 123 5961210 89 2 41 2690
2.4530847 -0.79995877 0.72075146 90 5961210 65 3 96 2679
2.5321457 -1.1552632 0.75186038 23 5961210 19 4 92 2883
2.4852226 -1.0241476 0.69751054 126 5961210 98 5 60 2777
2.3252165 -0.85741717 0.61734951 82 5961210 54 6 114 2554
5.2993989 -1.7340878 1.3328931 279 5961210 918 7 85 5733
2.4337919 -1.1098258 0.61641693 24 5961210 18 8 101 2745
2.1232457 -0.87402529 0.5050832 136 5961210 75 9 48 2351
2.3290803 -0.86027366 0.5212335 253 5961210 163 10 70 2537
2.2937357 -0.75278085 0.48326215 282 5961210 171 11 45 2462
2.1938634 -1.0000006 0.46258831 181 5961210 109 12 114 2455
2.25332 -0.92858177 0.44251031 241 5961210 148 13 79 2477
2.2177756 -0.81964588 0.40602189 245 5961210 141 14 99 2399
2.1841033 -0.71739179 0.3732059 299 5961210 162 15 68 2329
1.9892706 -0.90678561 0.33687851 142 5961210 70 16 67 2212
2.1466122 -0.88517785 0.33501276 247 5961210 136 17 92 2346
2.132081 -0.78928626 0.30609462 239 5961210 126 18 81 2294
2.0650902 -0.67969853 0.27183539 239 5961210 115 19 92 2191
2.0596831 -0.93892568 0.26450992 100 5961210 52 20 103 2279
2.0331953 -0.83878297 0.23559357 228 5961210 112 21 89 2212
1.9793447 -0.73380476 0.20583121 230 5961210 104 22 81 2121
1.949773 -0.64291275 0.18102549 239 5961210 102 23 122 2061
1.9662313 -0.89678085 0.17304151 247 5961210 116 24 57 2168
1.9113796 -0.78911424 0.14579621 202 5961210 87 25 61 2073
1.8848836 -0.69885993 0.12249566 224 5961210 91 26 141 2014
1.880402 -0.62127596 0.10195035 214 5961210 84 27 104 1983
1.8593533 -0.84913266 0.088852838 193 5961210 81 28 47 2046
1.8445507 -0.7622776 0.067639112 220 5961210 88 29 19 1997
1.8149948 -0.67489362 0.047764488 166 5961210 62 30 48 1937
1.7789806 -0.58849013 0.027996555 236 5961210 83 31 77 1874
1.8009865 -0.8225916 0.013822896 188 5961210 74 32 82 1980
1.7612357 -0.72860277 -0.0048235618 184 5961210 67 33 44 1906
1.7834707 -0.6634196 -0.022717575 157 5961210 57 34 74 1903
1.7005731 -0.56377137 -0.038435627 183 5961210 59 35 62 1792
1.6480305 -0.7537033 -0.053816531 13 5961210 4 36 133 1813
0 -0 -0 4 5961210 0 37 72 0
1.7353463 -0.64634579 -0.090147316 211 5961210 72 38 134 1854
1.7369556 -0.57579923 -0.10644108 222 5961210 75 39 87 1833
0 -0 -0 6 5961210 0 40 96 0
0 -0 -0 0 5961210 0 41 101 0
1.6132877 -0.60139698 -0.14699946 102 5961210 30 42 142 1728
1.6316512 -0.54187089 -0.16315523 120 5961210 36 43 68 1727
1.8652219 -0.85559255 -0.21184613 237 5961210 101 44 100 2063
1.8756508 -0.7794261 -0.22883515 221 5961210 92 45 55 2044
1.8709825 -0.69857574 -0.24405089 256 5961210 104 46 131 2012
1.8542987 -0.61631519 -0.25801745 217 5961210 84 47 128 1971
0.92496157 -0.42522576 -0.14287451 27 5961210 3 48 83 1028
1.7329786 -0.72102559 -0.28162339 236 5961210 85 49 72 1898
1.9487772 -0.72878516 -0.33254912 242 5961210 108 50 58 2107
1.9897922 -0.66196644 -0.3558884 275 5961210 125 51 67 2127
1.0756298 -0.49565163 -0.21109021 71 5961210 10 52 98 1203
1.2129276 -0.50537276 -0.24692917 54 5961210 10 53 85 1337
1.3459507 -0.50382787 -0.28425235 13 5961210 3 54 72 1465
0 -0 -0 5 5961210 0 55 59 0
1.1322458 -0.52250719 -0.27052107 79 5961210 13 56 128 1276
1.1511437 -0.48033771 -0.28281632 70 5961210 11 57 52 1279
1.3039821 -0.48840329 -0.32993034 22 5961210 4 58 51 1431
0 -0 -0 0 5961210 0 59 82 0
1.0864522 -0.50291628 -0.30723447 72 5961210 11 60 35 1236
1.1044492 -0.46194023 -0.31925622 37 5961210 6 61 86 1239
4.8529034 -1.8187053 -1.4368463 218 5961210 631 62 77 5378
5.3987713 -1.7939767 -1.6410866 172 5961210 604 63 69 5921
2.5480816 -1.1830436 0.87689054 18 6060690 16 0 97 2943
2.2810619 -0.95525914 0.74226701 130 6060690 87 1 101 2582
2.4622722 -0.92407906 0.76153702 119 6060690 89 2 53 2738
5.2115288 -1.7349457 1.5343208 245 6060690 798 3 65 5703
2.6721485 -1.2390028 0.79567325 19 6060690 18 4 97 3051
2.4467561 -1.0259033 0.68846822 152 6060690 114 5 51 2741
2.2545109 -0.84709501 0.59994578 135 6060690 83 6 90 2482
5.3329387 -1.7813624 1.3440529 106 6060690 355 7 92 5781
2.4905937 -1.1542398 0.63258529 17 6060690 14 8 79 2817
2.0962229 -0.8779816 0.49992713 110 6060690 59 9 51 2327
2.3237579 -0.87454844 0.5212335 188 6060690 121 10 63 2537
2.2890735 -0.76684076 0.48326215 260 6060690 158 11 59 2462
2.241153 -1.0382115 0.47389394 197 6060690 125 12 101 2515
2.1604712 -0.90586656 0.42536008 135 6060690 77 13 61 2381
2.1795001 -0.82073468 0.39992902 125 6060690 70 14 114 2363
2.1571994 -0.72324914 0.36936009 281 6060690 149 15 75 2305
1.9621466 -0.90900367 0.33322343 149 6060690 71 16 46 2188
2.1301882 -0.89373749 0.33329913 242 6060690 132 17 80 2334
2.1049433 -0.79395938 0.30289224 237 6060690 122 18 84 2270
2.0270188 -0.68098092 0.26736891 225 6060690 105 19 95 2155
1.902478 -0.88140136 0.24501115 89 6060690 40 20 86 2111
2.0170085 -0.84662467 0.23431547 74 6060690 36 21 109 2200
2.0083234 -0.75859684 0.20932481 230 6060690 107 22 99 2157
1.9457914 -0.65486425 0.18102549 240 6060690 102 23 116 2061
1.9389865 -0.89876765 0.1711259 238 6060690 110 24 86 2144
1.9175378 -0.80546308 0.14664018 222 6060690 97 25 73 2085
1.9029698 -0.71887785 0.12395538 210 6060690 87 26 132 2038
1.8879104 -0.63663161 0.1025673 226 6060690 90 27 97 1995
1.8323592 -0.85043132 0.087810576 78 6060690 32 28 55 2022
1.8508943 -0.77822965 0.068045557 198 6060690 80 29 31 2009
1.8332562 -0.69451749 0.048356306 166 6060690 64 30 55 1961
1.7753361 -0.59939468 0.027996555 241 6060690 85 31 70 1874
1.8394424 -0.85383588 0.014157997 173 6060690 71 32 66 2028
1.7456716 -0.73474061 -0.0047931927 195 6060690 70 33 79 1894
1.7793665 -0.67435032 -0.022717575 171 6060690 62 34 105 1903
1.7539037 -0.59342062 -0.039722536 215 6060690 74 35 63 1852
1.6651294 -0.77391219 -0.05452894 11 6060690 4 36 132 1837
0 -0 -0 4 6060690 0 37 68 0
1.7761723 -0.67399073 -0.092481226 158 6060690 57 38 110 1902
1.722042 -0.58260691 -0.10574425 231 6060690 77 39 74 1821
0 -0 -0 4 6060690 0 40 108 0
0 -0 -0 3 6060690 0 41 92 0
1.6207448 -0.61552966 -0.1480203 86 6060690 26 42 157 1740
1.6509238 -0.55954164 -0.16542257 77 6060690 23 43 57 1751
1.8707556 -0.87206447 -0.21307838 240 6060690 103 44 114 2075
1.8598496 -0.78627682 -0.22749169 189 6060690 78 45 51 2032
1.8443944 -0.70157301 -0.24113975 244 6060690 97 46 102 1988
1.884281 -0.63914591 -0.26273012 238 6060690 96 47 112 2007
1.0946 -0.51137137 -0.16955924 49 6060690 7 48 94 1220
1.4443812 -0.61137491 -0.23532914 94 6060690 24 49 82 1586
1.9221225 -0.73229158 -0.32876122 274 6060690 119 50 73 2083
1.9744902 -0.67035961 -0.35388055 246 6060690 110 51 72 2115
1.0511705 -0.49222243 -0.20687893 77 6060690 11 52 103 1179
1.122937 -0.4759849 -0.22919904 101 6060690 16 53 92 1241
0 -0 -0 4 6060690 0 54 69 0
0 -0 -0 0 6060690 0 55 58 0
1.1077831 -0.51948655 -0.26543292 72 6060690 11 56 100 1252
1.1050845 -0.46910045 -0.2722024 87 6060690 13 57 58 1231
1.2136846 -0.463094 -0.30779663 59 6060690 11 58 68 1335
0 -0 -0 5 6060690 0 59 62 0
1.0307562 -0.48483658 -0.29232013 88 6060690 12 60 31 1176
1.1442707 -0.48686647 -0.33162451 87 6060690 14 61 42 1287
4.7552266 -1.8154522 -1.4111978 240 6060690 671 62 63 5282
5.2784705 -1.79004 -1.6078268 188 6060690 631 63 44 5801
2.6754539 -1.2621934 0.92337203 13 6157440 13 0 81 3099
2.380897 -1.0142834 0.77676433 120 6157440 88 1 85 2702
2.4350228 -0.93093759 0.75486177 133 6157440 98 2 61 2714
5.146069 -1.7483013 1.5181786 287 6157440 913 3 54 5643
2.6120968 -1.2306876 0.78002578 16 6157440 14 4 96 2991
2.5045197 -1.0682391 0.7065528 54 6157440 42 5 56 2813
2.2166464 -0.84842545 0.59124392 151 6157440 90 6 115 2446
2.2950211 -0.78229189 0.57960975 39 6157440 24 7 70 2493
0 -0 0 9 6157440 0 8 103 0
2.155488 -0.91839045 0.51539546 107 6157440 62 9 74 2399
2.3512454 -0.90140224 0.52862978 163 6157440 108 10 77 2573
2.2954593 -0.78467786 0.48561761 289 6157440 177 11 74 2474
2.2240777 -1.0469241 0.47163278 83 6157440 52 12 117 2503
2.0136878 -0.85888731 0.39749107 129 6157440 64 13 68 2225
2.1744232 -0.83409238 0.39992902 83 6157440 46 14 94 2363
2.1863427 -0.74797428 0.37512884 272 6157440 149 15 67 2341
1.9028794 -0.89576936 0.32408565 147 6157440 66 16 53 2128
2.1355879 -0.91145343 0.33501276 235 6157440 129 17 91 2346
2.1111333 -0.8111254 0.30449343 260 6157440 136 18 73 2282
2.0565937 -0.70498919 0.27183539 218 6157440 105 19 75 2191
1.9293852 -0.90828794 0.24918947 64 6157440 30 20 84 2147
2.0008025 -0.85429955 0.23303741 60 6157440 29 21 99 2188
1.9701908 -0.75803906 0.20583121 224 6157440 101 22 79 2121
1.9643477 -0.67455572 0.1831335 236 6157440 103 23 147 2085
1.9550784 -0.92084199 0.17304151 216 6157440 102 24 71 2168
1.9235671 -0.82191712 0.14748415 215 6157440 95 25 91 2097
1.8761656 -0.72193772 0.12249566 222 6157440 90 26 138 2014
1.8839686 -0.64820361 0.1025673 229 6157440 91 27 100 1995
1.8921667 -0.89234066 0.090937361 103 6157440 45 28 59 2094
1.8571113 -0.7942881 0.068452008 193 6157440 79 29 21 2021
1.8177683 -0.70143437 0.048060399 188 6157440 71 30 46 1949
1.7943139 -0.61809236 0.028355101 228 6157440 82 31 82 1898
1.8233156 -0.85998738 0.014074221 200 6157440 81 32 86 2016
1.752162 -0.75016099 -0.0048235618 187 6157440 68 33 53 1906
1.741613 -0.67229229 -0.022287816 179 6157440 63 34 85 1867
1.738889 -0.60025644 -0.039465152 209 6157440 71 35 92 1840
1.5844271 -0.74825972 -0.052035511 17 6157440 5 36 130 1753
0 -0 -0 0 6157440 0 37 62 0
1.6378454 -0.63302463 -0.085479498 19 6157440 6 38 93 1758
1.7297589 -0.59707099 -0.10644108 212 6157440 71 39 79 1833
0 -0 -0 4 6157440 0 40 91 0
0 -0 -0 9 6157440 0 41 94 0
1.6169374 -0.62546277 -0.1480203 86 6157440 26 42 138 1740
1.6926212 -0.58527708 -0.1699573 74 6157440 24 43 50 1799
1.8653694 -0.88352674 -0.21307838 260 6157440 112 44 100 2075
1.8111714 -0.77883118 -0.22211787 85 6157440 34 45 70 1984
1.8844829 -0.73008913 -0.24696203 252 6157440 104 46 120 2036
1.8578385 -0.64291441 -0.25958833 217 6157440 85 47 152 1983
1.1451192 -0.54355735 -0.17789823 50 6157440 8 48 88 1280
1.2444047 -0.53575635 -0.20327927 23 6157440 4 49 49 1370
1.9396873 -0.75264478 -0.33254912 278 6157440 124 50 60 2107
1.9591607 -0.67859018 -0.35187274 259 6157440 115 51 78 2103
1.1228063 -0.53419119 -0.22161838 64 6157440 10 52 67 1263
1.1199952 -0.48286617 -0.22919904 122 6157440 19 53 75 1241
1.0982523 -0.42654505 -0.23302872 22 6157440 3 54 83 1201
0 -0 -0 0 6157440 0 55 60 0
1.0939877 -0.5212298 -0.26288882 65 6157440 10 56 103 1240
1.123674 -0.4851501 -0.27750936 72 6157440 11 57 64 1255
1.2870067 -0.50013882 -0.32716361 37 6157440 7 58 52 1419
0 -0 -0 5 6157440 0 59 96 0
1.1221483 -0.53625786 -0.31916589 74 6157440 12 60 33 1284
1.1625441 -0.5030883 -0.33780864 104 6157440 18 61 40 1311
4.6901088 -1.8236421 -1.3951675 254 6157440 694 62 73 5222
5.1475301 -1.7809265 -1.5712413 194 6157440 625 63 65 5669
2.5127125 -1.2043215 0.86973959 10 6254620 9 0 85 2919
2.4484513 -1.0608588 0.80091244 58 6254620 45 1 92 2786
2.4292648 -0.9458611 0.75486177 134 6254620 98 2 56 2714
5.0697231 -1.7571348 1.4988079 237 6254620 736 3 86 5571
2.6567428 -1.2717009 0.79567325 10 6254620 10 4 86 3051
2.5192297 -1.0928314 0.71258092 46 6254620 37 5 51 2837
2.2113988 -0.86201054 0.59124392 99 6254620 59 6 92 2446
5.0791788 -1.7661732 1.2854642 183 6254620 560 7 96 5529
0 -0 0 7 6254620 0 8 87 0
2.3541296 -1.0201378 0.56437838 117 6254620 80 9 48 2627
2.3894291 -0.93289691 0.53849149 231 6254620 159 10 73 2621
2.2794909 -0.79487348 0.48326215 267 6254620 162 11 43 2462
2.270771 -1.085974 0.48293844 49 6254620 32 12 103 2563
2.0517068 -0.89002186 0.40606615 164 6254620 85 13 66 2273
2.1251998 -0.8302049 0.39180517 78 6254620 42 14 109 2315
2.1705284 -0.75747246 0.3732059 239 6254620 130 15 63 2329
1.9936411 -0.95348203 0.34053361 128 6254620 64 16 52 2236
2.1626399 -0.93872732 0.34015363 253 6254620 144 17 98 2382
2.0728912 -0.81106365 0.29968983 237 6254620 120 18 85 2246
2.0747092 -0.7254554 0.27481306 245 6254620 120 19 107 2215
1.8807664 -0.8995387 0.24361841 131 6254620 58 20 71 2099
2.0502448 -0.89032322 0.23942782 218 6254620 110 21 94 2248
1.987743 -0.77882791 0.2081603 216 6254620 100 22 73 2145
1.9488903 -0.68264443 0.18207951 242 6254620 104 23 130 2073
1.9493915 -0.9328208 0.17304151 262 6254620 123 24 82 2168
1.9075091 -0.82893354 0.14664018 206 6254620 90 25 81 2085
1.8493962 -0.72469598 0.12103593 209 6254620 83 26 123 1990
1.8460318 -0.64784592 0.10071646 243 6254620 93 27 92 1959
1.8650323 -0.89357376 0.089895107 261 6254620 112 28 49 2070
1.8302071 -0.79610062 0.067639112 197 6254620 78 29 32 1997
1.8469261 -0.72573674 0.048948124 166 6254620 65 30 50 1985
1.7791672 -0.62511301 0.028175827 247 6254620 88 31 77 1886
1.7747186 -0.85041696 0.01373912 182 6254620 71 32 68 1968
1.7915351 -0.78006011 -0.0049450365 190 6254620 72 33 41 1954
1.7151203 -0.67418653 -0.022001307 172 6254620 59 34 96 1843
1.7464895 -0.61489904 -0.039722536 220 6254620 76 35 89 1852
1.5906204 -0.76315606 -0.052391715 15 6254620 5 36 145 1765
0 -0 -0 2 6254620 0 37 63 0
0 -0 -0 0 6254620 0 38 90 0
1.7373626 -0.61165154 -0.10713791 210 6254620 72 39 81 1845
0 -0 -0 3 6254620 0 40 94 0
0 -0 -0 7 6254620 0 41 102 0
1.6686922 -0.6572817 -0.15312444 55 6254620 18 42 143 1800
1.6326669 -0.5757857 -0.16428891 62 6254620 19 43 56 1739
1.8276447 -0.87942886 -0.2093816 235 6254620 98 44 100 2039
1.7517308 -0.76604068 -0.21540061 49 6254620 18 45 79 1924
1.8356463 -0.72415376 -0.24113975 246 6254620 97 46 127 1988
1.8762959 -0.66222078 -0.26273012 240 6254620 97 47 131 2007
1.0775383 -0.51960367 -0.16789144 53 6254620 8 48 87 1208
1.0889013 -0.47674808 -0.17835158 38 6254620 6 49 58 1202
1.9680943 -0.77759504 -0.33823103 250 6254620 115 50 71 2143
1.9549601 -0.69059855 -0.35187274 238 6254620 105 51 72 2103
1.0663242 -0.51536649 -0.21109021 68 6254620 10 52 102 1203
1.1386135 -0.49920025 -0.23363158 72 6254620 12 53 83 1265
1.2160317 -0.48089641 -0.25864053 92 6254620 16 54 90 1333
0 -0 -0 8 6254620 0 55 59 0
1.143548 -0.5534777 -0.27560925 59 6254620 10 56 125 1300
1.1421072 -0.50144511 -0.28281632 73 6254620 12 57 52 1279
1.2404832 -0.49084154 -0.31609675 47 6254620 9 58 60 1371
0 -0 -0 8 6254620 0 59 91 0
1.0770111 -0.52282912 -0.30723447 73 6254620 11 60 40 1236
1.1806606 -0.51955229 -0.34399277 84 6254620 15 61 26 1335
4.625072 -1.8311021 -1.3791373 230 6254620 614 62 74 5162
5.0930142 -1.7971312 -1.5579374 203 6254620 643 63 70 5621
0 -0 0 4 6352810 0 0 84 0
2.4734495 -1.0897644 0.81126159 43 6352810 34 1 92 2822
2.4127002 -0.95650095 0.75152409 112 6352810 81 2 56 2702
2.3891265 -0.84451222 0.70783764 46 6352810 32 3 83 2631
2.4926131 -1.2119914 0.74873084 11 6352810 9 4 83 2871
2.6293771 -1.159834 0.74573594 36 6352810 31 5 34 2969
2.2493598 -0.8927452 0.60284644 101 6352810 63 6 122 2494
4.9802461 -1.7660986 1.2631446 305 6352810 901 7 80 5433
2.2585807 -1.097661 0.57869089 11 6352810 8 8 79 2577
2.3585505 -1.0392891 0.56695646 104 6352810 72 9 54 2639
2.2526999 -0.89548194 0.50890636 140 6352810 86 10 73 2477
2.2967436 -0.81672996 0.48797306 233 6352810 144 11 52 2486
2.3382673 -1.1359344 0.49876627 34 6352810 24 12 110 2647
2.0029964 -0.88353372 0.39749107 188 6352810 93 13 68 2225
2.1530342 -0.85634214 0.39789805 86 6352810 48 14 91 2351
2.1769993 -0.77474773 0.37512884 248 6352810 136 15 63 2341
1.8704082 -0.90868795 0.32043055 81 6352810 36 16 49 2104
2.1025107 -0.92799997 0.3315855 197 6352810 106 17 96 2322
2.0678756 -0.82376742 0.29968983 176 6352810 89 18 93 2246
2.0365717 -0.72617453 0.27034655 227 6352810 108 19 88 2179
1.9073731 -0.92668748 0.24779668 121 6352810 55 20 76 2135
2.0119982 -0.8884275 0.23559357 214 6352810 105 21 109 2212
2.0494864 -0.81756109 0.21514747 252 6352810 124 22 85 2217
1.955922 -0.69861048 0.1831335 251 6352810 109 23 125 2085
1.8898404 -0.91861778 0.16825251 114 6352810 51 24 89 2108
1.97903 -0.87448907 0.15254799 106 6352810 50 25 86 2169
1.9116654 -0.76266026 0.1254151 237 6352810 101 26 132 2062
1.8758723 -0.67127401 0.1025673 220 6352810 88 27 105 1995
1.8918537 -0.92073971 0.091458499 261 6352810 116 28 59 2106
1.8472244 -0.81701791 0.068452008 185 6352810 75 29 41 2021
1.8201618 -0.72814411 0.048356306 175 6352810 67 30 47 1961
1.7978895 -0.64411157 0.028534375 207 6352810 76 31 61 1910
1.834204 -0.89280111 0.014241773 43 6352810 18 32 104 2040
1.7537971 -0.77646416 -0.0048539303 215 6352810 79 33 60 1918
1.6998111 -0.68023944 -0.021858055 180 6352810 60 34 72 1831
1.7426838 -0.62560368 -0.039722536 199 6352810 68 35 72 1852
1.7584258 -0.85697925 -0.058090985 12 6352810 5 36 139 1957
0 -0 -0 7 6352810 0 37 65 0
1.4408123 -0.57729226 -0.075560369 10 6352810 2 38 85 1554
1.7448523 -0.62634778 -0.10783474 211 6352810 73 39 74 1857
0 -0 -0 0 6352810 0 40 104 0
1.3104467 -0.58203936 -0.1086453 11 6352810 2 41 101 1438
1.4648726 -0.58740729 -0.1347495 17 6352810 4 42 155 1584
1.6403449 -0.58983493 -0.16542257 58 6352810 18 43 73 1751
1.8329386 -0.89586812 -0.21061386 168 6352810 71 44 121 2051
1.8668537 -0.83006686 -0.23017858 184 6352810 78 45 67 2056
1.8532751 -0.74428159 -0.24405089 229 6352810 93 46 119 2012
1.9057791 -0.68580568 -0.26744273 215 6352810 90 47 145 2043
1.0636576 -0.52097833 -0.16622366 41 6352810 6 48 82 1196
1.1726875 -0.52202982 -0.19259597 63 6352810 11 49 61 1298
1.9522923 -0.78523457 -0.33633706 249 6352810 113 50 53 2131
1.9729475 -0.71059901 -0.3558884 255 6352810 116 51 74 2127
1.0631419 -0.52189964 -0.21109021 57 6352810 8 52 89 1203
1.1247572 -0.50137556 -0.2314153 94 6352810 15 53 92 1253
1.2021378 -0.48395255 -0.25631219 83 6352810 15 54 91 1321
0 -0 -0 0 6352810 0 55 54 0
1.0454119 -0.51392066 -0.25271249 64 6352810 9 56 99 1192
