# .PCD v0.7 - Point Cloud Data file format
VERSION 0.7
FIELDS x y z intensity t reflectivity ring noise range
SIZE 4 4 4 4 4 2 1 2 4
TYPE F F F F U U U U U
COUNT 1 1 1 1 1 1 1 1 1
WIDTH 768
HEIGHT 1
VIEWPOINT 0 0 0 1 0 0 0
POINTS 768
DATA ascii
0.59742403 -2.0904863 0.65257406 406 20344480 209 1 42 2270
0.69176906 -2.1163449 0.64471978 327 20344480 176 2 23 2318
0.77338082 -2.0953269 0.62389797 387 20344480 208 3 35 2319
0.3377234 -1.375378 0.38258037 398 20344480 86 4 1 1467
0.59088558 -2.071027 0.55886239 353 20344480 175 5 26 2225
0.68957788 -2.1123877 0.55353582 357 20344480 187 6 59 2290
0.76876557 -2.0893312 0.53218079 414 20344480 217 7 60 2289
0.50441617 -2.0525322 0.48707044 345 20344480 163 8 63 2169
0.58251452 -2.0387194 0.46641243 342 20344480 161 9 63 2171
0.6928221 -2.1262245 0.46945941 349 20344480 182 10 34 2285
0.76679182 -2.089592 0.44557479 372 20344480 192 11 27 2270
0.51103431 -2.0780537 0.41058245 354 20344480 168 12 86 2179
0.59091711 -2.0711377 0.39105976 351 20344480 168 13 55 2189
0.6808216 -2.0907583 0.37758851 324 20344480 161 14 70 2231
0.77920121 -2.1250143 0.36743718 345 20344480 181 15 45 2293
0.5022127 -2.0423357 0.32408565 372 20344480 168 16 27 2128
0.59422201 -2.0845137 0.31273568 322 20344480 154 17 55 2190
0.68071514 -2.0942795 0.29648745 310 20344480 153 18 58 2222
0.78404397 -2.1422691 0.28523484 350 20344480 185 19 66 2299
0.50633031 -2.0592356 0.24779668 333 20344480 152 20 60 2135
0.59935546 -2.103775 0.23431547 328 20344480 159 21 74 2200
0.69583404 -2.1442308 0.21980561 333 20344480 171 22 54 2265
0.77430832 -2.11922 0.19894359 367 20344480 188 23 99 2265
0.50418508 -2.0522101 0.16921031 321 20344480 144 24 43 2120
0.59555072 -2.0924988 0.15339194 285 20344480 136 25 58 2181
0.67958874 -2.0944195 0.13417348 300 20344480 146 26 95 2206
0.76886457 -2.108201 0.11552317 169 20344480 85 27 70 2247
0.51240444 -2.0900736 0.093543015 356 20344480 165 28 46 2154
0.59814072 -2.1043887 0.074142225 272 20344480 130 29 25 2189
0.6882019 -2.1277933 0.055162188 308 20344480 154 30 38 2237
0.77689475 -2.1326475 0.033912584 158 20344480 81 31 34 2270
0.51133794 -2.0861957 0.014995747 278 20344480 128 32 50 2148
0.59579909 -2.0990753 -0.0055220416 274 20344480 130 33 54 2182
0.68502611 -2.1188586 -0.026585411 282 20344480 140 34 64 2227
0.74741453 -2.0558488 -0.046929218 211 20344480 101 35 61 2188
0.51319313 -2.0981989 -0.064146452 315 20344480 147 36 99 2161
0.5927195 -2.0940683 -0.085128047 312 20344480 148 37 52 2178
0.68675351 -2.1272454 -0.10881861 324 20344480 162 38 98 2238
0.76443994 -2.1025648 -0.13013338 282 20344480 141 39 51 2241
0.50355822 -2.0658355 -0.14111835 347 20344480 158 40 80 2131
0.58835989 -2.0822711 -0.16395013 320 20344480 151 41 64 2170
0.67530644 -2.0937872 -0.18783265 357 20344480 174 42 118 2208
0.77000386 -2.1214416 -0.21417077 376 20344480 193 43 52 2267
0.50222009 -2.0634761 -0.21923967 377 20344480 172 44 88 2135
0.58064723 -2.0581322 -0.24092625 348 20344480 161 45 37 2152
0.67775047 -2.1051373 -0.27025121 372 20344480 185 46 85 2228
0.76358688 -2.1053662 -0.29571864 368 20344480 188 47 84 2259
0.50036836 -2.0633895 -0.2979795 358 20344480 165 48 65 2144
0.59250873 -2.103688 -0.32791764 339 20344480 166 49 63 2210
0.66920984 -2.0823467 -0.34959486 386 20344480 189 50 55 2215
0.76683348 -2.1161613 -0.38199019 382 20344480 199 51 54 2283
0.49167693 -2.0354574 -0.37322432 417 20344480 189 52 67 2127
0.57899892 -2.0597162 -0.40206793 370 20344480 176 53 66 2177
0.66597402 -2.0745151 -0.43093821 350 20344480 173 54 71 2221
0.75850701 -2.0930693 -0.46346995 410 20344480 212 55 46 2274
0.48992035 -2.03316 -0.45369524 423 20344480 194 56 68 2140
0.57400692 -2.0460694 -0.48182702 390 20344480 185 57 50 2179
0.66435182 -2.070828 -0.51529998 373 20344480 186 58 48 2235
0.76413447 -2.1091728 -0.55516702 453 20344480 242 59 51 2311
0.49045065 -2.0458627 -0.53989744 428 20344480 202 60 47 2172
0.56908494 -2.0350788 -0.56352973 394 20344480 188 61 33 2187
0.66430062 -2.0720356 -0.60327238 390 20344480 199 62 43 2258
0.75263345 -2.0747135 -0.63664514 416 20344480 219 63 26 2297
0.49233195 -2.064126 0.66236073 374 20442110 185 0 57 2223
0.57531482 -2.0609019 0.64222491 375 20442110 187 1 56 2234
0.68228436 -2.1315277 0.64805746 329 20442110 178 2 33 2330
0.76444495 -2.1108997 0.6271264 397 20442110 216 3 42 2331
0.33466485 -1.3999587 0.38883933 422 20442110 94 4 1 1491
0.57504863 -2.0634246 0.5558483 367 20442110 180 5 37 2213
0.66951239 -2.0943964 0.5477345 354 20442110 182 6 60 2266
0.75989413 -2.1049867 0.53497076 397 20442110 210 7 43 2301
0.47276586 -1.9759806 0.46820739 343 20442110 149 8 53 2085
0.57629544 -2.0648322 0.47156858 327 20442110 158 9 60 2195
0.67262304 -2.1080592 0.46452856 362 20442110 185 10 34 2261
0.76192719 -2.1163993 0.4502857 384 20442110 202 11 26 2294
0.49552992 -2.069689 0.40832132 385 20442110 181 12 71 2167
0.58136743 -2.086098 0.39320356 330 20442110 160 13 44 2201
0.66079426 -2.0723605 0.37352657 326 20442110 159 14 81 2207
0.76213813 -2.1186094 0.36551425 355 20442110 184 15 37 2281
0.49243307 -2.0569129 0.32591322 350 20442110 160 16 33 2140
0.58142048 -2.0881205 0.31273568 316 20442110 152 17 59 2190
0.66785204 -2.0984168 0.29648745 328 20442110 162 18 38 2222
0.76283705 -2.1246262 0.2822572 322 20442110 166 19 55 2275
0.49646041 -2.0738952 0.24918947 319 20442110 147 20 40 2147
0.58643568 -2.1074131 0.23431547 333 20442110 161 21 71 2200
0.67181391 -2.1143124 0.21631201 306 20442110 152 22 63 2229
0.76532382 -2.1351838 0.1999976 351 20442110 182 23 87 2277
0.49714851 -2.078532 0.1711259 309 20442110 142 24 39 2144
0.57308203 -2.0615151 0.15086004 317 20442110 146 25 48 2145
0.67760521 -2.1327965 0.13636309 297 20442110 149 26 101 2242
0.7680251 -2.1467299 0.117374 180 20442110 94 27 68 2283
0.4940041 -2.0698559 0.092500754 367 20442110 166 28 39 2130
0.58521718 -2.1080194 0.074142225 280 20442110 134 29 29 2189
0.67151147 -2.1205394 0.054866284 278 20442110 138 30 23 2225
0.76379442 -2.1373744 0.033912584 234 20442110 120 31 50 2270
0.49295753 -2.0659499 0.014828198 291 20442110 131 32 37 2124
0.59252536 -2.1373832 -0.0056131477 277 20442110 137 33 64 2218
0.66839111 -2.1115823 -0.026442159 294 20442110 144 34 79 2215
0.79120469 -2.2185984 -0.050532557 93 20442110 52 35 60 2356
0.49753103 -2.0896399 -0.063790254 312 20442110 144 36 94 2149
0.57985938 -2.0976658 -0.085128047 300 20442110 142 37 51 2178
0.67368805 -2.1314192 -0.10881861 327 20442110 164 38 91 2238
0.77566981 -2.1749175 -0.13431436 89 20442110 47 39 44 2313
0.48810884 -2.0572362 -0.1403237 332 20442110 149 40 60 2119
0.57557225 -2.0858421 -0.16395013 317 20442110 149 41 80 2170
0.6588462 -2.0864897 -0.18681182 355 20442110 171 42 100 2196
0.74495167 -2.0923636 -0.21076973 346 20442110 172 43 56 2231
0.4895494 -2.0665188 -0.21923967 374 20442110 171 44 67 2135
0.56800783 -2.0616562 -0.24092625 308 20442110 142 45 52 2152
0.65407866 -2.075175 -0.26588449 374 20442110 180 46 67 2192
0.75464177 -2.1212206 -0.29728952 336 20442110 173 47 106 2271
0.48223892 -2.0432892 -0.29464394 385 20442110 173 48 82 2120
0.57014835 -2.0729573 -0.32257599 337 20442110 159 49 54 2174
0.65997636 -2.0977168 -0.3514888 384 20442110 190 50 43 2227
0.73402292 -2.065089 -0.37195104 377 20442110 186 51 56 2223
0.48188177 -2.0499363 -0.37532997 415 20442110 190 52 67 2139
0.56947166 -2.0746031 -0.40428421 357 20442110 171 53 71 2189
0.64970309 -2.0673318 -0.42860985 359 20442110 175 54 60 2209
0.74564987 -2.0976841 -0.46346995 410 20442110 212 55 45 2274
0.47475865 -2.0247102 -0.45115113 393 20442110 178 56 87 2128
0.56453359 -2.0608401 -0.4844805 364 20442110 174 57 53 2191
0.65163296 -2.0748653 -0.51529998 378 20442110 189 58 46 2235
0.73557627 -2.069917 -0.54363608 455 20442110 233 59 59 2263
0.47260767 -2.0261941 -0.53393167 420 20442110 194 60 27 2148
0.55964118 -2.0497177 -0.56662184 404 20442110 195 61 38 2199
0.64464885 -2.0540066 -0.59686029 392 20442110 195 62 48 2234
0.73215836 -2.0575669 -0.62999314 406 20442110 210 63 36 2273
0.47965744 -2.0671082 0.66236073 367 20540200 181 0 50 2223
0.56265855 -2.0643933 0.64222491 412 20540200 205 1 43 2234
0.66229963 -2.1136756 0.6413821 325 20540200 173 2 40 2306
0.74760973 -2.1046596 0.62389797 417 20540200 224 3 30 2319
0.32344428 -1.3907024 0.38570985 432 20540200 94 4 1 1479
0.57152534 -2.1005378 0.56489056 372 20540200 188 5 35 2249
0.66360366 -2.1206908 0.55353582 354 20540200 185 6 57 2290
0.73917288 -2.087606 0.52939087 401 20540200 208 7 36 2277
0.33868095 -1.4549489 0.34425035 359 20540200 84 8 22 1533
0.56361502 -2.0683296 0.47156858 346 20540200 167 9 62 2195
0.66317672 -2.1233563 0.46699396 358 20540200 185 10 42 2273
0.74109155 -2.0988443 0.44557479 377 20540200 194 11 23 2270
0.47747388 -2.0497353 0.40379909 342 20540200 157 12 81 2143
0.56235677 -2.0668402 0.38891599 321 20540200 152 13 40 2177
0.65511352 -2.0989556 0.37758851 320 20540200 159 14 64 2231
0.74518323 -2.1120758 0.36359134 358 20540200 184 15 47 2269
0.48249331 -2.0714467 0.32774079 370 20540200 171 16 26 2152
0.56859708 -2.0916486 0.31273568 314 20540200 151 17 60 2190
0.65850103 -2.1138299 0.29808867 329 20540200 164 18 47 2234
0.74187642 -2.1068041 0.27927953 317 20540200 161 19 71 2251
0.48372588 -2.0769024 0.24918947 322 20540200 149 20 73 2147
0.57349378 -2.1109717 0.23431547 323 20540200 157 21 68 2200
0.66592181 -2.1412036 0.21864107 328 20540200 167 22 59 2253
0.74031556 -2.1060081 0.19683559 315 20540200 158 23 85 2241
0.48167446 -2.0698931 0.17016812 311 20540200 141 24 49 2132
0.5572868 -2.0534401 0.15001607 304 20540200 138 25 55 2133
0.65383583 -2.1026013 0.13417348 289 20540200 141 26 74 2206
0.76674139 -2.1853271 0.11922484 163 20540200 88 27 62 2319
0.48129439 -2.0728483 0.092500754 393 20540200 178 28 39 2130
0.57540882 -2.1231461 0.074548669 286 20540200 138 29 31 2201
0.67624438 -2.1819129 0.056345824 270 20540200 141 30 36 2285
0.74669707 -2.130697 0.033733308 325 20540200 166 31 67 2258
0.48569861 -2.0923135 0.014995747 291 20540200 134 32 62 2148
0.57313001 -2.1178119 -0.0055524101 310 20540200 149 33 41 2194
0.65542215 -2.1156437 -0.026442159 284 20540200 139 34 52 2215
0.75381374 -2.1554632 -0.048988268 125 20540200 65 35 47 2284
0.48199329 -2.0809681 -0.063434049 296 20540200 135 36 113 2137
0.56072968 -2.0780303 -0.084189989 307 20540200 142 37 38 2154
0.6676814 -2.1584136 -0.10998556 312 20540200 160 38 109 2262
0.76231021 -2.179636 -0.13431436 276 20540200 148 39 43 2313
0.47816929 -2.0718594 -0.14111835 381 20540200 173 40 58 2131
0.56587499 -2.1008885 -0.16485678 298 20540200 142 41 73 2182
0.64603132 -2.090493 -0.18681182 339 20540200 163 42 120 2196
0.7360369 -2.1081736 -0.21190339 381 20540200 192 43 36 2243
0.47686026 -2.0694838 -0.21923967 367 20540200 168 44 65 2135
0.55844373 -2.076618 -0.24226968 335 20540200 157 45 55 2164
0.64484423 -2.0905313 -0.26734003 349 20540200 170 46 66 2204
0.74161202 -2.1258109 -0.29728952 369 20540200 190 47 92 2271
0.46969244 -2.0462098 -0.29464394 353 20540200 159 48 67 2120
0.56049502 -2.087878 -0.32435656 343 20540200 164 49 41 2186
0.64360589 -2.0904021 -0.34959486 350 20540200 172 50 46 2215
0.73691338 -2.1142406 -0.37998238 409 20540200 211 51 47 2271
0.46402892 -2.0298209 -0.37111866 388 20540200 174 52 85 2115
0.54757547 -2.0438828 -0.3976354 365 20540200 169 53 63 2153
0.63354552 -2.0600276 -0.42628148 391 20540200 189 54 72 2197
0.72503102 -2.0800326 -0.45857841 387 20540200 196 55 43 2250
0.46232632 -2.027585 -0.45115113 383 20540200 174 56 82 2128
0.55187792 -2.0642653 -0.4844805 355 20540200 170 57 49 2191
0.64231986 -2.0899861 -0.5180667 382 20540200 193 58 41 2247
0.72669476 -2.0853915 -0.5465188 433 20540200 224 59 48 2275
0.45759556 -2.0177205 -0.53094888 402 20540200 183 60 25 2136
0.55003917 -2.064317 -0.56971389 391 20540200 191 61 32 2211
0.62524354 -2.0358148 -0.59044814 376 20540200 183 62 45 2210
0.73091537 -2.0946791 -0.63997108 411 20540200 219 63 32 2309
0.46444419 -2.0588384 0.65878528 361 20636960 176 0 50 2211
0.54407251 -2.0455921 0.63532537 395 20636960 193 1 54 2210
0.65607584 -2.13974 0.64805746 343 20636960 186 2 27 2330
0.73088002 -2.0982931 0.62066954 392 20636960 209 3 36 2307
0.30979496 -1.3700618 0.37945086 397 20636960 84 4 1 1455
0.54968393 -2.0703259 0.5558483 354 20636960 173 5 34 2213
0.64035141 -2.0913208 0.54483396 363 20636960 185 6 70 2254
0.72252172 -2.0810764 0.5266009 415 20636960 213 7 44 2265
0.31942239 -1.4113792 0.33347145 371 20636960 82 8 1 1485
0.55091339 -2.0717487 0.47156858 325 20636960 157 9 65 2195
0.64327097 -2.1049232 0.4620631 321 20636960 162 10 55 2249
0.72050029 -2.0811138 0.44086382 377 20636960 190 11 26 2246
0.45707837 -2.0181446 0.39701572 365 20636960 162 12 93 2107
0.54966426 -2.0702519 0.38891599 318 20636960 151 13 48 2177
0.63531345 -2.0803134 0.37352657 306 20636960 149 14 63 2207
0.72059244 -2.0830264 0.3578226 347 20636960 173 15 56 2233
0.4671545 -2.0628009 0.32591322 361 20636960 165 16 25 2140
0.55575228 -2.095098 0.31273568 322 20636960 154 17 53 2190
0.63511616 -2.0837026 0.2932851 314 20636960 152 18 66 2198
0.73670715 -2.1338272 0.2822572 346 20636960 179 19 55 2275
0.47360551 -2.0914559 0.25058225 318 20636960 148 20 59 2159
0.55441546 -2.0913842 0.23175931 306 20636960 145 21 59 2176
0.64234066 -2.1109712 0.21514747 309 20636960 152 22 64 2217
0.72348446 -2.0992098 0.19578157 334 20636960 166 23 98 2229
0.46368557 -2.0494757 0.16825251 317 20636960 141 24 37 2108
0.54774094 -2.0683923 0.15086004 308 20636960 142 25 72 2145
0.64789504 -2.1294918 0.13563322 289 20636960 144 26 84 2230
0.73382729 -2.1333284 0.11614011 283 20636960 145 27 70 2259
0.47120643 -2.0874569 0.093021892 374 20636960 171 28 45 2142
0.55930448 -2.115042 0.074142225 281 20636960 134 29 36 2189
0.65240061 -2.1515806 0.055458099 268 20636960 135 30 39 2249
0.73750806 -2.1465864 0.033912584 317 20636960 164 31 60 2270
0.47813454 -2.1186652 0.015163299 279 20636960 132 32 59 2172
0.55706102 -2.1096866 -0.0055220416 295 20636960 140 33 47 2182
0.63546759 -2.0966589 -0.026155654 302 20636960 145 34 75 2191
0.72890109 -2.1260016 -0.048216123 330 20636960 167 35 47 2248
0.45867637 -2.0370793 -0.062009227 287 20636960 125 36 93 2089
0.54491585 -2.0698364 -0.083720967 301 20636960 138 37 63 2142
0.63359451 -2.0936377 -0.1064847 318 20636960 153 38 73 2190
0.72949451 -2.1276114 -0.1308302 339 20636960 172 39 44 2253
0.46020561 -2.0513878 -0.13952903 366 20636960 163 40 66 2107
0.55297351 -2.104321 -0.16485678 300 20636960 143 41 77 2182
0.63319218 -2.0944178 -0.18681182 324 20636960 156 42 98 2196
0.72308755 -2.1126502 -0.21190339 354 20636960 178 43 50 2243
0.46154436 -2.0607231 -0.21800743 371 20636960 167 44 64 2123
0.54569131 -2.0800054 -0.24226968 321 20636960 150 45 34 2164
0.63200486 -2.0944486 -0.26734003 347 20636960 169 46 65 2204
0.71315551 -2.0852947 -0.29100597 372 20636960 184 47 75 2223
0.46230331 -2.0722499 -0.2979795 384 20636960 176 48 49 2144
0.54466701 -2.0797977 -0.32257599 332 20636960 157 49 46 2174
0.62051553 -2.0602732 -0.34391293 379 20636960 180 50 37 2179
0.71627635 -2.0963318 -0.37596673 381 20636960 192 51 47 2247
0.45412752 -2.0441628 -0.37322432 378 20636960 171 52 55 2127
0.52906013 -2.0243835 -0.39320287 369 20636960 167 53 67 2129
0.62089348 -2.0638762 -0.42628148 371 20636960 179 54 60 2197
0.71605325 -2.0955594 -0.46102417 415 20636960 212 55 44 2262
0.4524135 -2.0418332 -0.45369524 381 20636960 175 56 81 2140
0.53034186 -2.0336401 -0.47652009 388 20636960 180 57 46 2155
0.62612212 -2.0827055 -0.51529998 373 20636960 187 58 62 2235
0.71011978 -2.0787878 -0.54363608 426 20636960 218 59 52 2263
0.45020875 -2.0431924 -0.53691459 409 20636960 191 60 42 2160
0.53444588 -2.0564311 -0.56662184 404 20636960 195 61 24 2199
0.62604862 -2.0839121 -0.60327238 420 20636960 214 62 39 2258
0.70685369 -2.0663967 -0.62999314 417 20636960 215 63 28 2273
0.45180264 -2.0616493 0.65878528 379 20734430 185 0 57 2211
0.53728288 -2.0711424 0.64222491 388 20734430 193 1 56 2234
0.63962299 -2.1326845 0.64471978 344 20734430 185 2 32 2318
0.71799135 -2.1027381 0.62066954 397 20734430 211 3 38 2307
0.30635387 -1.3945668 0.38570985 409 20734430 89 4 1 1479
0.52532345 -2.0286822 0.54379195 376 20734430 176 5 37 2165
0.62416649 -2.0840559 0.5419333 366 20734430 184 6 69 2242
0.71349913 -2.0965195 0.52939087 395 20734430 205 7 43 2277
0.30573401 -1.3904712 0.32808203 363 20734430 77 8 1 1461
0.54113322 -2.0864346 0.4741466 347 20734430 169 9 75 2207
0.62025332 -2.0750742 0.45466679 352 20734430 172 10 38 2213
0.70771724 -2.0854955 0.44086382 388 20734430 196 11 28 2246
0.42442569 -1.9288336 0.37892672 345 20734430 140 12 72 2011
0.53695112 -2.0735855 0.38891599 355 20734430 168 13 42 2177
0.62253696 -2.0841725 0.37352657 302 20734430 147 14 64 2207
0.70779771 -2.0874085 0.3578226 344 20734430 171 15 45 2233
0.45194006 -2.0540454 0.32408565 362 20734430 164 16 28 2128
0.53991181 -2.0869703 0.3110221 331 20734430 157 17 54 2178
0.62571633 -2.0989573 0.29488626 327 20734430 159 18 43 2210
0.71596682 -2.1157496 0.27927953 333 20734430 169 19 59 2251
0.45820266 -2.0826819 0.24918947 313 20734430 144 20 50 2147
0.5385859 -2.0831945 0.23048122 326 20734430 152 21 49 2164
0.61915594 -2.0805311 0.21165387 315 20734430 150 22 49 2181
0.71441585 -2.1149344 0.19683559 320 20734430 161 23 106 2241
0.45366946 -2.0639653 0.16921031 314 20734430 141 24 44 2120
0.53803241 -2.0833042 0.15170401 317 20734430 148 25 65 2157
0.63140053 -2.1219471 0.13490336 311 20734430 153 26 86 2218
0.72455221 -2.1491473 0.11675707 344 20734430 178 27 73 2271
0.45325312 -2.0668879 0.091979623 343 20734430 154 28 34 2118
0.54032654 -2.0952079 0.073329337 270 20734430 126 29 26 2165
0.63236547 -2.1325405 0.054866284 282 20734430 140 30 21 2225
0.71283591 -2.1169572 0.033374764 203 20734430 101 31 57 2234
0.45741642 -2.086395 0.014911973 310 20734430 141 32 52 2136
0.54111338 -2.101444 -0.005491673 291 20734430 137 33 34 2170
0.62941056 -2.1235275 -0.026442159 282 20734430 139 34 63 2215
0.71202123 -2.1190615 -0.047958739 315 20734430 157 35 57 2236
0.4564203 -2.0867262 -0.063434049 314 20734430 144 36 83 2137
0.54114997 -2.1079836 -0.085128047 310 20734430 147 37 40 2178
0.62413758 -2.1089792 -0.10706817 336 20734430 163 38 97 2202
0.7087943 -2.1093359 -0.12943654 308 20734430 153 39 56 2229
0.45015916 -2.0658722 -0.1403237 342 20734430 154 40 68 2119
0.53114116 -2.0729008 -0.16213685 302 20734430 139 41 70 2146
0.61693931 -2.0867975 -0.18579097 348 20734430 166 42 101 2184
0.7101109 -2.1170471 -0.21190339 363 20734430 182 43 42 2243
0.446354 -2.0518522 -0.21677516 355 20734430 158 44 73 2111
0.52996325 -2.0717621 -0.24092625 335 20734430 155 45 45 2152
0.61914164 -2.0982871 -0.26734003 361 20734430 176 46 76 2204
0.70790809 -2.1121914 -0.29414776 348 20734430 176 47 101 2247
0.43951434 -2.0285914 -0.29130834 367 20734430 161 48 56 2096
0.52895945 -2.0716026 -0.32079548 348 20734430 163 49 35 2162
0.61455739 -2.0867758 -0.34770086 374 20734430 181 50 43 2203
0.69964349 -2.0894687 -0.37395889 379 20734430 189 51 47 2235
0.43908495 -2.0353625 -0.37111866 417 20734430 187 52 77 2115
0.52245265 -2.0504484 -0.3976354 336 20734430 156 53 60 2153
0.6115402 -2.0789406 -0.42860985 375 20734430 183 54 65 2209
0.69199044 -2.066493 -0.45368692 408 20734430 202 55 52 2226
0.43247676 -2.0101762 -0.44606298 388 20734430 172 56 71 2104
0.52362096 -2.05954 -0.48182702 383 20734430 182 57 48 2179
0.61003804 -2.0753055 -0.51253325 377 20734430 186 58 29 2223
0.70474696 -2.1051981 -0.54940158 440 20734430 230 59 47 2287
0.43036911 -2.0118177 -0.52796596 428 20734430 193 60 28 2124
0.51612264 -2.0371923 -0.56043768 400 20734430 189 61 44 2175
0.60673207 -2.0655243 -0.59686029 399 20734430 199 62 39 2234
0.68683177 -2.0488312 -0.62334126 387 20734430 196 63 22 2249
0.44867772 -2.1091995 0.67308724 354 20834430 181 0 58 2259
0.51329362 -2.0298293 0.62842596 369 20834430 177 1 62 2186
0.62652504 -2.136569 0.64471978 332 20834430 178 2 32 2318
0.69774067 -2.0851834 0.61421257 388 20834430 202 3 29 2283
0.29537505 -1.3850904 0.38258037 415 20834430 89 4 2 1467
0.48159635 -1.9079843 0.51063693 333 20834430 138 5 17 2033
0.61136723 -2.0878465 0.5419333 347 20834430 175 6 76 2242
0.69323695 -2.0787144 0.52381098 382 20834430 194 7 66 2253
0.2996375 -1.4037569 0.33077675 389 20834430 84 8 1 1473
0.51395792 -2.0329041 0.46125636 342 20834430 157 9 54 2147
0.61739188 -2.1126585 0.4620631 349 20834430 176 10 42 2249
0.70233315 -2.1121297 0.44557479 357 20834430 184 11 32 2270
0.30179462 -1.4127755 0.27717614 323 20834430 70 12 62 1471
0.52999693 -2.0997372 0.39320356 332 20834430 161 13 50 2201
0.60310644 -2.0652478 0.36946467 325 20834430 155 14 67 2183
0.70618057 -2.1254344 0.36359134 348 20834430 179 15 55 2269
0.44180557 -2.0683782 0.32591322 346 20834430 158 16 30 2140
0.52419215 -2.0787272 0.30930847 329 20834430 154 17 46 2166
0.60949808 -2.0913396 0.2932851 345 20834430 166 18 49 2198
0.7067188 -2.1314049 0.28076833 339 20834430 173 19 43 2263
0.44790447 -2.0971103 0.25058225 319 20834430 149 20 63 2159
0.51996219 -2.0633202 0.22792506 330 20834430 151 21 64 2140
0.60971475 -2.0957589 0.21281841 329 20834430 158 22 46 2193
0.7051813 -2.1306262 0.19788958 301 20834430 153 23 83 2253
0.43600425 -2.0433133 0.16729474 313 20834430 137 24 27 2096
0.52231735 -2.0749583 0.15086004 321 20834430 147 25 55 2145
0.61167747 -2.1027789 0.13344362 296 20834430 143 26 90 2194
0.69631648 -2.1080348 0.11428927 303 20834430 150 27 67 2223
0.4405624 -2.0696301 0.091979623 364 20834430 163 28 40 2118
0.52746046 -2.0984838 0.073329337 279 20834430 131 29 27 2165
0.60590905 -2.0902922 0.053682651 271 20834430 128 30 30 2177
0.6998331 -2.1212914 0.033374764 321 20834430 160 31 50 2234
0.44210809 -2.0774255 0.014828198 308 20834430 139 32 51 2124
0.52528799 -2.0930855 -0.005461304 282 20834430 132 33 62 2158
0.59967279 -2.0697238 -0.025725894 278 20834430 129 34 58 2155
0.69525415 -2.111995 -0.047701363 331 20834430 164 35 62 2224
0.43862578 -2.066021 -0.06272164 322 20834430 144 36 91 2113
0.5252952 -2.099632 -0.084659018 314 20834430 147 37 50 2166
0.61118537 -2.1127691 -0.10706817 326 20834430 158 38 96 2202
0.69209218 -2.1022663 -0.1287397 306 20834430 151 39 74 2217
0.43251979 -2.045166 -0.13873437 344 20834430 151 40 68 2095
0.52420974 -2.0993392 -0.16395013 301 20834430 142 41 69 2170
0.59748465 -2.0675707 -0.18374932 360 20834430 168 42 98 2160
0.68218958 -2.0759676 -0.20736869 361 20834430 174 43 53 2195
0.43622136 -2.0662317 -0.21800743 370 20834430 167 44 75 2123
0.51724118 -2.074975 -0.24092625 315 20834430 146 45 50 2152
0.60955602 -2.1134915 -0.26879561 385 20834430 189 46 72 2216
0.68380082 -2.0825863 -0.28943512 347 20834430 170 47 114 2211
0.42950383 -2.0428793 -0.29297614 382 20834430 170 48 64 2108
0.51623839 -2.0748091 -0.32079548 330 20834430 154 49 38 2162
0.59518605 -2.0677328 -0.34391293 345 20834430 164 50 43 2179
0.6868096 -2.0937223 -0.37395889 370 20834430 185 51 56 2235
0.42174724 -2.0148919 -0.36690742 389 20834430 170 52 64 2091
0.50417799 -2.0307236 -0.39320287 355 20834430 161 53 67 2129
0.59551978 -2.0713401 -0.42628148 376 20834430 182 54 79 2197
0.68295962 -2.0818632 -0.45613268 395 20834430 198 55 32 2238
0.4201344 -2.0127919 -0.44606298 392 20834430 174 56 72 2104
0.50534606 -2.039995 -0.47652009 380 20834430 176 57 46 2155
0.60051697 -2.0902324 -0.51529998 378 20834430 189 58 56 2235
0.67729646 -2.0652084 -0.53787059 415 20834430 208 59 66 2239
0.41565502 -2.0030396 -0.52498311 426 20834430 190 60 29 2112
0.50083441 -2.0290639 -0.55734563 377 20834430 176 61 33 2163
0.58447403 -2.0358639 -0.58724213 383 20834430 185 62 42 2198
0.68144262 -2.0749154 -0.62999314 390 20834430 201 63 53 2273
0.42183974 -2.044601 0.65163428 350 20931440 167 0 55 2187
0.50907701 -2.0664201 0.63877511 397 20931440 196 1 75 2222
0.60070151 -2.0960515 0.63136929 340 20931440 175 2 33 2270
0.67773277 -2.0674605 0.60775572 406 20931440 207 3 40 2259
0.28452411 -1.3755319 0.37945086 408 20931440 86 4 1 1455
0.35061887 -1.4258931 0.38103113 388 20931440 89 5 1 1517
0.59534127 -2.0803635 0.53903264 348 20931440 173 6 61 2230
0.67684484 -2.0718348 0.52102107 415 20931440 208 7 43 2241
0.29338938 -1.4170196 0.33347145 367 20931440 81 8 1 1485
0.50427741 -2.0473993 0.4638344 331 20931440 155 9 58 2159
0.59796727 -2.093822 0.45713225 371 20931440 183 10 54 2225
0.68207169 -2.0940232 0.44086382 364 20931440 183 11 40 2246
0.29072911 -1.4030608 0.27491501 357 20931440 76 12 1 1459
0.50300676 -2.0456223 0.38248464 321 20931440 147 13 50 2141
0.59366852 -2.0802822 0.37149563 342 20931440 165 14 68 2195
0.67846304 -2.0846739 0.35589969 362 20931440 178 15 43 2221
0.4194811 -2.0245967 0.31860298 352 20931440 154 16 37 2092
0.50292724 -2.0473022 0.3041676 331 20931440 150 17 63 2130
0.59991181 -2.1064777 0.29488626 310 20931440 151 18 53 2210
0.69362742 -2.1357012 0.28076833 338 20931440 173 19 60 2263
0.43261045 -2.0881481 0.24918947 325 20931440 150 20 39 2147
0.50729209 -2.0664718 0.22792506 349 20931440 160 21 55 2140
0.59031218 -2.0764844 0.21048935 308 20931440 145 22 49 2169
0.6847223 -2.1121709 0.19578157 324 20931440 161 23 80 2229
0.42830727 -2.0693769 0.16921031 309 20931440 139 24 39 2120
0.51242656 -2.0897498 0.15170401 300 20931440 139 25 53 2157
0.59221375 -2.0834498 0.13198389 305 20931440 144 26 65 2170
0.68336868 -2.1122675 0.11428927 316 20931440 156 27 71 2223
0.42058277 -2.0370712 0.09041623 340 20931440 147 28 24 2082
0.51457447 -2.1016808 0.073329337 279 20931440 131 29 33 2165
0.60941738 -2.1516821 0.055162188 281 20931440 141 30 29 2237
0.67573631 -2.0912931 0.03283694 338 20931440 163 31 56 2198
0.43177867 -2.0918512 0.014911973 302 20931440 138 32 57 2136
0.51813424 -2.1195829 -0.0055220416 288 20931440 137 33 63 2182
0.60003573 -2.1195459 -0.026298905 281 20931440 137 34 78 2203
0.67860073 -2.1048028 -0.047443978 307 20931440 150 35 64 2212
0.43319759 -2.1039183 -0.063790254 312 20931440 144 36 97 2149
0.50672466 -2.0795157 -0.083720967 302 20931440 138 37 44 2142
0.60473019 -2.1395473 -0.10823513 308 20931440 153 38 92 2226
0.67917991 -2.1064732 -0.1287397 328 20931440 161 39 55 2217
0.42236829 -2.0595112 -0.13952903 378 20931440 168 40 51 2107
0.50283587 -2.0676355 -0.16123022 310 20931440 141 41 80 2134
0.59128469 -2.0942111 -0.18579097 347 20931440 166 42 97 2184
0.67309862 -2.091486 -0.20850235 379 20931440 184 43 31 2207
0.421141 -2.0571752 -0.21677516 381 20931440 170 44 65 2111
0.50449961 -2.0781095 -0.24092625 321 20931440 149 45 38 2152
0.59011531 -2.0942621 -0.26588449 354 20931440 170 46 89 2192
0.67100942 -2.0867429 -0.28943512 346 20931440 169 47 93 2211
0.41933447 -2.0571203 -0.29464394 401 20931440 180 48 59 2120
0.5034979 -2.0779376 -0.32079548 312 20931440 146 49 51 2162
0.58569533 -2.0827532 -0.34580693 376 20931440 180 50 44 2191
0.66309422 -2.0641055 -0.36793539 361 20931440 175 51 58 2199
0.40937614 -2.0174417 -0.36690742 383 20931440 167 52 55 2091
0.49447966 -2.0452421 -0.39541912 372 20931440 171 53 61 2141
0.57961589 -2.0636218 -0.42395318 344 20931440 164 54 75 2185
0.66657925 -2.0748293 -0.45368692 405 20931440 200 55 56 2226
0.40777624 -2.015332 -0.44606298 371 20931440 164 56 61 2104
0.49007511 -2.0316806 -0.47386658 393 20931440 180 57 47 2143
0.57190359 -2.0376661 -0.50146645 375 20931440 177 58 57 2175
0.66817385 -2.0804162 -0.54075336 431 20931440 219 59 65 2251
0.41023219 -2.0397379 -0.53393167 397 20931440 183 60 36 2148
0.49108431 -2.0433726 -0.56043768 382 20931440 181 61 40 2175
0.57509381 -2.0505459 -0.59044814 378 20931440 185 62 61 2210
0.66869831 -2.0790575 -0.62999314 379 20931440 196 63 44 2273
0.41153213 -2.0583835 0.65520978 365 21028930 176 0 45 2199
0.49370733 -2.0583282 0.63532537 400 21028930 196 1 67 2210
0.59093648 -2.1107974 0.63470685 338 21028930 176 2 32 2282
0.66503429 -2.0715799 0.60775572 376 21028930 192 3 29 2259
0.2783556 -1.3886107 0.38258037 424 21028930 91 4 1 1467
0.34186316 -1.4280175 0.38103113 416 21028930 96 5 1 1517
0.58256519 -2.0839775 0.53903264 339 21028930 169 6 58 2230
0.65700716 -2.0537164 0.51544112 388 21028930 190 7 55 2217
0.27318662 -1.3614682 0.31999788 370 21028930 75 8 9 1425
0.48350644 -2.0162647 0.45610026 373 21028930 168 9 52 2123
0.58195287 -2.0861394 0.45466679 341 21028930 167 10 48 2213
0.6727857 -2.1093793 0.4432193 350 21028930 178 11 37 2258
0.28211462 -1.4048183 0.27491501 383 21028930 82 12 6 1459
0.49319446 -2.0601528 0.38462844 335 21028930 155 13 51 2153
0.57771724 -2.0724931 0.36946467 321 21028930 153 14 67 2183
0.66925544 -2.1000831 0.3578226 359 21028930 179 15 39 2233
0.38136664 -1.8992255 0.29849994 340 21028930 131 16 15 1960
0.49035576 -2.0503497 0.3041676 328 21028930 149 17 69 2130
0.57422668 -2.0642884 0.2884815 312 21028930 146 18 58 2162
0.67329293 -2.1172223 0.2777907 325 21028930 163 19 65 2239
0.41275081 -2.055706 0.24501115 345 21028930 154 20 51 2111
0.50014985 -2.0927553 0.23048122 296 21028930 139 21 77 2164
0.58395064 -2.1030834 0.21281841 321 21028930 154 22 47 2193
0.67174935 -2.1163325 0.19578157 315 21028930 157 23 93 2229
0.40854436 -2.0367818 0.16633694 319 21028930 138 24 30 2084
0.49959445 -2.0928547 0.15170401 290 21028930 135 25 55 2157
0.58903128 -2.1216683 0.13417348 313 21028930 152 26 88 2206
0.6703952 -2.116421 0.11428927 315 21028930 155 27 53 2223
0.41277969 -2.0631251 0.091458499 385 21028930 171 28 31 2106
0.51001096 -2.1397974 0.074548669 295 21028930 143 29 24 2201
0.58980697 -2.1322567 0.054570373 274 21028930 134 30 27 2213
0.66289169 -2.0954001 0.03283694 328 21028930 159 31 59 2198
0.4165816 -2.0826945 0.014828198 301 21028930 136 32 49 2124
0.50234103 -2.111048 -0.005491673 276 21028930 130 33 31 2170
0.59021676 -2.134753 -0.026442159 290 21028930 143 34 62 2215
0.67289561 -2.1318085 -0.047958739 320 21028930 160 35 57 2236
0.41558632 -2.0830109 -0.063077837 285 21028930 129 36 62 2125
0.49948993 -2.1059201 -0.084659018 301 21028930 141 37 55 2166
0.57883412 -2.0970027 -0.10590123 303 21028930 144 38 77 2178
0.65902972 -2.0877528 -0.12734604 304 21028930 146 39 65 2193
0.41439041 -2.085552 -0.14111835 375 21028930 170 40 60 2131
0.49013963 -2.070682 -0.16123022 309 21028930 141 41 63 2134
0.56571114 -2.0516944 -0.18170767 321 21028930 146 42 98 2136
0.65666294 -2.0841827 -0.20736869 353 21028930 170 43 64 2195
0.40618834 -2.0480123 -0.21554291 362 21028930 159 44 50 2099
0.49448109 -2.0927708 -0.24226968 328 21028930 153 45 43 2164
0.57725406 -2.0978436 -0.26588449 344 21028930 165 46 83 2192
0.65462047 -2.079473 -0.28786421 361 21028930 175 47 93 2199
0.40210015 -2.0363379 -0.29130834 381 21028930 168 48 64 2096
0.49073842 -2.0809879 -0.32079548 332 21028930 155 49 39 2162
0.57604253 -2.0977342 -0.34770086 339 21028930 164 50 45 2203
0.65751529 -2.0907068 -0.37195104 374 21028930 185 51 45 2223
0.39926794 -2.031508 -0.36901307 375 21028930 166 52 65 2103
0.48462209 -2.0597177 -0.3976354 344 21028930 159 53 54 2153
0.56382918 -2.0557866 -0.42162481 383 21028930 181 54 48 2173
0.65383577 -2.0788803 -0.45368692 363 21028930 180 55 40 2226
0.39765787 -2.0293045 -0.44860709 376 21028930 168 56 79 2116
0.47492534 -2.0232561 -0.4712131 379 21028930 172 57 36 2131
0.55630368 -2.0298755 -0.49869969 386 21028930 180 58 56 2163
0.6553961 -2.0844767 -0.54075336 411 21028930 208 59 64 2251
0.39993072 -2.0536258 -0.53691459 402 21028930 187 60 42 2160
0.47853717 -2.0463474 -0.56043768 389 21028930 184 61 33 2175
0.56555539 -2.0651891 -0.59365422 390 21028930 192 62 47 2222
0.64554024 -2.0501287 -0.62001526 385 21028930 192 63 35 2237
0.39236405 -2.0271313 0.64448327 368 21125690 172 0 61 2163
0.48368052 -2.0725114 0.63877511 381 21125690 188 1 68 2222
0.57797378 -2.1143835 0.63470685 323 21125690 168 2 32 2282
0.65577596 -2.0866475 0.61098421 395 21125690 204 3 43 2271
0.26983002 -1.3902925 0.38258037 432 21125690 93 4 1 1467
0.32782477 -1.4074633 0.37500292 409 21125690 91 5 1 1493
0.56363517 -2.0650463 0.53323144 360 21125690 175 6 71 2206
0.6583451 -2.1022604 0.5266009 405 21125690 208 7 54 2265
0.26705778 -1.3745977 0.32269257 365 21125690 75 8 8 1437
0.43650699 -1.8708214 0.42258561 327 21125690 126 9 45 1967
0.57222784 -2.1010025 0.45713225 352 21125690 174 10 41 2225
0.65281689 -2.0910039 0.43850839 367 21125690 183 11 29 2234
0.28248709 -1.4527963 0.28395951 335 21125690 76 12 1 1507
0.47786593 -2.051641 0.38248464 337 21125690 154 13 49 2141
0.56498981 -2.075999 0.36946467 321 21125690 153 14 64 2183
0.65282977 -2.0928428 0.35589969 346 21125690 170 15 46 2221
0.27690229 -1.424207 0.22357036 319 21125690 69 16 1 1468
0.48314908 -2.0764558 0.30759484 337 21125690 156 17 49 2154
0.56778324 -2.0907269 0.29168388 308 21125690 147 18 57 2186
0.66028923 -2.1213138 0.2777907 320 21125690 160 19 52 2239
0.39785495 -2.0465002 0.24361841 334 21125690 147 20 43 2099
0.48729953 -2.0957847 0.23048122 301 21125690 141 21 68 2164
0.56791067 -2.0950992 0.21165387 343 21125690 163 22 53 2181
0.6516583 -2.0975838 0.19367357 326 21125690 159 23 92 2205
0.39603919 -2.0392501 0.16633694 305 21125690 132 24 47 2084
0.48674351 -2.0958807 0.15170401 306 21125690 142 25 47 2157
0.56346869 -2.0789995 0.13125402 294 21125690 137 26 73 2158
0.65384781 -2.1090481 0.11367233 259 21125690 127 27 59 2211
0.39783296 -2.053849 0.090937361 353 21125690 155 28 26 2094
0.48603585 -2.0961537 0.072922893 285 21125690 132 29 32 2153
0.58296704 -2.1589987 0.055162188 291 21125690 146 30 29 2237
0.65357083 -2.1108897 0.033016212 307 21125690 150 31 57 2210
0.39923197 -2.0616498 0.014660648 296 21125690 130 32 56 2100
0.48396593 -2.090709 -0.0054309354 280 21125690 129 33 55 2146
0.56772739 -2.1035805 -0.0260124 283 21125690 135 34 78 2179
0.65272045 -2.1129718 -0.047443978 329 21125690 161 35 58 2212
0.39824817 -2.0619676 -0.062365435 313 21125690 138 36 78 2101
0.48116761 -2.0855775 -0.083720967 300 21125690 138 37 44 2142
0.56595623 -2.1005151 -0.10590123 303 21125690 144 38 74 2178
0.65681511 -2.1260953 -0.12943654 316 21125690 157 39 53 2229
0.39254034 -2.041023 -0.13793972 349 21125690 152 40 58 2083
0.47742495 -2.0736506 -0.16123022 311 21125690 142 41 60 2134
0.56554097 -2.1013093 -0.18579097 327 21125690 156 42 110 2184
0.64034224 -2.0767567 -0.20623501 379 21125690 180 43 40 2183
0.40036517 -2.0856333 -0.21923967 375 21125690 171 44 74 2135
0.48430157 -2.1073873 -0.24361315 340 21125690 161 45 44 2176
0.5674606 -2.1128497 -0.26734003 368 21125690 179 46 71 2204
0.64535135 -2.09482 -0.28943512 352 21125690 172 47 103 2211
0.39182833 -2.0504389 -0.29297614 371 21125690 165 48 58 2108
0.47530758 -2.0723929 -0.31901491 318 21125690 147 49 37 2150
0.56316024 -2.1012292 -0.34770086 360 21125690 174 50 49 2203
0.63771456 -2.072087 -0.36793539 392 21125690 189 51 42 2199
0.37796688 -1.9874961 -0.36059049 386 21125690 163 52 61 2055
0.46934417 -2.051156 -0.39541912 334 21125690 153 53 60 2141
0.55729234 -2.0819507 -0.42628148 373 21125690 180 54 77 2197
0.64106774 -2.0828531 -0.45368692 392 21125690 194 55 41 2226
0.38301429 -2.0201843 -0.44606298 399 21125690 177 56 67 2104
0.46771079 -2.0489511 -0.47652009 369 21125690 171 57 39 2155
0.55288953 -2.0670912 -0.50699985 356 21125690 172 58 60 2199
0.63574231 -2.0661919 -0.53498787 431 21125690 214 59 85 2227
0.380867 -2.0217736 -0.52796596 391 21125690 176 60 18 2124
0.46597201 -2.0492451 -0.56043768 405 21125690 191 61 28 2175
0.54988718 -2.0574486 -0.59044814 393 21125690 192 62 49 2210
0.64653009 -2.0981257 -0.63331914 419 21125690 219 63 35 2285
0.37781066 -2.0182412 0.64090776 384 21223780 178 0 60 2151
0.46586794 -2.0530233 0.63187569 362 21223780 175 1 70 2198
0.55904722 -2.0956161 0.62803161 341 21223780 174 2 30 2258
0.63616538 -2.0685382 0.60452729 383 21223780 193 3 26 2247
0.26343164 -1.4033079 0.38570985 412 21223780 90 4 1 1479
0.31661713 -1.3981198 0.37198886 417 21223780 91 5 1 1481
0.55095369 -2.0684657 0.53323144 368 21223780 179 6 66 2206
0.63175541 -2.0616243 0.51544112 380 21223780 187 7 47 2217
0.26941666 -1.4336723 0.3361662 294 21223780 66 8 1 1497
0.32130361 -1.4162897 0.31946355 374 21223780 83 9 21 1487
0.54725915 -2.0590739 0.44727051 354 21223780 168 10 35 2177
0.63653678 -2.0837169 0.43615291 333 21223780 164 11 36 2222
0.2648541 -1.4081745 0.27491501 363 21223780 77 12 10 1459
0.46787608 -2.0660501 0.38462844 348 21223780 161 13 40 2153
0.55527675 -2.0908573 0.37149563 337 21223780 162 14 78 2195
0.63651824 -2.08548 0.35397676 340 21223780 166 15 45 2209
0.26158223 -1.3909122 0.21808772 342 21223780 70 16 1 1432
0.4651579 -2.0562127 0.3041676 326 21223780 148 17 59 2130
0.54885143 -2.0711796 0.2884815 336 21223780 157 18 48 2162
0.64379162 -2.1139345 0.27630186 324 21223780 160 19 57 2227
0.37647954 -2.0020485 0.23804732 322 21223780 135 20 37 2051
0.47443086 -2.0987353 0.23048122 268 21223780 126 21 71 2164
0.55504471 -2.0985446 0.21165387 320 21223780 152 22 59 2181
0.64225179 -2.1129797 0.19472755 319 21223780 157 23 112 2217
0.38351914 -2.041642 0.16633694 301 21223780 131 24 54 2084
0.47387427 -2.0988278 0.15170401 320 21223780 149 25 50 2157
0.55682623 -2.1055775 0.13271376 304 21223780 145 26 69 2182
0.644373 -2.1244884 0.11428927 275 21223780 136 27 75 2223
0.37860054 -2.0209002 0.089373969 341 21223780 144 28 8 2058
0.47580221 -2.1107962 0.073329337 302 21223780 141 29 24 2165
0.56665266 -2.1509347 0.054866284 262 21223780 130 30 32 2225
0.64408475 -2.1263437 0.033195488 317 21223780 156 31 47 2222
0.39761937 -2.1230335 0.015079523 296 21223780 138 32 52 2160
0.468494 -2.0819318 -0.0054005668 297 21223780 135 33 43 2134
0.551754 -2.0954206 -0.025869144 272 21223780 128 34 68 2167
0.62239033 -2.0595157 -0.046157073 308 21223780 142 35 51 2152
0.38558868 -2.0643723 -0.062365435 320 21223780 141 36 97 2101
0.4631139 -2.0650899 -0.082782917 315 21223780 141 37 48 2118
0.55610418 -2.11554 -0.1064847 310 21223780 149 38 77 2190
0.62642872 -2.0727482 -0.12595238 314 21223780 148 39 58 2169
0.38000947 -2.0433931 -0.13793972 361 21223780 156 40 53 2083
0.47253153 -2.1115716 -0.16395013 302 21223780 142 41 78 2170
0.54656398 -2.0816109 -0.18374932 342 21223780 160 42 96 2160
0.62758744 -2.0806468 -0.20623501 370 21223780 176 43 37 2183
0.37666881 -2.0293703 -0.21307838 358 21223780 154 44 70 2075
0.4583647 -2.0521302 -0.23689587 320 21223780 143 45 47 2116
0.55146682 -2.1047695 -0.26588449 348 21223780 167 46 86 2192
0.62562007 -2.0759587 -0.28629333 348 21223780 167 47 85 2187
0.37492201 -2.029433 -0.28964055 369 21223780 160 48 60 2084
0.46258268 -2.0752704 -0.31901491 343 21223780 158 49 34 2150
0.54126477 -2.0702524 -0.34201896 365 21223780 171 50 47 2167
0.6249885 -2.0759611 -0.36793539 384 21223780 186 51 41 2199
0.37430817 -2.0362544 -0.36901307 361 21223780 159 52 54 2103
0.45418969 -2.042485 -0.39320287 350 21223780 159 53 64 2129
0.54153317 -2.073941 -0.42395318 378 21223780 181 54 74 2185
0.62827551 -2.0867474 -0.45368692 407 21223780 202 55 34 2226
0.37272525 -2.0340316 -0.44860709 376 21223780 168 56 73 2116
0.46273297 -2.0860581 -0.4844805 364 21223780 175 57 62 2191
0.54019564 -2.0704448 -0.50699985 369 21223780 178 58 51 2199
0.61969519 -2.0588996 -0.53210515 429 21223780 210 59 50 2215
0.36429113 -2.0012016 -0.52200031 380 21223780 168 60 21 2100
0.44838634 -2.029422 -0.55425352 429 21223780 198 61 43 2151
0.52850091 -2.0272148 -0.58082998 389 21223780 184 62 58 2174
0.61700577 -2.0468571 -0.61668932 418 21223780 207 63 51 2225
0.35318822 -1.9528888 0.6194548 346 21320990 150 0 60 2079
0.45573661 -2.0670669 0.63532537 393 21320990 192 1 42 2210
0.54617828 -2.0990069 0.62803161 315 21320990 160 2 37 2258
0.63012022 -2.0945377 0.61098421 403 21320990 208 3 31 2271
0.25274867 -1.3934991 0.38258037 432 21320990 93 4 1 1467
0.31302422 -1.4227242 0.37801704 410 21320990 93 5 1 1505
0.5323956 -2.0492675 0.52743018 355 21320990 169 6 81 2182
0.62244463 -2.0766416 0.51823109 379 21320990 189 7 65 2229
0.26897112 -1.48132 0.34694505 156 21320990 37 8 10 1545
0.31260738 -1.4182345 0.31946355 367 21320990 81 9 1 1487
0.53756154 -2.0737615 0.44973594 371 21320990 178 10 48 2189
0.62373936 -2.0875833 0.43615291 375 21320990 185 11 38 2222
0.25199416 -1.3865829 0.27039275 373 21320990 77 12 27 1435
0.43996787 -1.9996949 0.37176579 349 21320990 151 13 34 2081
0.53354061 -2.0598779 0.36540279 323 21320990 151 14 60 2159
0.61693364 -2.0666463 0.35013095 346 21320990 165 15 48 2185
0.25728378 -1.4158289 0.22174282 299 21320990 63 16 1 1456
0.44743353 -2.0358279 0.30074036 315 21320990 140 17 54 2106
0.53613257 -2.0745084 0.2884815 325 21320990 152 18 45 2162
0.6240105 -2.0950212 0.27332422 344 21320990 167 19 51 2203
0.33435699 -1.8401444 0.21854857 268 21320990 95 20 20 1883
0.45642558 -2.0782988 0.22792506 303 21320990 139 21 61 2140
0.53320891 -2.0672164 0.2081603 344 21320990 159 22 59 2145
0.62586862 -2.1054227 0.19367357 309 21320990 150 23 87 2205
0.37312084 -2.0557263 0.16729474 298 21320990 131 24 33 2096
0.4507288 -2.0549269 0.14832813 321 21320990 143 25 56 2109
0.54090494 -2.0973561 0.13198389 297 21320990 140 26 85 2170
0.63132524 -2.1284022 0.11428927 278 21320990 137 27 80 2223
0.3725991 -2.0585763 0.090937361 361 21320990 158 28 16 2094
0.46027622 -2.1019604 0.072922893 295 21320990 137 29 21 2153
0.55344409 -2.154371 0.054866284 286 21320990 141 30 27 2225
0.62761772 -2.118751 0.033016212 332 21320990 162 31 59 2210
0.37817544 -2.0900095 0.014828198 298 21320990 134 32 55 2124
0.46083581 -2.1082137 -0.005461304 285 21320990 133 33 68 2158
0.54187047 -2.110389 -0.0260124 288 21320990 137 34 44 2179
0.63014197 -2.132328 -0.047701363 321 21320990 159 35 49 2224
0.3707847 -2.0548952 -0.062009227 319 21320990 139 36 72 2089
0.45043403 -2.0678928 -0.082782917 306 21320990 137 37 46 2118
0.53716111 -2.0956914 -0.10531774 317 21320990 149 38 86 2166
0.62388468 -2.1110184 -0.12804288 299 21320990 146 39 60 2205
0.3674643 -2.0456862 -0.13793972 377 21320990 163 40 56 2083
0.44685939 -2.0559678 -0.15941694 312 21320990 139 41 70 2110
0.53674668 -2.0965085 -0.18477017 335 21320990 158 42 100 2172
0.61142939 -2.073 -0.20510131 339 21320990 160 43 45 2171
0.36420974 -2.0316432 -0.21307838 370 21320990 160 44 65 2075
0.44576442 -2.0549042 -0.23689587 329 21320990 147 45 35 2116
0.54148996 -2.1196542 -0.26734003 350 21320990 170 46 72 2204
0.61623329 -2.0911701 -0.28786421 372 21320990 180 47 98 2199
0.36037543 -2.0199964 -0.28797275 357 21320990 153 48 57 2072
0.44732958 -2.0664711 -0.31723434 321 21320990 147 49 44 2138
0.5314787 -2.085017 -0.34391293 365 21320990 173 50 37 2179
0.60889781 -2.0684075 -0.36592755 357 21320990 171 51 43 2187
0.35767782 -2.0152488 -0.36480176 401 21320990 174 52 59 2079
0.44164869 -2.0452335 -0.39320287 342 21320990 155 53 63 2129
0.52298915 -2.0544083 -0.41929644 390 21320990 182 54 62 2161
0.60550612 -2.0567534 -0.44634965 394 21320990 189 55 50 2190
0.35410884 -2.0016365 -0.44097483 375 21320990 162 56 99 2080
0.44006759 -2.0430958 -0.47386658 386 21320990 177 57 60 2143
0.51884604 -2.0397713 -0.49869969 368 21320990 172 58 44 2163
0.60047287 -2.040314 -0.52633971 427 21320990 205 59 61 2191
0.35803953 -2.0377433 -0.53094888 418 21320990 191 60 38 2136
0.4359256 -2.032135 -0.55425352 388 21320990 179 61 38 2151
0.51605225 -2.0304193 -0.58082998 384 21320990 181 62 25 2174
0.60769469 -2.0616636 -0.62001526 398 21320990 199 63 43 2237
0.27817804 -1.593919 0.50503892 307 21418460 88 0 15 1695
0.43823341 -2.0473468 0.62842596 351 21418460 168 1 76 2186
0.54179108 -2.1358366 0.63804454 314 21418460 165 2 33 2294
0.6139949 -2.0872769 0.60775572 399 21418460 203 3 46 2259
0.24818854 -1.4178461 0.38883933 432 21418460 96 4 6 1491
0.30671489 -1.4359772 0.38103113 426 21418460 98 5 1 1517
0.5112353 -2.0186322 0.51872832 346 21418460 160 6 75 2146
0.60969085 -2.0804219 0.51823109 407 21418460 202 7 58 2229
0.25987685 -1.4829425 0.34694505 185 21418460 44 8 7 1545
0.30635181 -1.4315861 0.32204157 368 21418460 83 9 1 1499
0.52770412 -2.088407 0.4522014 338 21418460 164 10 45 2201
0.60431987 -2.0687823 0.43144202 354 21418460 171 11 27 2198
0.2455176 -1.3997107 0.27265388 340 21418460 71 12 13 1447
0.38576338 -1.8060663 0.33532169 289 21418460 102 13 38 1877
0.51220584 -2.0287118 0.35930991 332 21418460 150 14 79 2123
0.60755974 -2.0817633 0.35205382 349 21418460 168 15 44 2197
0.26293337 -1.4991529 0.23453568 169 21418460 40 16 1 1540
0.44236824 -2.0733817 0.30588123 327 21418460 150 17 48 2142
0.53501368 -2.1238885 0.29488626 320 21418460 156 18 50 2210
0.62445986 -2.1445405 0.27927953 310 21418460 157 19 61 2251
0.24688424 -1.4077908 0.16701613 325 21418460 67 20 26 1439
0.44615263 -2.09273 0.22920315 331 21418460 153 21 55 2152
0.52633864 -2.0936151 0.21048935 328 21418460 154 22 44 2169
0.61293823 -2.1092234 0.19367357 334 21418460 163 23 90 2205
0.36462799 -2.0815415 0.16921031 315 21418460 141 24 45 2120
0.4406043 -2.0693614 0.1491721 308 21418460 138 25 51 2121
0.52218574 -2.0774028 0.13052417 293 21418460 135 26 80 2146
0.61825371 -2.1322358 0.11428927 303 21418460 150 27 59 2223
0.35789809 -2.0490139 0.09041623 362 21418460 157 28 15 2082
0.44737017 -2.1047451 0.072922893 280 21418460 130 29 39 2153
0.53730118 -2.1460891 0.054570373 276 21418460 135 30 30 2213
0.60459381 -2.0879865 0.032478392 317 21418460 150 31 55 2174
0.36534426 -2.0922906 0.014828198 280 21418460 126 32 57 2124
0.44041967 -2.0757859 -0.0053701983 287 21418460 129 33 41 2122
0.52891117 -2.1136739 -0.0260124 291 21418460 138 34 68 2179
0.60705823 -2.1015763 -0.046929218 314 21418460 150 35 55 2188
0.36228406 -2.0807657 -0.06272164 280 21418460 125 36 93 2113
0.4377372 -2.0706177 -0.082782917 323 21418460 145 37 49 2118
0.52429211 -2.098948 -0.10531774 295 21418460 139 38 82 2166
0.60427046 -2.0917883 -0.1266492 303 21418460 144 39 61 2181
0.35694984 -2.0597003 -0.13873437 362 21418460 159 40 55 2095
0.43423578 -2.058671 -0.15941694 327 21418460 146 41 63 2110
0.51518965 -2.0649598 -0.18170767 312 21418460 142 42 94 2136
0.5986982 -2.0767126 -0.20510131 361 21418460 170 43 50 2171
0.35377112 -2.0456018 -0.21431065 380 21418460 166 44 60 2087
0.43560377 -2.0692694 -0.23823932 332 21418460 150 45 36 2128
0.51696444 -2.0767024 -0.26151776 336 21418460 156 46 82 2156
0.60339051 -2.0949118 -0.28786421 344 21418460 166 47 84 2199
0.3499895 -2.0338809 -0.28964055 369 21418460 160 48 65 2084
0.43708107 -2.0807908 -0.31901491 323 21418460 149 49 41 2150
0.51581883 -2.0767386 -0.34201896 349 21418460 164 50 44 2167
0.59619486 -2.0721047 -0.36592755 364 21418460 174 51 41 2187
0.34331268 -2.0057611 -0.36269614 395 21418460 169 52 61 2067
0.42667249 -2.0363619 -0.39098659 360 21418460 161 53 73 2117
0.51320779 -2.0690045 -0.42162481 336 21418460 158 54 57 2173
0.59612334 -2.0717201 -0.44879544 395 21418460 192 55 60 2202
0.34576443 -2.0268919 -0.44606298 364 21418460 161 56 60 2104
0.42512912 -2.034302 -0.4712131 346 21418460 157 57 54 2131
0.50912946 -2.0542502 -0.50146645 395 21418460 187 58 54 2175
0.58794242 -2.0439599 -0.52633971 419 21418460 201 59 53 2191
0.34358823 -2.0284417 -0.52796596 390 21418460 176 60 27 2124
0.41872382 -2.0120685 -0.54806936 393 21418460 178 61 27 2127
0.50636381 -2.0447724 -0.58403605 413 21418460 197 62 36 2186
0.58864921 -2.0431952 -0.61336333 397 21418460 194 63 43 2213
0.24179094 -1.4374484 0.45498195 401 21516770 93 0 1 1527
