# .PCD v0.7 - Point Cloud Data file format
VERSION 0.7
FIELDS x y z intensity t reflectivity ring noise range
SIZE 4 4 4 4 4 2 1 2 4
TYPE F F F F U U U U U
COUNT 1 1 1 1 1 1 1 1 1
WIDTH 780
HEIGHT 1
VIEWPOINT 0 0 0 1 0 0 0
POINTS 780
DATA ascii
11.016796 -1.1966976 3.3261154 599 1461950 8024 1 72 11570
11.039759 -0.78116059 3.2046857 41 1461950 542 2 17 11522
10.988149 -0.36248657 3.0710633 149 1461950 1939 3 20 11415
10.868716 -1.5957344 2.9675405 454 1461950 5883 4 76 11379
10.835737 -1.1818141 2.8284717 412 1461950 5219 5 46 11261
10.834672 -0.77083009 2.7057989 179 1461950 2237 6 52 11194
11.159945 -0.3794637 2.6692739 298 1461950 3934 7 60 11481
10.676051 -1.5653538 2.486552 482 1461950 5915 8 64 11073
10.624919 -1.1546929 2.3509681 390 1461950 4666 9 43 10943
10.582572 -0.75864941 2.2273126 589 1461950 6919 10 40 10841
10.738297 -0.37450874 2.1509287 66 1461950 791 11 16 10958
10.466399 -1.5329345 2.0295475 523 1461950 6071 12 80 10771
10.439398 -1.1385869 1.9067066 516 1461950 5874 13 41 10673
10.403485 -0.74781853 1.7911335 568 1461950 6364 14 81 10583
10.406266 -0.3654747 1.6904033 57 1461950 631 15 33 10549
10.295326 -1.5080624 1.6033713 533 1461950 5906 16 22 10528
10.277738 -1.1233149 1.4917064 548 1461950 5984 17 70 10446
10.297868 -0.74582732 1.3901018 406 1461950 4401 18 53 10418
10.228775 -0.36549732 1.2797728 304 1461950 3230 19 46 10315
10.105639 -1.4804571 1.1934865 508 1461950 5376 20 65 10283
10.097585 -1.1052301 1.0880759 509 1461950 5308 21 50 10216
10.145835 -0.73962259 0.99189103 457 1461950 4769 22 56 10221
10.031457 -0.36388129 0.88510138 650 1461950 6603 23 92 10077
9.9611692 -1.4612461 0.80614346 539 1461950 5503 24 60 10100
9.9444866 -1.0911074 0.7053498 548 1461950 5507 25 56 10029
9.9490709 -0.72562784 0.6078558 522 1461950 5217 26 73 9994
9.8831892 -0.36437568 0.50913483 681 1461950 6681 27 80 9903
9.7911558 -1.4411942 0.43019363 613 1461950 6020 28 63 9906
9.7445173 -1.0726093 0.33223438 548 1461950 5269 29 42 9809
9.8032913 -0.72428465 0.24247198 561 1461950 5422 30 32 9833
9.762145 -0.36349592 0.14595856 580 1461950 5532 31 57 9770
9.6635628 -1.4229304 0.068192951 556 1461950 5309 32 71 9768
9.6711645 -1.0681229 -0.024623953 555 1461950 5251 33 50 9730
9.6638823 -0.71517205 -0.11568891 508 1461950 4775 34 68 9691
9.6068974 -0.36392784 -0.20624831 627 1461950 5794 35 46 9616
9.4937105 -1.4026605 -0.28499314 615 1461950 5670 36 107 9601
9.5041218 -1.0567265 -0.37404746 588 1461950 5390 37 58 9570
9.6877031 -0.72101516 -0.47290877 400 1461950 3784 38 107 9726
10.256302 -0.38834926 -0.59701073 386 1461950 4075 39 53 10281
9.5647717 -1.4208366 -0.64175409 483 1461950 4540 40 61 9691
10.177414 -1.1362629 -0.77592987 400 1461950 4223 41 70 10270
10.790565 -0.80612653 -0.92385077 323 1461950 3811 42 100 10860
11.459033 -0.44009897 -1.0882369 334 1461950 4427 43 44 11519
10.35322 -1.5416536 -1.0805898 307 1461950 3404 44 73 10523
11.202577 -1.2552711 -1.2700127 172 1461950 2208 45 45 11344
12.158937 -0.91475523 -1.4900205 338 1461950 5106 46 75 12284
13.079618 -0.50554037 -1.7283635 291 1461950 5074 47 107 13203
10.185476 -1.5253989 -1.4454231 62 1461950 666 48 53 10400
12.962234 -1.4581714 -1.9571193 111 1461950 1924 49 47 13190
14.020354 -1.0621784 -2.2473502 218 1461950 4415 50 27 14239
15.064028 -0.58645278 -2.558481 135 1461950 3166 51 69 15291
13.904452 -2.0950167 -2.5062356 304 1461950 6208 52 81 14283
15.052046 -1.7009776 -2.8466115 154 1461950 3648 53 52 15413
13.781428 -1.048432 -2.7336733 538 1461950 10681 54 108 14089
10.923358 -0.42506275 -2.2757719 33 1461950 405 55 57 11166
14.416883 -2.1804612 -3.1631463 158 1461950 3524 56 193 14920
18.077074 -2.0524118 -4.1250496 132 1461950 4608 57 182 18655
10.586294 -0.8074041 -2.5156322 271 1461950 3222 58 35 10911
11.052912 -0.43107012 -2.7373986 41 1461950 527 59 47 11395
10.75522 -1.6395251 -2.7919557 30 1461950 376 60 23 11232
18.111803 -2.0717251 -4.8615069 360 1461950 12807 61 141 18867
10.794127 -0.82533967 -3.0014002 53 1461950 664 62 43 11234
0 -0 -0 6 1461950 0 63 20 0
11.07589 -1.7013785 3.4977295 428 1560090 5893 0 44 11739
10.997827 -1.2629615 3.3226655 494 1560090 6605 1 65 11558
11.011772 -0.84711635 3.1980102 49 1560090 646 2 16 11498
10.962621 -0.42899787 3.0646062 171 1560090 2216 3 22 11391
10.835817 -1.6588873 2.9612815 512 1560090 6606 4 71 11355
10.828281 -1.2482787 2.8284717 456 1560090 5779 5 32 11261
10.7833 -0.83370554 2.6941965 548 1560090 6813 6 70 11146
10.830876 -0.43482357 2.5911555 130 1560090 1611 7 39 11145
10.677805 -1.6325988 2.4892466 504 1560090 6198 8 64 11085
10.640921 -1.2225398 2.3561242 429 1560090 5154 9 56 10967
10.589426 -0.82448018 2.2297781 572 1560090 6734 10 40 10853
10.594717 -0.43460342 2.122663 53 1560090 618 11 15 10814
10.480095 -1.6006849 2.0340695 496 1560090 5783 12 88 10795
10.443944 -1.2039725 1.9088503 465 1560090 5304 13 50 10685
10.398701 -0.81163907 1.7911335 476 1560090 5336 14 59 10583
10.474836 -0.4322497 1.7019408 65 1560090 731 15 24 10621
10.285879 -1.571205 1.6033713 503 1560090 5572 16 37 10528
10.270652 -1.1863568 1.4917064 506 1560090 5517 17 47 10446
10.281241 -0.80806798 1.3885007 413 1560090 4468 18 45 10406
10.190649 -0.42675838 1.2753062 641 1560090 6768 19 49 10279
10.119928 -1.5460361 1.1962719 522 1560090 5551 20 59 10307
10.114319 -1.1699089 1.0906321 483 1560090 5069 21 64 10240
10.105387 -0.79903805 0.98839742 502 1560090 5203 22 57 10185
10.029036 -0.4254263 0.88510138 636 1560090 6462 23 83 10077
9.9638405 -1.5241479 0.80710125 535 1560090 5466 24 51 10112
9.9138231 -1.149348 0.70366186 527 1560090 5271 25 52 10005
9.9563723 -0.78760511 0.60858566 526 1560090 5269 26 80 10006
9.8927412 -0.42552593 0.5097518 637 1560090 6265 27 74 9915
9.8058281 -1.5048817 0.43123591 573 1560090 5655 28 59 9930
9.7615776 -1.135151 0.33304727 507 1560090 4899 29 32 9833
9.7747459 -0.78250825 0.24188016 569 1560090 5472 30 30 9809
9.771718 -0.4239085 0.14613783 591 1560090 5660 31 64 9782
9.6665115 -1.484019 0.068276733 547 1560090 5236 32 66 9780
9.6286707 -1.1232725 -0.024532845 587 1560090 5512 33 51 9694
9.6473522 -0.77349615 -0.11554568 478 1560090 4474 34 50 9679
9.6044836 -0.4228678 -0.20624831 646 1560090 5977 35 67 9616
9.4967804 -1.4627124 -0.28534934 553 1560090 5111 36 100 9613
9.4855499 -1.1136247 -0.37357843 602 1560090 5496 37 49 9558
9.611414 -0.77466667 -0.46940786 400 1560090 3728 38 109 9654
10.193886 -0.44863984 -0.5935266 358 1560090 3736 39 48 10221
9.5322084 -1.4758343 -0.64016479 450 1560090 4207 40 87 9667
10.087067 -1.1888847 -0.76958346 341 1560090 3540 41 91 10186
10.713908 -0.86653763 -0.91772574 286 1560090 3329 42 106 10788
11.396444 -0.50774342 -1.0825684 342 1560090 4486 43 38 11459
10.343566 -1.6051508 -1.0805898 184 1560090 2042 44 72 10523
11.040717 -1.305778 -1.2525477 532 1560090 6654 45 45 11188
12.06999 -0.98257852 -1.4798315 399 1560090 5945 46 70 12200
12.969306 -0.58099413 -1.7142255 313 1560090 5370 47 94 13095
10.281597 -1.6043564 -1.4604332 58 1560090 636 48 43 10508
10.772925 -1.2788731 -1.6277179 52 1560090 621 49 43 10970
13.848233 -1.1346388 -2.2208347 156 1560090 3083 50 31 14071
15.095603 -0.68047118 -2.5645046 147 1560090 3465 51 58 15327
13.774627 -2.1619754 -2.4851792 375 1560090 7531 52 67 14163
14.959351 -1.7835298 -2.8310976 214 1560090 5039 53 63 15329
13.856862 -1.1397284 -2.7499716 322 1560090 6470 54 221 14173
10.850127 -0.48890623 -2.2610974 75 1560090 927 55 81 11094
16.372576 -2.5791028 -3.5956409 32 1560090 918 56 124 16960
10.66225 -1.27687 -2.4347854 100 1560090 1216 57 192 11011
10.732425 -0.88481754 -2.5515995 226 1560090 2765 58 28 11067
10.945329 -0.49415311 -2.7114542 14 1560090 173 59 44 11287
1.2742418 -0.20225325 -0.3310973 14 1560090 2 60 36 1332
18.121773 -2.1855948 -4.867691 283 1560090 10102 61 108 18891
10.858006 -0.89726973 -3.0206366 69 1560090 887 62 68 11306
1.2487819 -0.05585511 -0.36059004 9 1560090 1 63 31 1301
11.065242 -1.7693068 3.4977295 421 1658750 5795 0 54 11739
11.035511 -1.3359444 3.3364646 438 1658750 5906 1 67 11606
11.029342 -0.91657662 3.2046857 138 1658750 1830 2 21 11522
11.040602 -0.49991468 3.0872054 135 1658750 1774 3 29 11475
10.848315 -1.7289901 2.9675405 493 1658750 6389 4 65 11379
10.820418 -1.3146963 2.8284717 494 1658750 6260 5 37 11261
10.777983 -0.89985496 2.6941965 559 1658750 6949 6 74 11146
11.037861 -0.51098752 2.6413746 114 1658750 1465 7 56 11361
10.632942 -1.6925709 2.4811625 489 1658750 5975 8 70 11049
10.633219 -1.2878083 2.3561242 454 1658750 5467 9 59 10967
10.595871 -0.8904236 2.2322435 550 1658750 6488 10 45 10865
10.697633 -0.50459278 2.1438625 49 1658750 583 11 16 10922
10.458438 -1.6631088 2.0318086 509 1658750 5923 12 67 10783
10.43636 -1.2680327 1.9088503 532 1658750 6080 13 60 10685
10.440666 -0.8793996 1.7992575 379 1658750 4288 14 67 10631
10.412829 -0.49370906 1.6923263 428 1658750 4770 15 38 10561
10.276045 -1.6342883 1.6033713 536 1658750 5938 16 35 10528
10.25139 -1.2479188 1.4899929 518 1658750 5644 17 64 10434
10.264239 -0.87013268 1.3868995 413 1658750 4457 18 53 10394
10.211625 -0.49042138 1.2782838 630 1658750 6683 19 54 10303
10.133794 -1.6118462 1.1990575 517 1658750 5513 20 56 10331
10.10695 -1.2319472 1.0906321 512 1658750 5372 21 74 10240
10.100294 -0.86102849 0.98839742 482 1658750 4997 22 41 10185
10.014297 -0.48637542 0.88404733 615 1658750 6233 23 91 10065
9.966114 -1.5871375 0.8080591 556 1658750 5695 24 48 10124
9.9303484 -1.2130594 0.7053498 524 1658750 5266 25 46 10029
9.9155483 -0.84562802 0.60639602 553 1658750 5499 26 89 9970
9.9258518 -0.487984 0.51160258 443 1658750 4390 27 73 9951
9.6425085 -1.5404344 0.42446122 540 1658750 5156 28 41 9774
9.7663336 -1.196484 0.33345371 497 1658750 4815 29 30 9845
9.7697601 -0.84247023 0.24188016 553 1658750 5318 30 39 9809
9.7449656 -0.4826715 0.14577928 624 1658750 5938 31 48 9758
9.6453743 -1.54141 0.068192951 571 1658750 5453 32 60 9768
9.6335077 -1.1837953 -0.024563216 593 1658750 5583 33 50 9706
9.6543789 -0.83370888 -0.11568891 518 1658750 4862 34 42 9691
9.6136904 -0.48239309 -0.2065057 594 1658750 5510 35 62 9628
9.2507563 -1.4829834 -0.27822521 169 1658750 1485 36 111 9373
9.4904385 -1.1732771 -0.37404746 609 1658750 5574 37 45 9570
9.5348339 -0.82740945 -0.46590704 452 1658750 4151 38 105 9582
10.107187 -0.50697881 -0.58864874 364 1658750 3746 39 59 10137
9.4993315 -1.5304859 -0.63857543 409 1658750 3807 40 65 9643
10.067707 -1.2492819 -0.76867682 390 1658750 4040 41 79 10174
10.672656 -0.92914975 -0.91466331 316 1658750 3654 42 102 10752
11.357321 -0.57584631 -1.0791674 339 1658750 4418 43 50 11423
10.35709 -1.6723932 -1.0830543 48 1658750 539 44 67 10547
11.044331 -1.3749712 -1.2538912 636 1658750 7974 45 38 11200
12.01627 -1.0524629 -1.4740092 365 1658750 5396 46 73 12152
12.882328 -0.65632409 -1.7032294 267 1658750 4526 47 72 13011
10.25983 -1.6655087 -1.4587654 62 1658750 688 48 58 10496
10.529364 -1.3155258 -1.5921069 12 1658750 135 49 34 10730
13.68756 -1.2060674 -2.1962132 209 1658750 4041 50 32 13915
13.90961 -0.71255606 -2.3637214 200 1658750 3984 51 41 14127
13.679485 -2.2331305 -2.4704397 283 1658750 5616 52 76 14079
13.801345 -1.7314183 -2.6139033 349 1658750 6990 53 122 14153
16.218298 -1.434196 -3.2202976 384 1658750 10589 54 66 16597
10.870389 -0.55667382 -2.2659891 93 1658750 1152 55 91 11118
10.766706 -1.763803 -2.3668475 50 1658750 628 56 69 11164
10.630991 -1.3393426 -2.4294784 89 1658750 1072 57 134 10987
10.703531 -0.94859219 -2.546066 41 1658750 494 58 53 11043
10.709424 -0.54936785 -2.6537993 49 1658750 596 59 22 11047
14.392666 -2.3750937 -3.7434876 22 1658750 493 60 32 15060
14.197126 -1.800705 -3.8163874 116 1658750 2555 61 175 14811
18.108919 -1.608393 -5.0404501 211 1658750 7524 62 69 18866
10.506458 -0.53454381 -3.0346658 34 1658750 406 63 17 10949
11.042877 -1.8352906 3.4941542 437 1755710 6003 0 53 11727
11.027106 -1.4036319 3.3364646 464 1755710 6255 1 74 11606
10.989068 -0.98115897 3.1946728 506 1755710 6672 2 34 11486
10.968073 -0.56408739 3.0678346 136 1755710 1765 3 31 11403
10.837502 -1.7955216 2.9675405 491 1755710 6363 4 66 11379
10.823669 -1.3825361 2.8314857 501 1755710 6362 5 40 11273
10.76066 -0.96493047 2.6912959 571 1755710 7085 6 60 11134
10.871346 -0.5701474 2.6023152 63 1755710 786 7 34 11193
10.656966 -1.7635089 2.4892466 474 1755710 5830 8 63 11085
10.625116 -1.3530283 2.3561242 460 1755710 5539 9 58 10967
10.590208 -0.95542186 2.2322435 457 1755710 5391 10 43 10865
10.635586 -0.56709021 2.1320851 55 1755710 647 11 18 10862
10.448037 -1.7272493 2.0318086 514 1755710 5980 12 83 10783
10.486943 -1.3395251 1.9195693 456 1755710 5260 13 57 10745
10.458632 -0.94557565 1.8033195 397 1755710 4512 14 58 10655
10.350464 -0.55442381 1.6827116 621 1755710 6844 15 38 10501
10.289226 -1.7011794 1.6070262 503 1755710 5597 16 38 10552
10.267101 -1.3138117 1.49342 509 1755710 5562 17 53 10458
10.270552 -0.93417376 1.3885007 426 1755710 4609 18 44 10406
10.172754 -0.55113703 1.2738173 630 1755710 6646 19 60 10267
10.111954 -1.6720513 1.1976646 542 1755710 5777 20 59 10319
10.087366 -1.2924227 1.089354 538 1755710 5623 21 56 10228
10.09482 -0.92298651 0.98839742 467 1755710 4840 22 57 10185
10.034995 -0.54911911 0.88615537 587 1755710 5977 23 100 10089
9.967989 -1.6502122 0.80901688 504 1755710 5174 24 49 10136
9.9108448 -1.2724437 0.7045058 532 1755710 5334 25 48 10017
9.9340296 -0.90863478 0.6078558 555 1755710 5547 26 65 9994
9.9346371 -0.54954064 0.51221955 498 1755710 4947 27 70 9963
9.5855694 -1.5917153 0.42237669 565 1755710 5350 28 60 9726
9.7707033 -1.257918 0.33386016 471 1755710 4573 29 42 9857
9.7644072 -0.90240049 0.24188016 543 1755710 5223 30 25 9809
9.7538004 -0.54312348 0.14595856 638 1755710 6086 31 48 9770
8.8307838 -1.4668559 0.062496245 184 1755710 1475 32 112 8952
9.6260624 -1.2428832 -0.024563216 605 1755710 5696 33 49 9706
9.625186 -0.89072007 -0.11540242 502 1755710 4695 34 70 9667
9.6225281 -0.54204726 -0.20676309 607 1755710 5644 35 67 9640
9.0876713 -1.5140907 -0.27359456 177 1755710 1505 36 92 9217
9.4830608 -1.2314873 -0.37404746 623 1755710 5702 37 46 9570
9.5057087 -0.88367957 -0.46474007 538 1755710 4915 38 116 9558
10.079966 -0.5676387 -0.58725512 350 1755710 3575 39 52 10113
9.4189053 -1.5768813 -0.63380748 507 1755710 4647 40 78 9571
9.9767942 -1.3002083 -0.76233029 344 1755710 3507 41 64 10090
10.642944 -0.99239826 -0.91262168 283 1755710 3258 42 99 10728
11.317792 -0.64348829 -1.0757663 310 1755710 4015 43 44 11387
10.381949 -1.7418367 -1.0867511 71 1755710 800 44 63 10583
10.503608 -1.3731527 -1.1934358 185 1755710 2107 45 64 10660
11.914711 -1.1172769 -1.4623647 285 1755710 4149 46 68 12056
12.830549 -0.73264337 -1.6969458 269 1755710 4525 47 83 12963
10.202545 -1.7205262 -1.4520943 53 1755710 574 48 51 10448
10.274 -1.3476955 -1.5547154 69 1755710 755 49 30 10478
13.64451 -1.2866925 -2.1905313 196 1755710 3770 50 35 13879
13.893164 -0.79721266 -2.3617134 281 1755710 5592 51 37 14115
13.490812 -2.2874012 -2.4388552 215 1755710 4162 52 62 13899
13.696921 -1.8037506 -2.5961733 435 1755710 8603 53 69 14057
13.033179 -1.2331743 -2.5893157 495 1755710 8816 54 109 13345
10.866769 -0.62336284 -2.2659891 259 1755710 3197 55 42 11118
10.709435 -1.8219656 -2.3566711 136 1755710 1682 56 100 11116
17.676573 -2.3372486 -4.0427918 128 1755710 4279 57 114 18283
18.323227 -1.7372578 -4.3610287 337 1755710 12058 58 112 18915
10.554669 -0.60638362 -2.6163237 270 1755710 3198 59 43 10891
14.045586 -2.4064386 -3.6569848 121 1755710 2612 60 38 14712
14.128343 -1.8801354 -3.8009269 416 1755710 9043 61 45 14751
18.098709 -1.7194769 -5.0404501 246 1755710 8766 62 83 18866
10.641115 -0.60687816 -3.0745773 58 1755710 711 63 28 11093
11.08785 -1.9127505 3.5120318 448 1854470 6231 0 61 11787
11.018287 -1.4712665 3.3364646 474 1854470 6389 1 82 11606
10.982841 -1.0485681 3.1946728 559 1854470 7371 2 30 11486
11.218251 -0.64599311 3.1388607 77 1854470 1044 3 38 11667
10.814864 -1.8600218 2.964411 478 1854470 6182 4 58 11367
10.791958 -1.4458381 2.8254576 512 1854470 6474 5 41 11249
10.742946 -1.0298274 2.6883953 531 1854470 6573 6 77 11122
10.797735 -0.63274539 2.5855756 60 1854470 739 7 28 11121
10.657469 -1.8308452 2.4919412 463 1854470 5706 8 74 11097
10.62823 -1.4197489 2.3587019 461 1854470 5551 9 54 10979
10.630904 -1.024892 2.2421052 411 1854470 4890 10 47 10913
10.561431 -0.62814677 2.1179523 447 1854470 5202 11 23 10790
10.460471 -1.7953116 2.0363307 496 1854470 5796 12 86 10807
10.443419 -1.399143 1.9131379 522 1854470 5981 13 57 10709
10.429088 -1.0074564 1.7992575 431 1854470 4876 14 63 10631
10.346868 -0.61792266 1.6827116 623 1854470 6864 15 54 10501
10.301971 -1.7682936 1.6106813 495 1854470 5532 16 49 10576
10.270617 -1.3783644 1.4951336 523 1854470 5738 17 71 10470
10.264626 -0.9971751 1.3885007 450 1854470 4868 18 52 10406
10.169181 -0.61354548 1.2738173 637 1854470 6720 19 62 10267
10.124998 -1.7380987 1.2004502 499 1854470 5341 20 84 10343
10.079246 -1.3542932 1.089354 489 1854470 5110 21 56 10228
10.07708 -0.98374939 0.98723286 518 1854470 5366 22 61 10173
10.079163 -0.61358768 0.89037132 498 1854470 5119 23 99 10137
9.9223089 -1.7052653 0.80614346 520 1854470 5300 24 57 10100
9.9265776 -1.3364259 0.7061938 521 1854470 5248 25 47 10041
9.9163456 -0.96840757 0.60712588 578 1854470 5762 26 74 9982
9.907155 -0.60901743 0.51098561 457 1854470 4517 27 77 9939
9.5401783 -1.644392 0.42081329 470 1854470 4410 28 37 9690
9.8103418 -1.3242637 0.33548597 527 1854470 5167 29 38 9905
9.7825632 -0.96465129 0.24247198 553 1854470 5343 30 44 9833
9.7263327 -0.60148031 0.14560001 634 1854470 6018 31 46 9746
8.6678886 -1.4945073 0.061407167 335 1854470 2595 32 64 8796
9.6420383 -1.3051435 -0.024623953 599 1854470 5667 33 47 9730
9.6195393 -0.94976228 -0.11540242 531 1854470 4967 34 65 9667
9.6190205 -0.60107976 -0.20676309 605 1854470 5626 35 69 9640
8.9836559 -1.5534725 -0.27074495 395 1854470 3288 36 90 9121
9.4872074 -1.2912682 -0.37451649 619 1854470 5680 37 50 9582
9.4762526 -0.93962353 -0.4635731 606 1854470 5506 38 141 9534
10.028466 -0.62648982 -0.58446777 377 1854470 3816 39 41 10065
9.361865 -1.6264471 -0.63062888 672 1854470 6098 40 65 9523
9.9686279 -1.3614002 -0.76233029 404 1854470 4116 41 77 10090
10.529574 -1.0470357 -0.90343422 318 1854470 3589 42 88 10620
11.182482 -0.70465654 -1.0632958 300 1854470 3796 43 41 11255
10.382826 -1.8075535 -1.0879834 307 1854470 3451 44 65 10595
10.317771 -1.4133015 -1.1732839 93 1854470 1018 45 34 10480
11.836516 -1.183254 -1.4536312 264 1854470 3796 46 79 11984
12.730828 -0.80534768 -1.6843787 270 1854470 4475 47 82 12867
10.226913 -1.7892392 -1.4570976 60 1854470 656 48 41 10484
10.242023 -1.4074788 -1.5511544 319 1854470 3482 49 41 10454
13.624568 -1.3692046 -2.1886373 254 1854470 4879 50 34 13867
14.017888 -0.89069694 -2.3837998 215 1854470 4369 51 87 14247
13.453253 -2.3660436 -2.434644 290 1854470 5592 52 62 13875
13.708961 -1.8909824 -2.6006057 273 1854470 5421 53 66 14081
13.845248 -1.3957756 -2.7523 30 1854470 608 54 92 14185
10.722045 -0.68109107 -2.23664 347 1854470 4173 55 54 10974
10.698054 -1.8876431 -2.3566711 208 1854470 2572 56 93 11116
17.56916 -2.4328241 -4.021564 139 1854470 4592 57 134 18187
18.335457 -1.8520013 -4.3665619 368 1854470 13187 58 155 18939
10.50425 -0.66817653 -2.6047928 236 1854470 2769 59 52 10843
10.803299 -1.9192423 -2.8158185 33 1854470 419 60 44 11328
14.150992 -1.9715899 -3.8102031 378 1854470 8258 61 37 14787
18.064808 -1.8281676 -5.0340381 190 1854470 6755 62 83 18842
10.591163 -0.66925085 -3.0612733 119 1854470 1448 63 31 11045
11.019524 -1.9706655 3.4941542 422 1951550 5799 0 40 11727
11.009051 -1.5388458 3.3364646 519 1951550 6996 1 79 11606
10.987666 -1.1171037 3.1980102 502 1951550 6632 2 36 11498
11.006461 -0.70158088 3.0807483 51 1951550 666 3 23 11451
10.814652 -1.9283792 2.9675405 479 1951550 6208 4 61 11379
10.817391 -1.516868 2.8344998 503 1951550 6401 5 36 11285
10.771177 -1.0992721 2.6970971 408 1951550 5086 6 61 11158
10.782002 -0.69823289 2.5827856 75 1951550 922 7 36 11109
10.623011 -1.892103 2.486552 490 1951550 6013 8 69 11073
10.596106 -1.4816898 2.3535461 458 1951550 5492 9 48 10955
10.577685 -1.0853081 2.2322435 404 1951550 4766 10 34 10865
10.545637 -0.692168 2.1155968 586 1951550 6804 11 27 10778
10.460862 -1.8615267 2.0385919 478 1951550 5600 12 70 10819
10.411252 -1.4599171 1.9088503 496 1951550 5659 13 41 10685
10.42271 -1.0714291 1.7992575 441 1951550 4988 14 67 10631
10.3547 -0.68217689 1.6846346 600 1951550 6627 15 40 10513
10.279251 -1.829394 1.6088537 527 1951550 5878 16 35 10564
10.261967 -1.4413579 1.4951336 508 1951550 5564 17 56 10470
10.246485 -1.0589163 1.3868995 500 1951550 5406 18 69 10394
10.22463 -0.67988098 1.2812616 509 1951550 5424 19 49 10327
10.067204 -1.7918373 1.1948792 520 1951550 5507 20 50 10295
10.070746 -1.4161129 1.089354 525 1951550 5488 21 51 10228
10.058974 -1.0443293 0.98606831 524 1951550 5415 22 62 10161
10.099062 -0.67701983 0.89247936 500 1951550 5165 23 86 10161
9.9587641 -1.7745088 0.80997467 517 1951550 5329 24 59 10148
9.9063377 -1.3956391 0.7053498 553 1951550 5557 25 54 10029
9.9221306 -1.0304722 0.6078558 568 1951550 5675 26 83 9994
9.9151878 -0.67060381 0.51160258 530 1951550 5252 27 68 9951
9.5889168 -1.7134427 0.42341894 434 1951550 4122 28 48 9750
9.8020315 -1.3844339 0.33548597 481 1951550 4715 29 41 9905
9.7645292 -1.0234073 0.24217607 537 1951550 5177 30 37 9821
9.7464008 -0.66277671 0.14595856 667 1951550 6362 31 57 9770
8.6703682 -1.5497758 0.061490946 131 1951550 1020 32 62 8808
9.64573 -1.3659639 -0.024654321 584 1951550 5539 33 51 9742
9.6254644 -1.0100211 -0.11554568 551 1951550 5167 34 60 9679
9.6031818 -0.65926796 -0.2065057 616 1951550 5713 35 71 9628
7.6043963 -1.363075 -0.22942525 302 1951550 1804 36 117 7729
9.4672346 -1.3477663 -0.37404746 648 1951550 5931 37 57 9570
9.4703093 -0.99775106 -0.4635731 601 1951550 5462 38 125 9534
9.9885788 -0.68555063 -0.58237725 354 1951550 3556 39 52 10029
9.3045721 -1.6753724 -0.62745023 704 1951550 6323 40 71 9475
9.8653231 -1.4090065 -0.75507724 434 1951550 4330 41 54 9994
10.534842 -1.1128803 -0.90445507 316 1951550 3574 42 91 10632
11.142195 -0.77078438 -1.0598949 278 1951550 3494 43 49 11219
10.371539 -1.8712274 -1.0879834 467 1951550 5247 44 73 10595
10.332513 -1.479965 -1.1759708 403 1951550 4443 45 36 10504
11.7935 -1.2520868 -1.4492645 333 1951550 4760 46 69 11948
12.666306 -0.87932777 -1.6765243 255 1951550 4187 47 86 12807
10.250821 -1.8583159 -1.462101 78 1951550 859 48 49 10520
10.186209 -1.4635453 -1.5440321 395 1951550 4273 49 42 10406
13.533431 -1.4439774 -2.1753795 225 1951550 4269 50 31 13783
14.578665 -1.0161796 -2.4801757 361 1951550 7924 51 43 14823
13.264144 -2.4167817 -2.4030592 362 1951550 6797 52 68 13695
14.327434 -2.0659549 -2.7202842 188 1951550 4077 53 123 14729
10.711158 -1.1462525 -2.1306314 30 1951550 357 54 49 10981
10.659065 -0.74278402 -2.224411 415 1951550 4939 55 44 10914
10.893921 -1.9912041 -2.4024646 33 1951550 428 56 78 11332
14.461434 -2.0930073 -3.3130858 74 1951550 1659 57 127 14983
18.323748 -1.9644706 -4.3665619 379 1951550 13588 58 133 18939
10.499951 -0.73261678 -2.6047928 304 1951550 3571 59 35 10843
10.677004 -1.9644612 -2.78599 71 1951550 890 60 15 11208
14.150102 -2.0600522 -3.8132951 305 1951550 6674 61 30 14799
10.786726 -1.1585288 -3.0078123 53 1951550 677 62 65 11258
10.586857 -0.73422444 -3.0612733 166 1951550 2022 63 27 11045
11.063542 -2.0486715 3.5120318 384 2049070 5341 0 61 11787
11.010775 -1.6080279 3.3399143 499 2049070 6742 1 59 11618
10.980605 -1.1845016 3.1980102 473 2049070 6249 2 37 11498
10.967361 -0.76668417 3.0710633 46 2049070 597 3 22 11415
10.836794 -2.0010111 2.9769289 479 2049070 6235 4 56 11415
10.819373 -1.5848973 2.8375139 480 2049070 6122 5 29 11297
10.798958 -1.169102 2.7057989 414 2049070 5193 6 66 11194
10.730948 -0.76107419 2.5716259 467 2049070 5709 7 44 11061
10.634199 -1.961491 2.4919412 447 2049070 5511 8 58 11097
10.586815 -1.5466784 2.3535461 430 2049070 5155 9 52 10955
10.570827 -1.1501911 2.2322435 449 2049070 5297 10 36 10865
10.541191 -0.75686181 2.1155968 582 2049070 6757 11 32 10778
10.437653 -1.9235424 2.0363307 492 2049070 5750 12 76 10807
10.437145 -1.5289057 1.9152818 508 2049070 5835 13 47 10721
10.415939 -1.1353616 1.7992575 453 2049070 5123 14 76 10631
10.362134 -0.74655044 1.6865574 577 2049070 6386 15 51 10525
10.267833 -1.8924319 1.6088537 509 2049070 5678 16 31 10564
10.25293 -1.504297 1.4951336 514 2049070 5629 17 57 10470
10.227973 -1.1204727 1.3852984 477 2049070 5136 18 57 10382
10.232142 -0.74346828 1.2827504 435 2049070 4655 19 59 10339
10.102907 -1.8622172 1.2004502 518 2049070 5546 20 72 10343
10.085478 -1.481347 1.0919101 489 2049070 5135 21 51 10252
10.052378 -1.1060303 0.98606831 529 2049070 5458 22 44 10161
10.070874 -0.73722833 0.89037132 497 2049070 5110 23 89 10137
9.9594517 -1.8377519 0.81093246 531 2049070 5487 24 59 10160
9.933116 -1.4616249 0.70788175 559 2049070 5658 25 50 10065
9.9156218 -1.0913339 0.6078558 549 2049070 5487 26 65 9994
9.8989353 -0.73054761 0.51098561 535 2049070 5289 27 62 9939
9.6018 -1.7766094 0.42446122 359 2049070 3426 28 42 9774
9.7814875 -1.4428018 0.33507949 546 2049070 5340 29 46 9893
9.769989 -1.0846257 0.24247198 555 2049070 5364 30 24 9833
9.7301846 -0.72167957 0.14577928 633 2049070 6023 31 52 9758
8.7314911 -1.61605 0.061993591 41 2049070 320 32 52 8880
9.637167 -1.4251233 -0.024654321 566 2049070 5368 33 53 9742
9.631011 -1.0703881 -0.11568891 543 2049070 5103 34 73 9691
9.61092 -0.71907467 -0.20676309 590 2049070 5486 35 65 9640
7.5605092 -1.4031428 -0.22835663 332 2049070 1966 36 96 7693
9.4825077 -1.4093564 -0.37498552 620 2049070 5703 37 52 9594
9.4759207 -1.0571699 -0.46415657 584 2049070 5320 38 131 9546
9.9363995 -0.74325216 -0.57958996 375 2049070 3732 39 50 9981
9.2823467 -1.7302384 -0.62665552 548 2049070 4908 40 100 9463
9.8328218 -1.4659834 -0.75326395 433 2049070 4308 41 63 9970
10.468403 -1.1708548 -0.89935088 395 2049070 4417 42 91 10572
11.06578 -0.83375174 -1.0530928 296 2049070 3672 43 51 11147
10.324662 -1.9282566 -1.0842866 421 2049070 4698 44 72 10559
10.29965 -1.5398099 -1.1732839 205 2049070 2247 45 45 10480
11.738247 -1.319106 -1.4434422 330 2049070 4677 46 86 11900
12.518318 -0.94626957 -1.6576738 319 2049070 5123 47 61 12663
10.204186 -1.9146044 -1.4570976 68 2049070 744 48 40 10484
10.200508 -1.5295388 -1.5475932 115 2049070 1249 49 24 10430
13.218172 -1.4924239 -2.1261363 124 2049070 2244 50 37 13471
14.548561 -1.1038233 -2.47616 252 2049070 5511 51 44 14799
13.237455 -2.4959345 -2.4009538 48 2049070 904 52 82 13683
13.591425 -2.045032 -2.5828755 80 2049070 1556 53 53 13985
15.254137 -1.7271521 -3.0363584 37 2049070 917 54 64 15649
10.654307 -0.80817282 -2.224411 435 2049070 5176 55 57 10914
10.708653 -2.0253205 -2.3643034 43 2049070 529 56 52 11152
14.436749 -2.1799541 -3.3104324 62 2049070 1393 57 97 14971
18.334555 -2.0794981 -4.3720956 261 2049070 9369 58 168 18963
10.483644 -0.79614741 -2.6019101 461 2049070 5413 59 62 10831
13.667779 -2.601536 -3.5704818 27 2049070 550 60 42 14364
14.263292 -2.1659856 -3.8473079 86 2049070 1911 61 32 14931
18.098461 -2.0562398 -5.0500684 220 2049070 7862 62 109 18902
18.05529 -1.363546 -5.2231507 42 2049070 1478 63 45 18845
11.062014 -2.1186721 3.5156071 377 2147780 5243 0 48 11799
11.023425 -1.6790197 3.3468134 500 2147780 6783 1 70 11642
10.961679 -1.2505487 3.1946728 361 2147780 4759 2 35 11486
11.04312 -0.84010112 3.0936623 67 2147780 884 3 20 11499
10.801554 -2.0631199 2.97067 485 2147780 6287 4 57 11391
10.786481 -1.6477458 2.8314857 503 2147780 6388 5 37 11273
10.768444 -1.2326925 2.6999977 522 2147780 6519 6 65 11170
10.714439 -0.82600659 2.568836 592 2147780 7221 7 53 11049
10.63345 -2.0288959 2.4946361 393 2147780 4855 8 70 11109
10.611883 -1.6169047 2.3612802 463 2147780 5588 9 54 10991
10.586905 -1.2177148 2.2371745 458 2147780 5426 10 47 10889
10.536348 -0.82152706 2.1155968 603 2147780 7001 11 38 10778
10.425653 -1.9875505 2.0363307 474 2147780 5540 12 72 10807
10.43924 -1.5947011 1.9174255 488 2147780 5618 13 45 10733
10.408777 -1.1992512 1.7992575 460 2147780 5203 14 73 10631
10.369167 -0.81104094 1.6884804 477 2147780 5293 15 26 10537
10.267678 -1.9576197 1.6106813 514 2147780 5746 16 35 10576
10.266988 -1.5707719 1.4985609 495 2147780 5457 17 60 10494
10.220905 -1.1832092 1.3852984 489 2147780 5276 18 58 10382
10.215518 -0.80530173 1.2812616 452 2147780 4816 19 54 10327
10.126414 -1.9308697 1.2046286 503 2147780 5423 20 70 10379
10.087993 -1.5450088 1.0931883 517 2147780 5451 21 63 10264
10.069129 -1.1704478 0.98839742 562 2147780 5826 22 50 10185
10.066161 -0.79900819 0.89037132 493 2147780 5068 23 100 10137
9.9244881 -1.8943418 0.80901688 523 2147780 5378 24 67 10136
9.9239607 -1.5225458 0.70788175 521 2147780 5283 25 61 10065
9.9087381 -1.1521544 0.6078558 543 2147780 5426 26 83 9994
9.8703747 -0.78936195 0.5097518 557 2147780 5479 27 71 9915
9.6378193 -1.8445057 0.42654574 102 2147780 980 28 43 9822
9.7605972 -1.5009699 0.33467305 451 2147780 4400 29 33 9881
9.7750645 -1.1459497 0.24276789 354 2147780 3429 30 27 9845
9.7136135 -0.78040832 0.14560001 621 2147780 5894 31 54 9746
6.871058 -1.3153702 0.048840899 352 2147780 1725 32 61 6996
9.6045218 -1.4805725 -0.024593584 588 2147780 5550 33 39 9718
9.6242619 -1.1294627 -0.11568891 570 2147780 5358 34 65 9691
9.6182852 -0.77900118 -0.20702046 595 2147780 5546 35 68 9652
7.4928589 -1.4382018 -0.22657561 371 2147780 2164 36 73 7633
9.4736814 -1.4675134 -0.37498552 619 2147780 5702 37 65 9594
9.4573526 -1.1138911 -0.4635731 576 2147780 5236 38 115 9534
9.8719482 -0.79937232 -0.57610583 339 2147780 3333 39 40 9921
9.2362833 -1.7803624 -0.62427157 388 2147780 3450 40 87 9427
9.7763472 -1.5189408 -0.74963742 417 2147780 4109 41 64 9922
10.377904 -1.2252525 -0.89220506 373 2147780 4104 42 104 10488
11.012829 -0.89775193 -1.0485581 346 2147780 4258 43 44 11099
10.277476 -1.9847811 -1.0805898 430 2147780 4766 44 76 10523
10.407833 -1.6213331 -1.1867185 62 2147780 692 45 47 10600
11.611648 -1.3770777 -1.4288865 316 2147780 4390 46 78 11780
12.476705 -1.0201542 -1.6529611 335 2147780 5346 47 78 12627
10.238911 -1.9862325 -1.4637688 61 2147780 672 48 45 10532
10.167481 -1.5884355 -1.5440321 51 2147780 550 49 27 10406
10.914318 -1.3001736 -1.7568127 69 2147780 860 50 72 11131
14.30569 -1.1737224 -2.4360034 172 2147780 3649 51 98 14559
10.867984 -2.118305 -1.9735092 68 2147780 866 52 62 11247
13.47376 -2.1119523 -2.5629292 111 2147780 2129 53 50 13877
15.114676 -1.8053594 -3.0107467 127 2147780 3052 54 141 15517
10.637439 -0.87257075 -2.2219653 113 2147780 1340 55 145 10902
13.895625 -2.7164865 -3.0715592 74 2147780 1558 56 89 14488
16.619659 -2.6139746 -3.8145928 79 2147780 2360 57 79 17251
18.309855 -2.1905704 -4.3693285 320 2147780 11493 58 113 18951
10.594656 -0.86999214 -2.6307373 245 2147780 2943 59 69 10951
13.708583 -2.696568 -3.5853963 65 2147780 1345 60 39 14424
10.894161 -1.72281 -2.9413316 24 2147780 310 61 25 11415
18.039577 -2.1617477 -5.0372438 313 2147780 11138 62 77 18854
1.2803545 -0.10459784 -0.37056792 32 2147780 6 63 59 1337
11.060043 -2.1887314 3.5191827 418 2244490 5826 0 44 11811
11.012916 -1.7466266 3.3468134 492 2244490 6662 1 57 11642
10.988131 -1.3219149 3.2046857 379 2244490 5028 2 26 11522
10.911052 -0.89742321 3.0581493 436 2244490 5631 3 25 11367
10.856883 -2.1428173 2.9894469 492 2244490 6471 4 59 11463
10.810581 -1.7193727 2.840528 483 2244490 6173 5 31 11309
10.772238 -1.3001385 2.7028983 486 2244490 6072 6 47 11182
10.709169 -0.89173365 2.568836 607 2244490 7405 7 48 11049
10.620801 -2.0941033 2.4946361 445 2244490 5496 8 74 11109
10.613338 -1.6838239 2.3638582 471 2244490 5698 9 46 11003
10.579234 -1.2826519 2.2371745 456 2244490 5403 10 42 10889
10.542835 -0.88714808 2.1179523 570 2244490 6633 11 32 10790
10.44795 -2.0583177 2.0431139 495 2244490 5825 12 68 10843
10.405936 -1.6550159 1.9131379 509 2244490 5833 13 50 10709
10.401223 -1.2630956 1.7992575 457 2244490 5168 14 76 10631
10.42301 -0.87963009 1.6980948 410 2244490 4600 15 37 10597
10.278746 -2.0251694 1.6143365 511 2244490 5738 16 39 10600
10.221969 -1.6281347 1.49342 484 2244490 5289 17 54 10458
10.225257 -1.2473413 1.3868995 518 2244490 5591 18 53 10394
10.234113 -0.86998498 1.2842392 464 2244490 4968 19 41 10351
10.102682 -1.9906636 1.2032357 531 2244490 5712 20 67 10367
10.101888 -1.6106356 1.0957444 507 2244490 5371 21 67 10288
10.061758 -1.2322088 0.98839742 507 2244490 5255 22 53 10185
10.061069 -0.86075795 0.89037132 507 2244490 5214 23 76 10137
9.9244137 -1.9575166 0.80997467 541 2244490 5577 24 60 10148
9.9144316 -1.5834094 0.70788175 560 2244490 5677 25 65 10065
9.9133711 -1.214388 0.60858566 542 2244490 5430 26 74 10006
9.925045 -0.85505366 0.51283652 593 2244490 5903 27 78 9975
9.5675144 -1.8919787 0.42394006 401 2244490 3818 28 154 9762
9.6801491 -1.5494581 0.33223438 281 2244490 2702 29 24 9809
9.7083206 -1.1985575 0.24128836 531 2244490 5081 30 35 9785
9.7325506 -0.84206378 0.14595856 603 2244490 5751 31 55 9770
6.8275428 -1.35052 0.048589576 362 2244490 1756 32 64 6960
9.441226 -1.5147641 -0.024198791 384 2244490 3514 33 198 9562
9.6409674 -1.1914382 -0.11597542 542 2244490 5119 34 76 9715
9.6013727 -0.83696133 -0.20676309 589 2244490 5469 35 50 9640
7.4721274 -1.4818166 -0.2262194 340 2244490 1976 36 93 7621
9.4763365 -1.5275234 -0.37545455 627 2244490 5790 37 63 9606
9.4741287 -1.1748495 -0.46474007 598 2244490 5461 38 140 9558
9.8071842 -0.85472971 -0.57262164 351 2244490 3411 39 33 9861
9.2721577 -1.8463552 -0.62745023 356 2244490 3198 40 85 9475
9.7314062 -1.5731699 -0.74691755 397 2244490 3884 41 71 9886
10.298999 -1.2800587 -0.88608009 392 2244490 4253 42 111 10416
10.95951 -0.96113378 -1.0440234 382 2244490 4661 43 39 11051
10.21828 -2.0384641 -1.0756607 480 2244490 5271 44 72 10475
10.362375 -1.6794406 -1.182688 57 2244490 633 45 31 10564
11.54388 -1.4409227 -1.4216086 260 2244490 3572 46 113 11720
12.410954 -1.0914794 -1.6451067 268 2244490 4238 47 75 12567
10.249835 -2.0536892 -1.4671044 57 2244490 631 48 42 10556
10.239538 -1.6641178 -1.556496 64 2244490 701 49 33 10490
10.800317 -1.3538536 -1.7397671 71 2244490 860 50 27 11023
13.331844 -1.1762187 -2.2713611 417 2244490 7677 51 51 13575
10.738966 -2.1616375 -1.9524529 139 2244490 1727 52 64 11127
13.309229 -2.1699152 -2.5341177 182 2244490 3436 53 58 13721
14.53099 -1.8261421 -2.8966575 553 2244490 12327 54 103 14929
17.009846 -1.5004159 -3.5549002 121 2244490 3672 55 34 17442
13.855704 -2.7970562 -3.0664711 95 2244490 1997 56 65 14464
14.466658 -2.3663971 -3.3237 58 2244490 1300 57 53 15031
18.261314 -2.2985017 -4.3610287 250 2244490 8940 58 130 18915
10.914016 -0.96367067 -2.7114542 297 2244490 3778 59 49 11287
14.215757 -2.8870451 -3.7226079 26 2244490 593 60 64 14976
10.871943 -1.7877415 -2.9382396 43 2244490 557 61 16 11403
18.025972 -2.2723956 -5.0372438 109 2244490 3876 62 111 18854
1.2452319 -0.10942411 -0.36059004 40 2244490 7 63 36 1301
11.035182 -2.2542605 3.5156071 395 2342370 5493 0 51 11799
10.99065 -1.8122977 3.3433638 503 2342370 6797 1 55 11630
11.002684 -1.3922058 3.2113609 364 2342370 4848 2 34 11546
10.939878 -0.96740949 3.0678346 649 2342370 8436 3 31 11403
10.820827 -2.2047677 2.9831879 491 2342370 6419 4 50 11439
10.811287 -1.7875675 2.8435419 530 2342370 6788 5 35 11321
10.740955 -1.363279 2.6970971 444 2342370 5534 6 60 11158
10.703496 -0.95742708 2.568836 625 2342370 7625 7 51 11049
10.630669 -2.1638968 2.5000255 498 2342370 6178 8 63 11133
10.625933 -1.7527293 2.3690143 438 2342370 5320 9 53 11027
10.559515 -1.3460556 2.234709 439 2342370 5189 10 45 10877
10.56063 -0.95393801 2.122663 439 2342370 5130 11 32 10814
10.458221 -2.127084 2.0476363 496 2342370 5861 12 79 10867
10.418883 -1.7226865 1.9174255 472 2342370 5434 13 42 10733
10.393277 -1.3268925 1.7992575 458 2342370 5180 14 68 10631
10.393824 -0.94143099 1.6942492 414 2342370 4624 15 35 10573
10.266126 -2.0882006 1.6143365 552 2342370 6200 16 31 10600
10.235221 -1.6947052 1.4968473 492 2342370 5401 17 50 10482
10.217411 -1.3100587 1.3868995 508 2342370 5484 18 43 10394
10.216724 -0.93168259 1.2827504 499 2342370 5329 19 56 10339
10.090278 -2.0526149 1.2032357 517 2342370 5562 20 64 10367
10.068274 -1.6686876 1.0931883 525 2342370 5536 21 63 10264
10.065853 -1.2954479 0.98956198 536 2342370 5579 22 60 10197
10.043695 -0.92138338 0.88931739 485 2342370 4976 23 76 10125
9.9473791 -2.0255346 0.81284803 514 2342370 5327 24 43 10184
9.7273989 -1.6148087 0.69522214 475 2342370 4636 25 56 9885
9.8938532 -1.2736632 0.6078558 555 2342370 5545 26 88 9994
9.8718777 -0.91152894 0.5103687 573 2342370 5649 27 83 9927
6.2314844 -1.2720577 0.27645999 775 2342370 3143 28 68 6366
9.6586294 -1.6068572 0.33182797 262 2342370 2513 29 24 9797
9.7007828 -1.2581041 0.24128836 575 2342370 5503 30 34 9785
9.7272005 -0.90176576 0.14595856 581 2342370 5543 31 40 9770
6.8191276 -1.3923876 0.048589576 319 2342370 1547 32 78 6960
8.5085039 -1.4187216 -0.021830032 356 2342370 2653 33 59 8626
9.5858784 -1.2443929 -0.11540242 553 2342370 5171 34 79 9667
9.596056 -0.89585847 -0.20676309 598 2342370 5553 35 52 9640
7.4628944 -1.5276369 -0.2262194 344 2342370 1999 36 99 7621
9.478611 -1.5876211 -0.37592354 650 2342370 6018 37 59 9618
9.4667416 -1.2329595 -0.46474007 629 2342370 5745 38 127 9558
9.7778997 -0.91266274 -0.57122803 310 2342370 2996 39 44 9837
9.3544827 -1.9224966 -0.63380748 345 2342370 3163 40 84 9571
9.6861687 -1.6269051 -0.74419761 444 2342370 4311 41 77 9850
10.255383 -1.3385855 -0.88301754 324 2342370 3493 42 89 10380
10.929618 -1.0261286 -1.041756 410 2342370 4981 43 37 11027
10.193889 -2.098717 -1.0744284 385 2342370 4217 44 97 10463
10.281322 -1.7311119 -1.1746274 46 2342370 502 45 50 10492
10.341971 -1.3553953 -1.2745959 274 2342370 3030 46 66 10508
12.309269 -1.1586916 -1.6325396 356 2342370 5542 47 78 12471
10.213766 -2.1117301 -1.4637688 62 2342370 693 48 62 10532
10.205731 -1.722964 -1.5529349 199 2342370 2176 49 38 10466
10.568587 -1.3907242 -1.7037816 11 2342370 126 50 18 10795
13.359712 -1.2613355 -2.2773845 294 2342370 5438 51 53 13611
10.644531 -2.210674 -1.9377133 21 2342370 262 52 58 11043
13.191012 -2.2338161 -2.5141714 217 2342370 4030 53 58 13613
14.542852 -1.9183471 -2.9013143 491 2342370 10967 54 57 14953
13.105509 -1.2371045 -2.7404647 94 2342370 1692 55 50 13446
14.6075 -3.0422213 -3.2369246 137 2342370 3187 56 149 15268
15.06336 -2.5590007 -3.464334 77 2342370 1900 57 70 15667
18.165834 -2.3998029 -4.3416619 251 2342370 8903 58 107 18831
10.8963 -1.029524 -2.7085714 513 2342370 6527 59 62 11275
10.614202 -2.2235131 -2.7830071 117 2342370 1464 60 20 11196
10.803622 -1.8446593 -2.9227791 175 2342370 2250 61 17 11343
18.000227 -2.3814416 -5.0340381 220 2342370 7821 62 81 18842
10.795235 -1.0154128 -3.1277928 129 2342370 1640 63 27 11285
11.04356 -2.3266518 3.5227582 435 2440360 6074 0 55 11823
10.990652 -1.8816404 3.3468134 499 2440360 6770 1 62 11642
10.959656 -1.4551396 3.2013481 392 2440360 5189 2 32 11510
10.910724 -1.0323397 3.0613778 625 2440360 8089 3 38 11379
10.841107 -2.2782691 2.9925764 459 2440360 6050 4 58 11475
10.82301 -1.8578008 2.8495703 508 2440360 6532 5 54 11345
10.755472 -1.4322325 2.7028983 460 2440360 5758 6 61 11182
10.709039 -1.0241957 2.5716259 594 2440360 7262 7 51 11061
10.617191 -2.2290845 2.5000255 460 2440360 5706 8 76 11133
10.603427 -1.8159175 2.3664362 407 2440360 4933 9 52 11015
10.585978 -1.4154916 2.2421052 451 2440360 5368 10 32 10913
10.578002 -1.0209798 2.1273742 440 2440360 5164 11 41 10838
10.444973 -2.1912143 2.0476363 487 2440360 5753 12 94 10867
10.408117 -1.7865832 1.9174255 481 2440360 5546 13 66 10733
10.384939 -1.3906395 1.7992575 479 2440360 5417 14 75 10631
10.387852 -1.0051886 1.6942492 475 2440360 5305 15 46 10573
10.264728 -2.1535883 1.616164 518 2440360 5830 16 37 10612
10.236336 -1.7594874 1.4985609 517 2440360 5699 17 58 10494
10.24454 -1.3774815 1.391703 480 2440360 5226 18 68 10430
10.210815 -0.99435371 1.2827504 509 2440360 5436 19 50 10339
10.100822 -2.1193843 1.2060213 502 2440360 5425 20 71 10391
10.069603 -1.7324569 1.0944662 537 2440360 5666 21 54 10276
10.045878 -1.3555893 0.98839742 516 2440360 5358 22 64 10185
10.037852 -0.98299295 0.88931739 536 2440360 5497 23 90 10125
6.329217 -1.3292836 0.51784742 486 2440360 2048 24 179 6488
9.729104 -1.6764972 0.69606608 321 2440360 3139 25 57 9897
9.8977222 -1.3359488 0.60858566 550 2440360 5508 26 93 10006
9.8660984 -0.97208452 0.5103687 587 2440360 5785 27 99 9927
6.2118301 -1.3077996 0.27593887 837 2440360 3378 28 52 6354
9.5894966 -1.6558874 0.32979572 450 2440360 4264 29 24 9737
9.680994 -1.3159873 0.24099246 569 2440360 5432 30 38 9773
9.7453651 -0.96379554 0.14631711 611 2440360 5857 31 52 9794
6.7869716 -1.4292573 0.048422024 367 2440360 1768 32 63 6936
8.5114632 -1.4729483 -0.021860402 331 2440360 2467 33 47 8638
9.5899525 -1.3048049 -0.11554568 579 2440360 5421 34 50 9679
9.5903788 -0.95472193 -0.20676309 582 2440360 5413 35 58 9640
7.4064364 -1.5634898 -0.2247946 346 2440360 1985 36 102 7573
9.4450645 -1.6416444 -0.37498552 471 2440360 4331 37 167 9594
9.4589987 -1.2910231 -0.46474007 641 2440360 5853 38 146 9558
9.7005901 -0.96552253 -0.567047 400 2440360 3812 39 34 9765
9.3542233 -1.9823407 -0.63460213 503 2440360 4623 40 67 9583
9.6170635 -1.6760358 -0.73966444 396 2440360 3791 41 52 9790
10.211438 -1.3966256 -0.87995511 329 2440360 3521 42 105 10344
10.875567 -1.0884136 -1.0372213 403 2440360 4854 43 39 10979
10.099085 -2.1438751 -1.0658027 425 2440360 4582 44 74 10379
10.458453 -1.826997 -1.1961226 48 2440360 543 45 53 10684
10.345262 -1.4204472 -1.2760514 96 2440360 1057 46 57 10520
12.266416 -1.2306353 -1.6278269 333 2440360 5154 47 81 12435
10.235484 -2.1817932 -1.4687723 77 2440360 856 48 38 10568
10.206656 -1.7876002 -1.5547154 63 2440360 688 49 36 10478
10.642026 -1.4668719 -1.7170395 15 2440360 175 50 24 10879
13.375263 -1.3456539 -2.2814002 146 2440360 2708 51 39 13635
10.549902 -2.2586339 -1.9229739 49 2440360 593 52 68 10959
13.258367 -2.3289957 -2.529685 178 2440360 3348 53 61 13697
14.55413 -2.0107663 -2.9059708 345 2440360 7729 54 50 14977
14.652326 -1.4738778 -3.0657496 143 2440360 3244 55 189 15042
14.370705 -3.0850263 -3.1885872 284 2440360 6430 56 87 15040
14.033139 -2.4726691 -3.2308283 108 2440360 2296 57 52 14611
18.162333 -2.5128214 -4.3444281 261 2440360 9270 58 105 18843
10.878188 -1.0951961 -2.7056885 85 2440360 1074 59 39 11263
10.691252 -2.3082225 -2.8068702 18 2440360 226 60 28 11292
10.746431 -1.902828 -2.9104106 464 2440360 5915 61 38 11295
18.031094 -2.4981921 -5.0468626 36 2440360 1298 62 71 18890
10.536409 -1.0563284 -3.0546217 985 2440360 11969 63 64 11021
11.051464 -2.3992302 3.5299091 446 2537020 6266 0 60 11847
11.001533 -1.9530604 3.353713 496 2537020 6745 1 52 11666
10.996187 -1.5287081 3.2146986 419 2537020 5593 2 40 11558
10.904184 -1.0992672 3.0613778 622 2537020 8050 3 35 11379
10.826924 -2.3447459 2.9925764 446 2537020 5878 4 72 11475
10.788536 -1.920104 2.8435419 516 2537020 6609 5 37 11321
10.781079 -1.5030233 2.7116001 422 2537020 5305 6 53 11218
10.760608 -1.0957978 2.5855756 431 2537020 5325 7 53 11121
10.614743 -2.2966614 2.5027201 448 2537020 5571 8 59 11145
10.615164 -1.885043 2.3715925 426 2537020 5187 9 42 11039
10.553832 -1.4771637 2.2371745 501 2537020 5936 10 45 10889
10.536424 -1.0822591 2.1203077 449 2537020 5237 11 22 10802
10.442851 -2.2577527 2.0498974 505 2537020 5979 12 91 10879
10.420208 -1.8545502 1.9217131 468 2537020 5422 13 58 10757
10.399636 -1.4576174 1.8033195 459 2537020 5216 14 62 10655
10.381489 -1.0689083 1.6942492 510 2537020 5696 15 47 10573
10.262912 -2.2190373 1.6179916 538 2537020 6069 16 42 10624
10.23704 -1.824347 1.5002745 518 2537020 5722 17 68 10506
10.200565 -1.4353435 1.3868995 485 2537020 5235 18 50 10394
10.204522 -1.0569874 1.2827504 500 2537020 5340 19 48 10339
10.110928 -2.1863601 1.2088069 290 2537020 3147 20 338 10415
10.082276 -1.7984008 1.0970224 509 2537020 5405 21 59 10300
10.049198 -1.4188739 0.98956198 530 2537020 5508 22 40 10197
10.031632 -1.0445656 0.88931739 554 2537020 5681 23 102 10125
6.3209414 -1.368094 0.51784742 409 2537020 1724 24 58 6488
9.7186337 -1.7361623 0.69606608 446 2537020 4373 25 60 9897
9.9011993 -1.39833 0.60931551 535 2537020 5371 26 86 10018
9.8599482 -1.0326035 0.5103687 566 2537020 5580 27 87 9927
6.2271214 -1.3509736 0.27698115 681 2537020 2769 28 46 6378
9.5437393 -1.7083566 0.32857639 618 2537020 5813 29 29 9701
9.6964912 -1.3787416 0.24158427 594 2537020 5699 30 25 9797
9.727335 -1.0223197 0.14613783 606 2537020 5795 31 50 9782
6.7780738 -1.4708744 0.048422024 342 2537020 1648 32 59 6936
8.5376987 -1.5315022 -0.021951508 328 2537020 2471 33 66 8674
9.617404 -1.368695 -0.11597542 565 2537020 5336 34 76 9715
9.5962706 -1.014811 -0.20702046 588 2537020 5481 35 65 9652
7.3732624 -1.6038065 -0.22408219 339 2537020 1932 36 102 7549
7.7826886 -1.4019569 -0.309322 346 2537020 2165 37 45 7914
9.4508991 -1.3490381 -0.46474007 624 2537020 5698 38 146 9558
9.6706572 -1.0225067 -0.56565332 391 2537020 3706 39 53 9741
9.1664133 -2.0013878 -0.62268227 118 2537020 1046 40 76 9403
9.5948238 -1.7328868 -0.73875779 463 2537020 4431 41 64 9778
10.119823 -1.4474053 -0.87280929 381 2537020 4011 42 111 10260
10.785529 -1.1462866 -1.0292856 351 2537020 4162 43 39 10895
10.07408 -2.2032511 -1.0645704 157 2537020 1691 44 81 10367
10.411844 -1.8847622 -1.1920923 62 2537020 700 45 32 10648
10.300979 -1.4788198 -1.2716846 56 2537020 620 46 69 10484
12.187655 -1.2983164 -1.6184018 286 2537020 4375 47 89 12363
10.256724 -2.2522018 -1.4737755 67 2537020 749 48 43 10604
10.18382 -1.8480744 -1.5529349 62 2537020 676 49 28 10466
10.527269 -1.5169324 -1.6999937 21 2537020 242 50 14 10771
13.754965 -1.4691622 -2.3476586 179 2537020 3530 51 80 14031
10.535845 -2.3233242 -1.9229739 18 2537020 222 52 61 10959
13.522299 -2.460984 -2.5828755 137 2537020 2685 53 84 13985
14.553169 -2.1017137 -2.9082992 144 2537020 3238 54 100 14989
16.570486 -1.7695944 -3.4692988 118 2537020 3408 55 158 17022
14.09959 -3.1174464 -3.1326172 255 2537020 5569 56 108 14776
14.00619 -2.5566268 -3.2281747 167 2537020 3550 57 50 14599
18.054121 -2.6108465 -4.3222947 191 2537020 6719 58 94 18747
10.975507 -1.1730644 -2.7316332 30 2537020 394 59 59 11371
13.695009 -3.0447946 -3.6003106 32 2537020 666 60 32 14484
10.768767 -1.9750059 -2.919687 137 2537020 1755 61 32 11331
10.828329 -1.5680311 -3.0334606 22 2537020 281 62 20 11354
10.69024 -1.1380461 -3.1011851 102 2537020 1273 63 40 11189
11.025356 -2.4644969 3.5263338 433 2635780 6058 0 57 11835
10.978038 -2.0184493 3.3502634 478 2635780 6487 1 46 11654
10.975194 -1.5944935 3.2113609 386 2635780 5151 2 66 11546
10.93171 -1.1698427 3.0710633 574 2635780 7476 3 34 11415
10.823641 -2.413656 2.9957058 486 2635780 6407 4 53 11487
10.787974 -1.9883705 2.8465562 486 2635780 6237 5 38 11333
10.74861 -1.5657893 2.7057989 474 2635780 5934 6 56 11194
10.730474 -1.1592957 2.5799956 467 2635780 5745 7 53 11097
10.623279 -2.3668349 2.5081096 471 2635780 5881 8 62 11169
10.59187 -1.9480211 2.3690143 422 2635780 5126 9 50 11027
10.56781 -1.5452913 2.2421052 490 2635780 5832 10 39 10913
10.529584 -1.146889 2.1203077 444 2635780 5177 11 34 10802
10.428801 -2.3217864 2.0498974 506 2635780 5993 12 78 10879
