# .PCD v0.7 - Point Cloud Data file format
VERSION 0.7
FIELDS x y z intensity t reflectivity ring noise range
SIZE 4 4 4 4 4 2 1 2 4
TYPE F F F F U U U U U
COUNT 1 1 1 1 1 1 1 1 1
WIDTH 794
HEIGHT 1
VIEWPOINT 0 0 0 1 0 0 0
POINTS 794
DATA ascii
3.8321571 5.7529674 0.74043691 720 84025540 3481 21 82 6952
3.5897303 5.8370061 0.66815084 797 84025540 3781 22 64 6885
3.3595033 5.9380684 0.60157382 840 84025540 3941 23 114 6849
4.0038342 5.5581336 0.54849684 769 84025540 3630 24 53 6872
3.7492313 5.6252837 0.47663334 686 84025540 3153 25 60 6777
3.5192289 5.721921 0.40933254 626 84025540 2835 26 118 6730
3.2977679 5.8208861 0.34441018 623 84025540 2795 27 123 6699
3.9793525 5.5184598 0.29574186 408 84025540 1895 28 61 6810
3.749476 5.621398 0.22899751 274 84025540 1251 29 28 6761
3.546344 5.7538486 0.16671953 207 84025540 945 30 34 6761
3.3034091 5.8258634 0.10006452 139 84025540 622 31 50 6698
3.9868119 5.528194 0.047584273 14 84025540 67 32 59 6816
3.796428 5.687274 -0.017305097 24 84025540 110 33 49 6838
3.5237343 5.7156014 -0.080162115 33 84025540 150 34 73 6715
3.3018417 5.8143454 -0.14344725 49 84025540 217 35 50 6688
3.8761034 5.3691511 -0.19665445 410 84025540 1800 36 101 6625
3.6355324 5.4376068 -0.25585315 481 84025540 2063 37 59 6546
3.4083858 5.5233221 -0.31595322 586 84025540 2473 38 140 6498
3.1869967 5.6123381 -0.37541819 588 84025540 2460 39 66 6465
3.7577417 5.1965923 -0.42560661 867 84025540 3582 40 95 6427
3.5327666 5.2787156 -0.48127297 839 84025540 3405 41 92 6370
3.3167865 5.3715277 -0.53899801 890 84025540 3573 42 91 6336
3.0876427 5.4305296 -0.59281933 902 84025540 3550 43 49 6275
3.722249 5.1437273 -0.65545994 840 84025540 3424 44 88 6383
3.4795959 5.1947546 -0.70441818 894 84025540 3538 45 46 6292
3.2674069 5.2853651 -0.75932336 909 84025540 3564 46 87 6260
3.0486939 5.3589787 -0.81410986 912 84025540 3527 47 129 6219
3.6524606 5.0383945 -0.8733691 925 84025540 3654 48 75 6284
3.4309597 5.1173143 -0.92440134 845 84025540 3281 49 84 6230
3.2215068 5.2050214 -0.97839206 891 84025540 3425 50 76 6199
3.0040288 5.2770376 -1.0305203 941 84025540 3571 51 68 6159
3.6117692 4.9729419 -1.0954581 877 84025540 3419 52 80 6243
3.3810341 5.0373354 -1.1400851 882 84025540 3362 53 77 6173
3.1741292 5.1248746 -1.1923077 914 84025540 3453 54 67 6145
2.9611406 5.2019086 -1.2461104 912 84025540 3408 55 46 6114
3.567934 4.9068203 -1.3161402 891 84025540 3434 56 109 6208
3.3457072 4.9790664 -1.3601276 848 84025540 3207 57 49 6151
3.1442969 5.0745311 -1.4144812 893 84025540 3359 58 48 6135
2.9312227 5.1483064 -1.4661118 940 84025540 3502 59 87 6103
3.5123525 4.8185253 -1.5302064 917 84025540 3474 60 54 6156
3.303808 4.9078259 -1.5777286 864 84025540 3238 61 41 6123
3.1021643 5.0043879 -1.6324154 870 84025540 3246 62 48 6110
2.8868611 5.0753341 -1.684324 833 84025540 3078 63 61 6077
4.5701485 6.2546458 2.4179299 682 84122200 4494 0 68 8115
4.2592168 6.3210015 2.2877462 756 84122200 4790 1 78 7958
3.9939466 6.4363394 2.1933823 650 84122200 4045 2 58 7886
3.7021313 6.5003099 2.0896142 809 84122200 4878 3 45 7767
4.4753022 6.1313529 2.0505993 728 84122200 4503 4 70 7863
4.1658974 6.1766911 1.9332871 735 84122200 4352 5 46 7697
3.8938663 6.2696829 1.8385123 760 84122200 4398 6 84 7606
3.6323352 6.3627739 1.751384 825 84122200 4684 7 73 7533
4.3610616 5.9772477 1.7050834 741 84122200 4273 8 88 7593
4.0929146 6.0735097 1.6110673 729 84122200 4100 9 102 7499
3.8226683 6.1476197 1.5197335 774 84122200 4233 10 51 7397
3.5590444 6.2217731 1.4348686 796 84122200 4252 11 35 7310
4.2750311 5.8612685 1.3919103 768 84122200 4192 12 102 7387
4.0101676 5.9457932 1.3021629 763 84122200 4056 13 75 7289
3.7727454 6.0647368 1.2265279 608 84122200 3195 14 76 7247
3.5014162 6.1175613 1.1442952 823 84122200 4199 15 58 7141
4.1957479 5.7523565 1.0971396 783 84122200 4062 16 53 7204
3.9495084 5.8529906 1.0187472 712 84122200 3626 17 69 7134
3.6980116 5.9374366 0.94176805 736 84122200 3668 18 64 7058
3.4436677 6.0081491 0.86587822 814 84122200 3966 19 89 6979
4.1224422 5.6516471 0.81743896 743 84122200 3688 20 58 7043
3.8740602 5.7392349 0.74171501 745 84122200 3614 21 86 6964
3.6317968 5.8250051 0.66931534 788 84122200 3751 22 60 6897
3.3839755 5.8966074 0.59946579 845 84122200 3937 23 114 6825
4.0449138 5.5431247 0.54945463 741 84122200 3514 24 72 6884
3.803776 5.6319323 0.47916523 702 84122200 3260 25 80 6813
3.5542717 5.7002201 0.40933254 642 84122200 2908 26 103 6730
3.3393934 5.8109322 0.34502715 604 84122200 2719 27 126 6711
4.0343528 5.5229816 0.29730526 407 84122200 1906 28 37 6846
3.7906137 5.608222 0.22940397 249 84122200 1141 29 33 6773
3.5879393 5.7421536 0.16701543 170 84122200 778 30 35 6773
3.3809695 5.8782916 0.10131945 125 84122200 573 31 47 6782
4.0560503 5.5520749 0.048003148 9 84122200 45 32 60 6876
0 0 -0 8 84122200 0 33 40 0
3.5905364 5.7447486 -0.080878384 22 84122200 99 34 49 6775
3.3194911 5.7627888 -0.14267512 34 84122200 149 35 49 6652
3.916055 5.354948 -0.19701065 419 84122200 1846 36 103 6637
3.6688285 5.4151969 -0.25585315 449 84122200 1926 37 68 6546
3.4422121 5.5023046 -0.31595322 605 84122200 2553 38 165 6498
3.2273529 5.6030583 -0.37611502 648 84122200 2717 39 55 6477
3.8037076 5.1927562 -0.42719591 830 84122200 3455 40 98 6451
3.5650897 5.2569399 -0.48127297 858 84122200 3482 41 83 6370
3.3496833 5.3510752 -0.53899801 894 84122200 3588 42 133 6336
3.126874 5.4218307 -0.59395301 914 84122200 3614 43 69 6287
3.7466831 5.1111641 -0.65422761 908 84122200 3687 44 86 6371
3.5181017 5.1831727 -0.70576161 876 84122200 3480 45 50 6304
3.2934504 5.2551241 -0.75786775 892 84122200 3483 46 95 6248
3.0993567 5.3710842 -0.8188225 880 84122200 3443 47 104 6255
3.6903405 5.0254669 -0.8750369 860 84122200 3410 48 97 6296
3.4756322 5.1157975 -0.92796242 864 84122200 3378 49 43 6254
3.2533836 5.1851568 -0.97839206 896 84122200 3441 50 56 6199
3.0422676 5.2687511 -1.0325282 955 84122200 3638 51 71 6171
3.6422145 4.9506869 -1.0954581 891 84122200 3473 52 111 6243
3.4317763 5.0457501 -1.1467339 862 84122200 3324 53 78 6209
3.2117746 5.1152711 -1.1946359 923 84122200 3500 54 83 6157
3.0047519 5.20399 -1.251002 861 84122200 3242 55 56 6138
3.6049294 4.894278 -1.3186843 910 84122200 3520 56 115 6220
3.3827815 4.9681172 -1.362781 824 84122200 3128 57 56 6163
3.1691635 5.0452547 -1.4117144 897 84122200 3364 58 59 6123
2.9511061 5.1100497 -1.4603463 980 84122200 3623 59 62 6079
3.5556607 4.8155847 -1.5361723 879 84122200 3356 60 43 6180
3.3338597 4.8874617 -1.5777286 889 84122200 3332 61 33 6123
3.1205068 4.9656773 -1.6260034 843 84122200 3121 62 44 6086
2.9179482 5.0575252 -1.684324 828 84122200 3056 63 52 6077
4.6152549 6.2356939 2.4215052 640 84220040 4229 0 79 8127
4.3108835 6.3137321 2.2946458 738 84220040 4704 1 82 7982
4.0333643 6.4117117 2.1933823 718 84220040 4462 2 49 7886
3.7419467 6.4774718 2.0896142 801 84220040 4830 3 49 7767
4.5059519 6.0944624 2.0474699 727 84220040 4484 4 66 7851
4.2299337 6.1893725 1.9453435 784 84220040 4700 5 41 7745
3.9570787 6.2850876 1.8501148 775 84220040 4542 6 88 7654
3.6771564 6.3504667 1.754174 817 84220040 4653 7 77 7545
4.4115553 5.9691844 1.7104728 749 84220040 4348 8 68 7617
4.1433215 6.0676389 1.6162233 742 84220040 4201 9 92 7523
3.86658 6.1339836 1.522199 752 84220040 4126 10 50 7409
3.6148684 6.2303505 1.4419348 726 84220040 3916 11 29 7346
4.310915 5.8349271 1.3919103 774 84220040 4224 12 101 7387
4.0598984 5.9405713 1.3064504 755 84220040 4041 13 67 7313
3.8161955 6.0514774 1.2285589 669 84220040 3526 14 77 7259
3.5329399 6.0857182 1.1423723 792 84220040 4026 15 83 7129
4.2380123 5.7360425 1.0989672 761 84220040 3965 16 77 7216
3.9786437 5.8188424 1.0170336 746 84220040 3786 17 67 7122
3.7280242 5.9045782 0.94016683 759 84220040 3766 18 50 7046
3.4864526 5.9972 0.86736703 799 84220040 3907 19 83 6991
4.1570425 5.626246 0.81743896 748 84220040 3713 20 66 7043
3.9159386 5.7252045 0.74299306 753 84220040 3665 21 93 6976
3.66747 5.8026109 0.66931534 794 84220040 3779 22 74 6897
3.4321196 5.8963947 0.60157382 796 84220040 3735 23 107 6849
4.09307 5.5374398 0.5513702 745 84220040 3557 24 70 6908
3.8450217 5.6183653 0.48000923 707 84220040 3295 25 59 6825
3.5891807 5.6783042 0.40933254 630 84220040 2854 26 87 6730
3.3689508 5.7799792 0.34441018 595 84220040 2670 27 105 6699
4.0539036 5.4788489 0.29626298 384 84220040 1785 28 46 6822
3.8520608 5.6244373 0.23102973 272 84220040 1264 29 34 6821
3.6166856 5.7098961 0.16671953 154 84220040 703 30 23 6761
3.3988364 5.8263431 0.10078162 119 84220040 540 31 43 6746
4.0900407 5.5270829 0.048003148 17 84220040 82 32 67 6876
3.8184433 5.570971 -0.017092515 18 84220040 80 33 45 6754
3.612874 5.7023373 -0.08059188 26 84220040 116 34 55 6751
3.4213598 5.8562603 -0.14550631 25 84220040 113 35 54 6784
3.9345593 5.3115425 -0.19629826 412 84220040 1801 36 127 6613
3.7223456 5.4222403 -0.25726023 436 84220040 1887 37 52 6582
3.4694898 5.4709582 -0.31536976 639 84220040 2687 38 153 6486
3.2495859 5.5624623 -0.37472135 655 84220040 2730 39 66 6453
3.8354981 5.1693192 -0.42719591 862 84220040 3588 40 92 6451
3.6040554 5.2448277 -0.48217961 847 84220040 3450 41 96 6382
3.3696413 5.3102298 -0.53695637 897 84220040 3573 42 112 6312
3.1721463 5.4231663 -0.59622037 866 84220040 3451 43 65 6311
3.7779741 5.0880785 -0.65422761 900 84220040 3654 44 105 6371
3.5565963 5.1713138 -0.7071051 873 84220040 3485 45 58 6316
3.3447952 5.2649789 -0.76223451 835 84220040 3299 46 82 6284
3.1262457 5.3416986 -0.81725168 895 84220040 3488 47 118 6243
3.7423835 5.0313339 -0.88004029 832 84220040 3337 48 79 6332
3.5069566 5.0943751 -0.92796242 845 84220040 3303 49 56 6254
3.2914972 5.1750951 -0.98028606 883 84220040 3408 50 67 6211
3.0745387 5.2499852 -1.0325282 944 84220040 3596 51 83 6171
3.6725228 4.9282455 -1.0954581 896 84220040 3493 52 101 6243
3.4693642 5.0343094 -1.1489502 856 84220040 3314 53 69 6221
3.2431009 5.0954676 -1.1946359 910 84220040 3451 54 72 6157
3.0306897 5.1753173 -1.2485563 916 84220040 3436 55 47 6126
3.6348925 4.8720665 -1.3186843 930 84220040 3597 56 128 6220
3.4198475 4.9569001 -1.3654345 828 84220040 3155 57 52 6175
3.2000608 5.0257144 -1.4117144 884 84220040 3312 58 50 6123
2.9882925 5.1018968 -1.4632291 953 84220040 3537 59 82 6091
3.5921032 4.8029852 -1.5391551 906 84220040 3472 60 53 6192
3.3703783 4.876452 -1.5808207 861 84220040 3239 61 42 6135
3.1633422 4.9659429 -1.6324154 837 84220040 3124 62 34 6110
2.9431026 5.0295744 -1.6809981 808 84220040 2970 63 53 6065
4.667171 6.2255878 2.4286561 701 84317470 4660 0 65 8151
4.3364644 6.2682581 2.2877462 754 84317470 4777 1 90 7958
4.0788269 6.3965616 2.1967199 716 84317470 4469 2 63 7898
3.7816212 6.4543896 2.0896142 767 84317470 4625 3 52 7767
4.5363178 6.0574269 2.0443404 772 84317470 4746 4 72 7839
4.261219 6.1537519 1.9423294 755 84317470 4512 5 52 7733
3.9767761 6.2312427 1.841413 735 84317470 4267 6 84 7618
3.7101426 6.3177204 1.751384 805 84317470 4570 7 65 7533
4.4480982 5.9420033 1.7104728 721 84317470 4185 8 74 7617
4.1938109 6.0613775 1.6213795 725 84317470 4131 9 87 7547
3.9167914 6.1299362 1.5271299 762 84317470 4213 10 59 7433
3.6410944 6.1877708 1.437224 794 84317470 4255 11 41 7322
4.3607578 5.8272371 1.3964325 783 84317470 4301 12 106 7411
4.1097159 5.9349623 1.310738 695 84317470 3744 13 64 7337
3.8405149 6.008018 1.224497 715 84317470 3743 14 92 7235
3.5762243 6.0741329 1.1442952 785 84317470 4000 15 47 7141
4.2802343 5.7194257 1.1007947 764 84317470 3990 16 51 7228
4.0210361 5.8040833 1.0187472 768 84317470 3911 17 63 7134
3.764184 5.8815923 0.94016683 751 84317470 3726 18 47 7046
3.523185 5.9756947 0.86736703 775 84317470 3789 19 86 6991
4.1986275 5.6101756 0.81883168 744 84317470 3706 20 66 7055
3.9577906 5.710876 0.74427116 754 84317470 3684 21 78 6988
3.7094479 5.7900553 0.67047989 778 84317470 3716 22 58 6909
3.4682345 5.8752246 0.60157382 821 84317470 3852 23 98 6849
4.1269703 5.5122209 0.5513702 739 84317470 3528 24 79 6908
3.8794231 5.594667 0.48000923 690 84317470 3212 25 57 6825
3.6368778 5.6763444 0.41079226 612 84317470 2791 26 113 6754
3.4104509 5.7695155 0.34502715 613 84317470 2761 27 101 6711
4.0946345 5.4634647 0.2967841 403 84317470 1880 28 48 6834
3.8864992 5.6006956 0.23102973 265 84317470 1231 29 38 6821
3.6516528 5.6875968 0.16671953 158 84317470 721 30 38 6761
3.4223032 5.7847247 0.10042307 114 84317470 513 31 42 6722
0 0 0 7 84317470 0 32 66 0
3.8525543 5.5474367 -0.017092515 14 84317470 62 33 51 6754
3.6672468 5.710351 -0.081021637 20 84317470 90 34 56 6787
3.3532672 5.6596894 -0.14113082 42 84317470 180 35 45 6580
3.9958711 5.3256779 -0.19772306 401 84317470 1780 36 89 6661
3.7555456 5.3992982 -0.25726023 534 84317470 2312 37 52 6582
3.5159557 5.4697313 -0.31653669 642 84317470 2719 38 163 6510
3.2714429 5.5218053 -0.37332773 637 84317470 2634 39 77 6429
3.8671443 5.1456876 -0.42719591 907 84317470 3775 40 103 6451
3.6430063 5.2324352 -0.48308626 834 84317470 3410 41 107 6394
3.4215648 5.3196225 -0.54001886 872 84317470 3514 42 108 6348
3.1992676 5.3933258 -0.59508669 899 84317470 3565 43 47 6299
3.8162975 5.0743413 -0.65545994 896 84317470 3652 44 84 6383
3.595077 5.1591768 -0.70844847 894 84317470 3582 45 59 6328
3.3834863 5.2543716 -0.76369011 824 84317470 3267 46 100 6296
3.158963 5.3224158 -0.81725168 907 84317470 3534 47 127 6243
3.7660341 4.998785 -0.87837249 847 84317470 3384 48 83 6320
3.5517271 5.0922284 -0.93152356 853 84317470 3364 49 61 6278
3.323189 5.1548018 -0.98028606 871 84317470 3361 50 77 6211
3.112735 5.2411933 -1.0345359 947 84317470 3622 51 58 6183
3.6955757 4.8961892 -1.0933526 912 84317470 3541 52 112 6231
3.5001888 5.0129266 -1.1489502 848 84317470 3283 53 86 6221
3.2806866 5.0853648 -1.1969643 891 84317470 3392 54 67 6169
3.0743852 5.176826 -1.2534477 914 84317470 3455 55 57 6150
3.6717887 4.8590279 -1.3212284 916 84317470 3557 56 131 6232
3.4434934 4.9262309 -1.362781 866 84317470 3287 57 55 6163
3.2435017 5.0256062 -1.4172479 882 84317470 3331 58 52 6147
3.0195408 5.0834651 -1.4632291 966 84317470 3582 59 51 6091
3.6285245 4.7901192 -1.542138 895 84317470 3443 60 51 6204
3.4068871 4.8651776 -1.5839128 846 84317470 3195 61 42 6147
3.193753 4.9464393 -1.6324154 848 84317470 3164 62 51 6110
2.9797924 5.0213366 -1.684324 825 84317470 3048 63 60 6077
4.6914291 6.1785879 2.4215052 674 84414580 4454 0 70 8127
4.3814411 6.2509441 2.2911961 750 84414580 4767 1 69 7970
4.111742 6.3617334 2.1933823 676 84414580 4201 2 53 7886
3.8329608 6.4509368 2.0960712 708 84414580 4295 3 51 7791
4.5874019 6.0479383 2.0505993 776 84414580 4801 4 59 7863
4.3122392 6.1465073 1.9483576 626 84414580 3763 5 55 7757
4.0149355 6.2067242 1.841413 744 84414580 4321 6 60 7618
3.7667532 6.3249192 1.7597537 779 84414580 4465 7 67 7569
4.5056686 5.9425521 1.718557 773 84414580 4529 8 77 7653
4.2376509 6.0451274 1.6239575 668 84414580 3818 9 105 7559
3.9415622 6.0860729 1.522199 752 84414580 4126 10 56 7409
3.6910522 6.1855216 1.4419348 794 84414580 4283 11 39 7346
4.4035501 5.8097625 1.3986937 761 84414580 4195 12 91 7423
4.1392736 5.8999681 1.3085942 766 84414580 4113 13 65 7325
3.8708766 5.9744143 1.2224661 696 84414580 3632 14 89 7223
3.6194994 6.0622454 1.1462181 786 84414580 4019 15 53 7153
4.3224115 5.702507 1.1026223 748 84414580 3924 16 64 7240
4.0702209 5.7987442 1.0221745 750 84414580 3845 17 61 7158
3.8002019 5.8583851 0.94016683 792 84414580 3934 18 59 7046
3.5414538 5.9233046 0.86290056 786 84414580 3804 19 76 6955
4.2545719 5.6128035 0.82301003 786 84414580 3954 20 86 7091
3.9927573 5.6864839 0.74427116 756 84414580 3693 21 76 6988
3.7449052 5.7671857 0.67047989 773 84414580 3688 22 52 6909
3.4980793 5.8435769 0.60051978 797 84414580 3727 23 99 6837
4.1607146 5.4867945 0.5513702 743 84414580 3547 24 80 6908
3.9205594 5.5805526 0.4808532 728 84414580 3405 25 64 6837
3.6846857 5.6740136 0.41225201 616 84414580 2831 26 92 6778
3.4457879 5.7484808 0.34502715 608 84414580 2738 27 111 6711
4.1425781 5.4573359 0.29782638 386 84414580 1818 28 59 6858
3.906996 5.5571213 0.23021686 257 84414580 1186 29 37 6797
3.6995687 5.6851935 0.16731134 151 84414580 694 30 28 6785
3.4824243 5.8047738 0.10114017 100 84414580 460 31 68 6770
0 0 0 6 84414580 0 32 59 0
0 0 -0 6 84414580 0 33 49 0
3.6302118 5.5771208 -0.079445854 19 84414580 86 34 63 6655
3.4311814 5.7109952 -0.14293249 37 84414580 162 35 56 6664
4.0212159 5.2915092 -0.19736686 433 84414580 1915 36 103 6649
3.7678828 5.3467484 -0.25585315 533 84414580 2286 37 63 6546
3.5363657 5.4279704 -0.31536976 617 84414580 2594 38 154 6486
3.3299401 5.5427041 -0.37611502 645 84414580 2708 39 77 6477
3.9058971 5.1313901 -0.42799059 905 84414580 3781 40 101 6463
3.6819403 5.2197609 -0.48399287 856 84414580 3513 41 96 6406
3.4476116 5.2885118 -0.53899801 864 84414580 3468 42 117 6336
3.2323003 5.3735938 -0.59508669 936 84414580 3715 43 70 6299
3.8545945 5.0603251 -0.65669221 898 84414580 3673 44 106 6395
3.6266656 5.1370206 -0.70844847 858 84414580 3438 45 64 6328
3.4026425 5.213562 -0.76077896 863 84414580 3396 46 82 6272
3.1792917 5.282546 -0.81410986 936 84414580 3620 47 113 6219
3.7966352 4.9755831 -0.87837249 918 84414580 3668 48 76 6320
3.5897541 5.0800309 -0.93330407 785 84414580 3104 49 53 6290
3.3547559 5.1343141 -0.98028606 859 84414580 3316 50 59 6211
3.1326292 5.2017255 -1.0305203 942 84414580 3575 51 66 6159
3.7398982 4.8921919 -1.0975637 905 84414580 3542 52 99 6255
3.5240707 4.9817276 -1.1467339 872 84414580 3363 53 76 6209
3.3182704 5.0749917 -1.1992927 896 84414580 3425 54 66 6181
3.0939705 5.1377363 -1.2485563 937 84414580 3515 55 38 6126
3.6944065 4.8270941 -1.3186843 899 84414580 3478 56 115 6220
3.4871824 4.9241109 -1.368088 863 84414580 3305 57 71 6187
3.2806692 5.0153818 -1.4200146 882 84414580 3344 58 57 6159
3.0566857 5.07482 -1.4661118 945 84414580 3521 59 66 6103
3.6507728 4.7585425 -1.5391551 879 84414580 3369 60 51 6192
3.4366751 4.8441815 -1.5839128 889 84414580 3358 61 30 6147
3.2303758 4.9364257 -1.6356215 852 84414580 3192 62 37 6122
3.0164914 5.0128374 -1.68765 819 84414580 3038 63 65 6089
4.7711496 6.2041674 2.4429581 583 84512520 3921 0 76 8199
4.4263682 6.2333136 2.2946458 743 84512520 4731 1 55 7982
4.1759639 6.3749523 2.206733 692 84512520 4353 2 57 7934
3.8784354 6.4371963 2.0992997 686 84512520 4175 3 32 7803
4.6385403 6.0380507 2.0568585 748 84512520 4655 4 71 7887
4.37006 6.1483345 1.9573997 649 84512520 3939 5 43 7793
4.065712 6.201448 1.8472141 743 84512520 4340 6 94 7642
3.7934248 6.2817063 1.754174 815 84512520 4642 7 63 7545
4.534925 5.9055195 1.7158623 748 84512520 4369 8 80 7641
4.2746634 6.019012 1.6239575 666 84512520 3807 9 89 7559
3.9788315 6.0617733 1.522199 770 84512520 4225 10 54 7409
3.7289364 6.1627574 1.4419348 785 84512520 4234 11 48 7346
4.4319386 5.7732849 1.3964325 743 84512520 4082 12 101 7411
4.1822376 5.8840828 1.310738 751 84512520 4046 13 63 7337
3.9139535 5.9604363 1.224497 703 84512520 3681 14 79 7235
3.6688976 6.0601883 1.150064 776 84512520 3994 15 55 7177
4.3645425 5.6852851 1.1044499 775 84512520 4074 16 55 7252
4.0988417 5.7639813 1.0204608 758 84512520 3873 17 75 7146
3.8426099 5.8448949 0.94176805 756 84512520 3764 18 40 7058
3.5962508 5.9320097 0.86736703 802 84512520 3921 19 94 6991
4.2889314 5.5865922 0.82301003 759 84512520 3819 20 67 7091
4.0206575 5.6521549 0.74299306 734 84512520 3573 21 92 6976
3.8064845 5.7840052 0.675138 720 84512520 3487 22 73 6957
3.5400715 5.8322215 0.60157382 792 84512520 3715 23 121 6849
4.2088747 5.4801345 0.55328578 733 84512520 3524 24 82 6932
3.9477861 5.546639 0.48000923 695 84512520 3235 25 52 6825
3.7194314 5.6512976 0.41225201 630 84512520 2895 26 95 6778
3.4809952 5.7272296 0.34502715 563 84512520 2535 27 119 6711
4.1832929 5.4413195 0.2983475 374 84512520 1763 28 49 6870
3.9688516 5.5721178 0.23184264 283 84512520 1324 29 45 6845
3.7409875 5.672401 0.16760725 137 84512520 632 30 34 6797
3.4992688 5.7525434 0.10060234 85 84512520 383 31 54 6734
4.2934833 5.5840416 0.049176 11 84512520 52 32 51 7044
3.962132 5.5583711 -0.017274728 10 84512520 45 33 35 6826
3.6709714 5.5647578 -0.079589106 14 84512520 60 34 52 6667
3.5036085 5.7513094 -0.14447679 43 84512520 197 35 60 6736
4.0609245 5.2762413 -0.19772306 430 84512520 1908 36 117 6661
3.8215206 5.3528051 -0.25726023 549 84512520 2377 37 57 6582
3.5762086 5.4161711 -0.31595322 662 84512520 2793 38 166 6498
3.3576543 5.5119367 -0.37541819 703 84512520 2940 39 73 6465
3.9519303 5.1262932 -0.42957991 916 84512520 3855 40 103 6487
3.720856 5.2068062 -0.48489949 824 84512520 3394 41 115 6418
3.4799962 5.2672582 -0.53899801 885 84512520 3553 42 112 6336
3.2652111 5.3536596 -0.59508669 928 84512520 3684 43 61 6299
3.8855715 5.0365782 -0.65669221 909 84512520 3718 44 106 6395
3.6719916 5.1340694 -0.71113545 853 84512520 3440 45 48 6352
3.4345682 5.1925855 -0.76077896 920 84512520 3621 46 88 6272
3.2240393 5.2832494 -0.81725168 904 84512520 3524 47 99 6243
3.8270931 4.9521937 -0.87837249 903 84512520 3607 48 94 6320
3.6139491 5.0482597 -0.93152356 858 84512520 3380 49 49 6278
3.3927386 5.1235127 -0.98218006 897 84512520 3472 50 57 6223
3.1706529 5.1925035 -1.0325282 953 84512520 3630 51 82 6171
3.7770779 4.8784938 -1.0996695 915 84512520 3594 52 105 6267
3.5545716 4.9600105 -1.1467339 888 84512520 3424 53 90 6209
3.342845 5.0447226 -1.1969643 883 84512520 3362 54 62 6169
3.125437 5.1186552 -1.2485563 934 84512520 3503 55 55 6126
3.7311399 4.8136034 -1.3212284 911 84512520 3538 56 112 6232
3.5173306 4.9026213 -1.368088 868 84512520 3324 57 68 6187
3.3049293 4.985425 -1.4172479 897 84512520 3387 58 54 6147
3.0816953 5.0460277 -1.4632291 923 84512520 3426 59 65 6091
3.6799018 4.7360525 -1.5391551 935 84512520 3587 60 63 6192
3.4663339 4.8230033 -1.5839128 863 84512520 3259 61 45 6147
3.2606044 4.916512 -1.6356215 794 84512520 2974 62 46 6122
3.0411873 4.9843917 -1.684324 834 84512520 3078 63 53 6077
4.7950506 6.1567006 2.435807 644 84609590 4306 0 77 8175
4.4846673 6.2340269 2.3049951 743 84609590 4779 1 80 8018
4.1958756 6.3203998 2.1967199 654 84609590 4077 2 51 7898
3.9118352 6.4034147 2.0960712 704 84609590 4271 3 43 7791
4.6755018 6.0094752 2.0568585 765 84609590 4762 4 58 7887
4.4009161 6.1119781 1.9543856 676 84609590 4090 5 44 7781
4.1230187 6.2054801 1.855916 742 84609590 4376 6 77 7678
3.8379915 6.2682652 1.7569638 801 84609590 4577 7 62 7557
4.5854325 5.8960438 1.7212517 725 84609590 4262 8 74 7665
4.3115149 5.9926696 1.6239575 700 84609590 4002 9 80 7559
4.0289598 6.0568023 1.5271299 744 84609590 4108 10 53 7433
3.7543743 6.1197019 1.437224 784 84609590 4201 11 41 7322
4.4745131 5.7552867 1.3986937 784 84609590 4320 12 109 7423
4.2044644 5.8391471 1.3064504 736 84609590 3939 13 74 7313
3.9635568 5.9560008 1.2285589 733 84609590 3863 14 83 7259
3.69362 6.0173721 1.1462181 802 84609590 4101 15 52 7153
4.3920646 5.649035 1.1026223 743 84609590 3897 16 69 7240
4.1410737 5.7483597 1.0221745 732 84609590 3752 17 76 7158
3.8784013 5.821207 0.94176805 747 84609590 3718 18 55 7058
3.6388164 5.9199762 0.86885583 789 84609590 3872 19 67 7003
4.3158135 5.5507612 0.82161725 749 84609590 3756 20 59 7079
4.0692143 5.6467385 0.74554926 770 84609590 3775 21 68 7000
3.8220224 5.730732 0.67164445 756 84609590 3623 22 71 6921
3.5820558 5.8205709 0.60262781 835 84609590 3931 23 110 6861
4.2571092 5.4730902 0.55520141 743 84609590 3596 24 92 6956
4.002748 5.5514402 0.48254114 695 84609590 3273 25 72 6861
3.747391 5.6184049 0.41152212 613 84609590 2807 26 89 6766
3.5286453 5.7261672 0.34626102 573 84609590 2599 27 117 6735
4.2239666 5.4250083 0.29886866 379 84609590 1797 28 65 6882
4.0029664 5.5476604 0.23184264 242 84609590 1133 29 31 6845
3.7557242 5.6194186 0.16671953 130 84609590 593 30 27 6761
3.5344999 5.7309642 0.10060234 86 84609590 392 31 68 6734
0 0 0 8 84609590 0 32 55 0
4.0383139 5.5923271 -0.017456939 14 84609590 64 33 53 6898
3.6983783 5.5321527 -0.079445854 17 84609590 73 34 55 6655
3.5199187 5.6990809 -0.14370464 47 84609590 213 35 59 6700
4.1005964 5.260685 -0.19807927 453 84609590 2018 36 104 6673
3.8542929 5.3292561 -0.25726023 564 84609590 2442 37 54 6582
3.6160398 5.4040875 -0.31653669 650 84609590 2754 38 144 6510
3.3725271 5.4606533 -0.37332773 733 84609590 3032 39 71 6429
3.9833102 5.1019483 -0.42957991 891 84609590 3749 40 110 6487
3.7457175 5.1741848 -0.48399287 809 84609590 3320 41 98 6406
3.5189021 5.2557416 -0.54001886 878 84609590 3538 42 109 6348
3.3042819 5.3436847 -0.59622037 931 84609590 3706 43 51 6311
3.9310999 5.0314541 -0.65915668 923 84609590 3804 44 105 6419
3.7034245 5.1114421 -0.71113545 845 84609590 3411 45 60 6352
3.4796288 5.1912022 -0.76369011 893 84609590 3541 46 92 6296
3.2563961 5.2633677 -0.81725168 893 84609590 3480 47 130 6243
3.8720558 4.9473343 -0.88170809 944 84609590 3800 48 79 6344
3.6587903 5.0452037 -0.93508464 891 84609590 3537 49 46 6302
3.4241121 5.1025987 -0.98218006 864 84609590 3347 50 70 6223
3.2086811 5.1830101 -1.0345359 930 84609590 3554 51 56 6183
3.8142304 4.8645229 -1.1017751 901 84609590 3554 52 81 6279
3.5987959 4.9571943 -1.1511664 869 84609590 3377 53 95 6233
3.3802984 5.0338893 -1.1992927 884 84609590 3378 54 83 6181
3.169153 5.1193595 -1.2534477 953 84609590 3606 55 71 6150
3.7678466 4.7998438 -1.3237724 933 84609590 3638 56 106 6244
3.5404661 4.87148 -1.3654345 865 84609590 3296 57 53 6175
3.3354571 4.9650526 -1.4172479 845 84609590 3191 58 56 6147
3.1125991 5.0270238 -1.4632291 961 84609590 3566 59 84 6091
3.7232678 4.7316523 -1.5451208 897 84609590 3468 60 72 6216
3.5026865 4.8110175 -1.5870049 880 84609590 3337 61 42 6159
3.2907102 4.8964124 -1.6356215 848 84609590 3176 62 52 6122
3.0838451 4.9852486 -1.690976 819 84609590 3047 63 57 6101
4.8256431 6.1181688 2.4322317 691 84706300 4607 0 67 8163
4.5296035 6.2156806 2.3084447 771 84706300 4974 1 77 8030
4.2410121 6.3040996 2.2000575 670 84706300 4190 2 44 7910
3.9449666 6.3694658 2.0928428 804 84706300 4864 3 33 7779
4.7194567 5.9897733 2.0599878 726 84706300 4531 4 88 7899
4.4383354 6.0848598 1.9543856 729 84706300 4412 5 26 7781
4.1480103 6.1607471 1.8501148 727 84706300 4261 6 70 7654
3.8702254 6.2346821 1.754174 816 84706300 4648 7 59 7545
4.6142883 5.8586106 1.718557 744 84706300 4359 8 76 7653
4.3551068 5.9755731 1.6265357 737 84706300 4226 9 88 7571
4.0726118 6.0417047 1.5295953 731 84706300 4055 10 64 7445
3.8104966 6.1265249 1.4442903 781 84706300 4226 11 37 7358
4.5243235 5.746242 1.403216 805 84706300 4465 12 112 7447
4.2541294 5.8323174 1.310738 760 84706300 4094 13 70 7337
4.00664 5.9413743 1.2305899 731 84706300 3865 14 104 7271
3.7367308 6.004652 1.148141 757 84706300 3888 15 68 7165
4.4266438 5.6219792 1.1026223 760 84706300 3982 16 46 7240
4.1762671 5.7228422 1.0221745 749 84706300 3840 17 73 7158
3.9340103 5.8268695 0.94657159 697 84706300 3510 18 63 7094
3.6750722 5.8975372 0.86885583 769 84706300 3772 19 94 7003
4.3645377 5.5429034 0.82440275 784 84706300 3958 20 67 7103
4.1178555 5.6409383 0.74810541 770 84706300 3801 21 67 7024
3.8771763 5.7368584 0.675138 756 84706300 3661 22 82 6957
3.6113751 5.7883406 0.60157382 797 84706300 3740 23 98 6849
4.3054152 5.4656591 0.55711699 678 84706300 3306 24 65 6980
4.0367355 5.5267754 0.48254114 720 84706300 3391 25 72 6861
3.8019161 5.6250768 0.41371173 632 84706300 2926 26 69 6802
3.5764132 5.7247357 0.34749493 540 84706300 2467 27 100 6759
4.2497511 5.3895741 0.2983475 384 84706300 1811 28 41 6870
4.0440083 5.5326767 0.23224908 232 84706300 1090 29 28 6857
3.8103149 5.6260662 0.16760725 101 84706300 465 30 41 6797
3.633208 5.8109064 0.10239508 57 84706300 266 31 44 6854
0 0 0 5 84706300 0 32 63 0
4.0796366 5.5771284 -0.017487308 17 84706300 80 33 36 6910
3.7524428 5.5391588 -0.079875618 24 84706300 106 34 49 6691
3.5548213 5.6773758 -0.14370464 62 84706300 277 35 43 6700
4.1253662 5.2260103 -0.19772306 466 84706300 2068 36 101 6661
3.88692 5.3055062 -0.25726023 570 84706300 2468 37 45 6582
3.6491306 5.3817983 -0.31653669 700 84706300 2969 38 173 6510
3.418684 5.4601641 -0.37472135 756 84706300 3150 39 80 6453
4.0071139 5.0680184 -0.42878523 899 84706300 3769 40 102 6475
3.7915473 5.170403 -0.48580614 803 84706300 3321 41 95 6430
3.5712228 5.2637334 -0.54308134 876 84706300 3569 42 140 6384
3.337008 5.3233094 -0.59622037 916 84706300 3646 43 56 6311
3.9618983 5.0072384 -0.65915668 927 84706300 3821 44 93 6419
3.7276626 5.0790086 -0.70979196 890 84706300 3579 45 60 6340
3.511416 5.169754 -0.76369011 884 84706300 3506 46 84 6296
3.28863 5.243288 -0.81725168 862 84706300 3359 47 123 6243
3.9097207 4.9327955 -0.88337588 936 84706300 3782 48 83 6356
3.6896784 5.0226588 -0.93508464 862 84706300 3422 49 51 6302
3.4620194 5.0912914 -0.98407394 889 84706300 3458 50 66 6235
3.246712 5.173245 -1.0365437 925 84706300 3551 51 78 6195
3.8440068 4.8410277 -1.1017751 928 84706300 3660 52 96 6279
3.636132 4.9445205 -1.1533828 901 84706300 3515 53 80 6245
3.4243672 5.0325189 -1.2039493 892 84706300 3436 54 69 6205
3.2067499 5.1097684 -1.2558935 927 84706300 3522 55 58 6162
3.8045247 4.7858143 -1.3263166 917 84706300 3588 56 125 6256
3.5841668 4.8685136 -1.3707415 875 84706300 3364 57 64 6199
3.3724301 4.9541459 -1.4200146 854 84706300 3238 58 47 6159
3.1495788 5.0176969 -1.4661118 930 84706300 3465 59 69 6103
3.7522306 4.7087178 -1.5451208 890 84706300 3437 60 56 6216
3.5252585 4.7801032 -1.5839128 879 84706300 3320 61 40 6147
3.3272011 4.8856869 -1.6388276 799 84706300 3005 62 34 6134
3.1082501 4.9564648 -1.68765 841 84706300 3116 63 50 6089
4.8773909 6.1063447 2.4393826 645 84804800 4326 0 70 8187
4.5813088 6.2062645 2.3153443 642 84804800 4167 1 72 8054
4.2861056 6.2874827 2.2033954 684 84804800 4295 2 63 7922
3.9962661 6.3647165 2.0992997 813 84804800 4948 3 52 7803
4.7633457 5.969758 2.0631173 757 84804800 4739 4 88 7911
4.4755878 6.0575123 1.9543856 756 84804800 4574 5 50 7781
4.1922965 6.1447983 1.8530154 755 84804800 4438 6 92 7666
3.9146237 6.2206955 1.7569638 830 84804800 4737 7 57 7557
4.6866069 5.8758965 1.7320305 743 84804800 4422 8 84 7713
4.3916903 5.9487381 1.6265357 706 84804800 4048 9 92 7571
4.1162305 6.0263 1.5320607 765 84804800 4252 10 54 7457
3.8542922 6.1129823 1.4466459 778 84804800 4224 11 44 7370
4.5594969 5.7183733 1.403216 762 84804800 4226 12 110 7447
4.3038683 5.8250971 1.3150256 745 84804800 4040 13 61 7361
4.0496931 5.9264431 1.2326208 701 84804800 3720 14 66 7283
3.7798243 5.9916291 1.150064 787 84804800 4055 15 67 7177
4.4980264 5.641077 1.11176 775 84804800 4128 16 47 7300
4.2183633 5.7066603 1.0238881 756 84804800 3889 17 65 7170
3.9629741 5.7928052 0.94497037 767 84804800 3849 18 67 7082
3.7111897 5.8748765 0.86885583 768 84804800 3768 19 83 7003
4.4058971 5.5253382 0.82579553 673 84804800 3410 20 60 7115
4.15239 5.6155653 0.74810541 739 84804800 3647 21 84 7024
3.8988078 5.6932526 0.672809 758 84804800 3645 22 85 6933
3.6532133 5.776175 0.60262781 784 84804800 3692 23 97 6861
4.3164921 5.4110856 0.55424356 731 84804800 3527 24 74 6944
4.0776906 5.5115252 0.48338509 701 84804800 3313 25 60 6873
3.8431273 5.6115246 0.41444159 614 84804800 2852 26 82 6814
3.5986483 5.6824341 0.34626102 542 84804800 2458 27 114 6735
4.2902217 5.3727651 0.29886866 354 84804800 1675 28 36 6882
4.0992894 5.536675 0.2334684 182 84804800 863 29 32 6893
3.8583395 5.6223631 0.16819906 112 84804800 520 30 20 6821
3.6238317 5.7175627 0.10114017 62 84804800 286 31 58 6770
0 0 0 2 84804800 0 32 61 0
3.9994757 5.3977251 -0.017001409 13 84804800 57 33 54 6718
3.8338943 5.585279 -0.080878384 23 84804800 108 34 58 6775
3.570303 5.6250696 -0.14293249 83 84804800 371 35 62 6664
4.1573548 5.2005992 -0.19772306 450 84804800 1997 36 109 6661
3.9336922 5.3008151 -0.25819829 557 84804800 2429 37 39 6606
3.6820841 5.3593063 -0.31653669 634 84804800 2689 38 177 6510
3.4457033 5.4289703 -0.37402454 739 84804800 3068 39 66 6441
4.045619 5.0526829 -0.42957991 897 84804800 3775 40 97 6487
3.8232009 5.1470408 -0.48580614 864 84804800 3573 41 76 6430
3.5966799 5.2318687 -0.54206049 868 84804800 3524 42 106 6372
3.3760157 5.3128166 -0.59735405 928 84804800 3708 43 55 6323
4.0000114 4.9921498 -0.66038895 917 84804800 3793 44 107 6431
3.7658708 5.0656104 -0.71113545 854 84804800 3444 45 44 6352
3.5498238 5.1579227 -0.76514566 916 84804800 3647 46 75 6308
3.3335061 5.2430892 -0.82039338 898 84804800 3527 47 117 6267
3.9324756 4.8994455 -0.88170809 930 84804800 3744 48 83 6344
3.7204273 4.9999247 -0.93508464 852 84804800 3382 49 39 6302
3.4999168 5.0797105 -0.98596793 880 84804800 3432 50 53 6247
3.272043 5.1432443 -1.0345359 964 84804800 3687 51 79 6183
3.8810413 4.8265567 -1.1038808 925 84804800 3662 52 97 6291
3.6664026 4.9221163 -1.1533828 901 84804800 3515 53 84 6245
3.4618638 5.0211043 -1.2062777 849 84804800 3283 54 69 6217
3.225431 5.0701714 -1.251002 924 84804800 3480 55 42 6138
3.8338184 4.7623801 -1.3263166 939 84804800 3675 56 104 6256
3.6209679 4.8558116 -1.373395 888 84804800 3427 57 71 6211
3.4027648 4.9333596 -1.4200146 868 84804800 3294 58 69 6159
3.1928141 5.0179329 -1.4718773 959 84804800 3601 59 75 6127
3.795651 4.7036972 -1.5510865 923 84804800 3593 60 45 6240
3.5614614 4.7676716 -1.5870049 886 84804800 3360 61 29 6159
3.3505487 4.8556619 -1.6356215 837 84804800 3136 62 33 6122
3.1386039 4.9372993 -1.68765 839 84804800 3109 63 50 6089
4.9219704 6.0852089 2.4429581 664 84902590 4466 0 73 8199
4.6055384 6.1596274 2.3084447 769 84902590 4961 1 77 8030
4.3377061 6.2800336 2.2100706 696 84902590 4391 2 57 7946
4.035244 6.340076 2.0992997 799 84902590 4863 3 47 7803
4.7998857 5.9404182 2.0631173 720 84902590 4508 4 85 7911
4.5196314 6.0392361 1.9573997 756 84902590 4588 5 47 7793
4.2233 6.1093807 1.8501148 714 84902590 4185 6 78 7654
3.9652729 6.216238 1.7625437 809 84902590 4652 7 59 7581
4.7005301 5.8197389 1.7239465 749 84902590 4415 8 98 7677
4.4351268 5.9310651 1.6291136 704 84902590 4050 9 90 7583
4.1598129 6.0105867 1.5345261 765 84902590 4266 10 51 7469
3.8853915 6.0793033 1.4442903 773 84902590 4183 11 36 7358
4.6093049 5.7086272 1.4077382 758 84902590 4231 12 117 7471
4.3536777 5.8174849 1.319313 717 84902590 3913 13 74 7385
4.0859809 5.9014831 1.2326208 703 84902590 3731 14 68 7283
3.8165169 5.9683237 1.150064 780 84902590 4015 15 51 7177
4.525104 5.6041446 1.1099325 764 84902590 4056 16 57 7288
4.2604175 5.6901765 1.0256017 734 84902590 3788 17 76 7182
4.0052185 5.7781544 0.94657159 731 84902590 3676 18 56 7094
3.7535884 5.8620224 0.8703447 753 84902590 3707 19 74 7015
4.4546933 5.516746 0.82858109 754 84902590 3845 20 74 7139
4.2082272 5.6186314 0.75193965 759 84902590 3781 21 51 7060
3.9404759 5.6790347 0.6739735 747 84902590 3601 22 54 6945
3.6885865 5.7536507 0.60262781 798 84902590 3756 23 139 6861
4.364646 5.4031086 0.5561592 757 84902590 3673 24 56 6968
4.1186104 5.4959803 0.48422909 708 84902590 3357 25 79 6885
3.8706584 5.5779977 0.41371173 613 84902590 2837 26 82 6802
3.6528692 5.6905017 0.34811187 471 84902590 2159 27 125 6771
4.3306456 5.3556619 0.29938978 372 84902590 1766 28 54 6894
4.0972071 5.4634442 0.23143619 203 84902590 947 29 29 6833
3.892765 5.5985827 0.16819906 96 84902590 446 30 24 6821
3.6458747 5.6750293 0.10078162 60 84902590 271 31 42 6746
0 0 0 5 84902590 0 32 61 0
4.0613327 5.4114733 -0.017122883 13 84902590 58 33 46 6766
3.8543906 5.5419478 -0.08059188 28 84902590 125 34 55 6751
3.6177325 5.6232357 -0.14344725 87 84902590 387 35 53 6688
4.1891866 5.1749921 -0.19772306 456 84902590 2024 36 102 6661
3.9661434 5.2765784 -0.25819829 594 84902590 2591 37 44 6606
3.7148988 5.3366127 -0.31653669 704 84902590 2982 38 164 6510
3.4854312 5.4178004 -0.37472135 765 84902590 3187 39 72 6453
4.0840864 5.0370646 -0.43037453 907 84902590 3831 40 106 6499
3.8619044 5.1330471 -0.48671278 851 84902590 3532 41 94 6442
3.6355481 5.2195129 -0.54308134 889 84902590 3622 42 133 6384
3.408551 5.2920017 -0.59735405 935 84902590 3736 43 54 6323
4.0305676 4.9675121 -0.66038895 934 84902590 3864 44 97 6431
3.804055 5.0519342 -0.71247888 886 84902590 3586 45 54 6364
3.5745924 5.1262741 -0.76369011 880 84902590 3489 46 102 6296
3.3527257 5.2025366 -0.81725168 874 84902590 3406 47 130 6243
3.9624641 4.8752241 -0.88170809 937 84902590 3772 48 89 6344
3.7510362 4.9770026 -0.93508464 888 84902590 3525 49 54 6302
3.5378025 5.0678563 -0.98786187 854 84902590 3347 50 64 6259
3.3163629 5.1429563 -1.0385516 925 84902590 3566 51 65 6207
3.9180429 4.8118134 -1.1059864 972 84902590 3863 52 66 6303
3.7036381 4.9089417 -1.155599 879 84902590 3442 53 91 6257
3.4926076 4.9997683 -1.2062777 904 84902590 3495 54 82 6217
3.2755797 5.0799055 -1.2583392 921 84902590 3509 55 48 6174
3.8703771 4.7478561 -1.3288606 954 84902590 3748 56 112 6268
3.6577477 4.8428407 -1.3760484 883 84902590 3417 57 57 6223
3.4329712 4.9123878 -1.4200146 885 84902590 3355 58 52 6159
3.2172298 4.9884582 -1.4689945 942 84902590 3524 59 70 6115
3.8244407 4.6803188 -1.5510865 912 84902590 3550 60 53 6240
3.5976441 4.7549758 -1.590097 901 84902590 3430 61 43 6171
3.3869054 4.8444891 -1.6388276 827 84902590 3113 62 59 6134
3.1750848 4.9276404 -1.690976 800 84902590 2976 63 51 6101
4.9664745 6.0637555 2.4465337 689 85001350 4647 0 91 8211
4.6501851 6.1404152 2.3118947 764 85001350 4944 1 78 8042
4.3761578 6.2532997 2.2100706 684 85001350 4316 2 51 7946
4.0803356 6.3249087 2.1025281 793 85001350 4841 3 43 7815
4.8582535 5.9377532 2.072506 782 85001350 4940 4 91 7947
4.5566025 6.0113902 1.9573997 764 85001350 4638 5 32 7793
4.2740669 6.1024275 1.855916 700 85001350 4128 6 90 7678
4.0033402 6.1917906 1.7625437 832 85001350 4784 7 59 7581
4.7657633 5.8269939 1.7347254 741 85001350 4424 8 80 7725
4.4714355 5.9037399 1.6291136 700 85001350 4026 9 107 7583
4.2033577 5.994565 1.5369916 676 85001350 3786 10 63 7481
3.935415 6.0750995 1.4490013 730 85001350 3976 11 45 7382
4.6517053 5.6893611 1.4099993 750 85001350 4200 12 122 7483
4.3964238 5.8000712 1.3214568 638 85001350 3493 13 74 7397
4.1221147 5.8763008 1.2326208 711 85001350 3773 14 71 7283
3.8659506 5.964673 1.1539097 776 85001350 4021 15 54 7201
4.5594053 5.5762734 1.1099325 730 85001350 3876 16 46 7288
4.3024282 5.6733918 1.0273154 741 85001350 3836 17 100 7194
4.0405974 5.7534699 0.94657159 753 85001350 3791 18 61 7094
3.7959688 5.8488684 0.87183356 788 85001350 3892 19 104 7027
4.4960041 5.4985361 0.82997388 732 85001350 3746 20 69 7151
4.2354116 5.5831985 0.75066161 724 85001350 3598 21 68 7048
3.9889851 5.6742911 0.67630255 749 85001350 3636 22 53 6969
3.7368467 5.7509565 0.60473579 770 85001350 3650 23 119 6885
4.4052906 5.3854847 0.55711699 761 85001350 3709 24 83 6980
4.1522555 5.4706054 0.48422909 713 85001350 3382 25 58 6885
3.9185889 5.5737395 0.41517144 602 85001350 2806 26 90 6826
3.6877167 5.6679811 0.34811187 515 85001350 2361 27 118 6771
4.3862114 5.3568163 0.30095315 389 85001350 1867 28 40 6930
4.1524158 5.4668531 0.23265553 222 85001350 1046 29 31 6869
3.9408617 5.5942068 0.16879088 93 85001350 435 30 29 6845
3.7264581 5.7229366 0.10203654 65 85001350 301 31 52 6830
0 0 0 2 85001350 0 32 62 0
4.036366 5.3100257 -0.016879935 11 85001350 47 33 57 6670
3.8883226 5.5181932 -0.08059188 35 85001350 162 34 63 6751
3.67838 5.6411304 -0.14447679 105 85001350 475 35 46 6736
4.251277 5.186296 -0.19914788 483 85001350 2174 36 107 6709
3.9984453 5.2521434 -0.25819829 620 85001350 2704 37 54 6606
3.7544818 5.323513 -0.31712016 693 85001350 2947 38 135 6522
3.5186086 5.3963122 -0.37472135 774 85001350 3225 39 79 6453
4.1301122 5.0304189 -0.43196386 943 85001350 4013 40 82 6523
3.8933275 5.1092544 -0.48671278 847 85001350 3515 41 103 6442
3.667506 5.1971073 -0.54308134 893 85001350 3640 42 101 6384
3.4474883 5.2809911 -0.59848779 903 85001350 3626 43 59 6335
4.0685492 4.9519105 -0.66162121 931 85001350 3866 44 82 6443
3.8494442 5.0474615 -0.71516579 847 85001350 3454 45 54 6388
3.619725 5.1237016 -0.7666012 905 85001350 3617 46 68 6320
3.4041016 5.2117476 -0.82196426 912 85001350 3596 47 108 6279
3.9923031 4.8508191 -0.88170809 941 85001350 3789 48 74 6344
3.7959049 4.9727588 -0.93864572 895 85001350 3580 49 45 6326
3.5756738 5.055728 -0.98975587 883 85001350 3474 50 66 6271
3.3413844 5.1126075 -1.0365437 933 85001350 3582 51 76 6195
3.947494 4.7876821 -1.1059864 949 85001350 3772 52 78 6303
3.7336891 4.8861241 -1.155599 896 85001350 3509 53 73 6257
3.5164192 4.9686346 -1.2039493 898 85001350 3459 54 75 6205
3.3066878 5.059711 -1.2583392 929 85001350 3543 55 63 6174
3.9069021 4.7330623 -1.3314047 944 85001350 3723 56 120 6280
3.6802835 4.8110108 -1.373395 879 85001350 3393 57 59 6211
3.4697957 4.9007611 -1.4227813 889 85001350 3387 58 62 6171
3.2541513 4.978374 -1.4718773 928 85001350 3485 59 68 6127
3.8753161 4.6836309 -1.5600352 866 85001350 3413 60 58 6276
3.6408572 4.7512178 -1.5962811 876 85001350 3360 61 50 6195
3.4165668 4.8236165 -1.6388276 848 85001350 3189 62 39 6134
3.2052603 4.9080658 -1.690976 822 85001350 3058 63 42 6101
5.0109 6.041985 2.4501092 680 85098510 4600 0 79 8223
4.7087588 6.1391253 2.3222435 782 85098510 5106 1 76 8078
4.4211116 6.235733 2.213408 674 85098510 4271 2 59 7958
4.1317172 6.3190994 2.1089849 802 85098510 4926 3 56 7839
4.8872042 5.8989105 2.0693765 731 85098510 4605 4 74 7935
4.6004748 5.9925318 1.9604139 792 85098510 4822 5 44 7805
4.3249068 6.0950799 1.8617172 704 85098510 4178 6 90 7702
4.0348601 6.1573482 1.7597537 812 85098510 4655 7 61 7569
4.78651 5.7796297 1.7293358 699 85098510 4147 8 82 7701
4.5218425 5.8947906 1.6342697 698 85098510 4041 9 89 7607
4.2400603 5.9686608 1.5369916 730 85098510 4089 10 58 7481
3.9726171 6.050838 1.4490013 655 85098510 3567 11 46 7382
4.6940427 5.6697898 1.4122604 697 85098510 3917 12 91 7495
4.4319296 5.7729859 1.3214568 722 85098510 3953 13 73 7397
4.1786466 5.8798184 1.2387136 718 85098510 3847 14 83 7319
3.9024763 5.9408398 1.1539097 777 85098510 4031 15 66 7201
4.6010981 5.5573273 1.11176 798 85098510 4251 16 33 7300
4.3371587 5.6468854 1.0273154 724 85098510 3749 17 81 7194
4.089613 5.7479496 0.94977397 736 85098510 3727 18 46 7118
3.8383288 5.8354149 0.87332237 715 85098510 3544 19 75 7039
4.5220566 5.4616652 0.82858109 760 85098510 3875 20 74 7139
4.2986674 5.5949516 0.7557739 670 85098510 3375 21 79 7096
4.0237269 5.6497083 0.67630255 755 85098510 3669 22 79 6969
3.7720635 5.7279191 0.60473579 743 85098510 3523 23 101 6885
4.4382524 5.3583527 0.55711699 747 85098510 3641 24 77 6980
4.1930399 5.454515 0.48507306 688 85098510 3274 25 73 6897
3.945766 5.5398345 0.41444159 615 85098510 2855 26 111 6814
3.7158282 5.635242 0.34749493 540 85098510 2466 27 127 6759
4.4189978 5.329802 0.30095315 403 85098510 1934 28 50 6930
4.2005067 5.4602828 0.2334684 174 85098510 825 29 42 6893
3.9960194 5.5992146 0.16967861 104 85098510 491 30 36 6881
3.7681122 5.7099786 0.10221581 48 85098510 223 31 42 6842
0 0 0 5 85098510 0 32 38 0
4.1347542 5.3707356 -0.017153254 12 85098510 53 33 53 6778
3.9151368 5.4844651 -0.080448627 35 85098510 157 34 50 6739
3.712924 5.618454 -0.14447679 119 85098510 542 35 64 6736
4.2676983 5.141654 -0.19843549 465 85098510 2078 36 112 6685
4.0305963 5.2275105 -0.25819829 610 85098510 2664 37 60 6606
3.8010116 5.3198805 -0.31828713 734 85098510 3143 38 171 6546
3.5516536 5.3746209 -0.37472135 767 85098510 3196 39 76 6453
4.1685553 5.0141897 -0.43275854 913 85098510 3900 40 96 6535
3.9392252 5.1042142 -0.48852605 837 85098510 3500 41 104 6466
3.6993258 5.1745057 -0.54308134 897 85098510 3655 42 127 6384
3.4864182 5.2697015 -0.59962142 904 85098510 3644 43 63 6347
4.0988569 4.9268532 -0.66162121 944 85098510 3919 44 108 6443
3.8803422 5.023747 -0.71516579 891 85098510 3638 45 62 6388
3.6580279 5.1110811 -0.76805681 814 85098510 3265 46 97 6332
3.4294496 5.1808419 -0.82039338 848 85098510 3330 47 121 6267
4.0372081 4.8444896 -0.88504368 953 85098510 3865 48 96 6368
3.8263457 4.9493737 -0.93864572 851 85098510 3404 49 52 6326
3.6066279 5.0336928 -0.98975587 874 85098510 3439 50 61 6271
3.3922913 5.1215992 -1.0425673 931 85098510 3616 51 68 6231
3.9843676 4.7724395 -1.1080921 947 85098510 3778 52 72 6315
3.7635996 4.8631229 -1.155599 910 85098510 3564 53 79 6257
3.54684 4.9469647 -1.2039493 913 85098510 3516 54 77 6205
3.3376713 5.0393267 -1.2583392 942 85098510 3589 55 52 6174
3.9433908 4.7179995 -1.3339489 888 85098510 3515 56 119 6292
3.7169015 4.7975898 -1.3760484 877 85098510 3397 57 75 6223
3.5066063 4.8888664 -1.425548 864 85098510 3305 58 59 6183
3.284637 4.9583135 -1.4718773 922 85098510 3463 59 61 6127
3.8890522 4.6419444 -1.5540694 895 85098510 3500 60 63 6252
3.6770506 4.7379484 -1.5993731 870 85098510 3350 61 47 6207
3.459583 4.8213525 -1.6452397 839 85098510 3180 62 55 6158
3.2480426 4.907536 -1.697628 737 85098510 2763 63 52 6125
5.0626116 6.0286694 2.4572601 658 85196910 4477 0 82 8247
4.7392883 6.1010404 2.3187938 771 85196910 5019 1 81 8066
4.4660144 6.2178502 2.2167459 673 85196910 4278 2 59 7970
4.1640286 6.2839947 2.1057565 805 85196910 4930 3 44 7827
4.9307528 5.8776875 2.072506 748 85196910 4726 4 82 7947
4.6514173 5.9825306 1.9664421 751 85196910 4600 5 43 7829
4.3826137 6.0967927 1.8704191 641 85196910 3839 6 102 7738
4.0854783 6.1519198 1.7653337 805 85196910 4644 7 61 7593
4.8444242 5.7770324 1.7374201 691 85196910 4138 8 91 7737
4.5507369 5.8576789 1.6316917 689 85196910 3977 9 77 7595
4.2766037 5.9425321 1.5369916 761 85196910 4257 10 53 7481
4.0096693 6.0263486 1.4490013 730 85196910 3976 11 38 7382
4.7211723 5.6318493 1.4099993 791 85196910 4431 12 90 7483
4.4745154 5.7550049 1.3236006 757 85196910 4158 13 71 7409
4.2146459 5.8540683 1.2387136 708 85196910 3794 14 69 7319
3.9322913 5.9069223 1.1519868 781 85196910 4038 15 64 7189
4.6427302 5.5380797 1.1135875 802 85196910 4286 16 47 7312
4.3936028 5.6482916 1.0324562 751 85196910 3927 17 86 7230
4.1178508 5.7131 0.94817281 733 85196910 3703 18 59 7106
3.8740621 5.8117537 0.87332237 655 85196910 3247 19 85 7039
4.586113 5.4703503 0.83415216 762 85196910 3938 20 79 7187
4.3182621 5.5496368 0.75321776 722 85196910 3613 21 69 7072
4.0653052 5.6345983 0.67746711 767 85196910 3736 22 54 6981
3.8137741 5.7146091 0.60578984 811 85196910 3858 23 111 6897
4.4864202 5.349349 0.55903256 755 85196910 3706 24 75 7004
4.2337828 5.4381294 0.48591703 685 85196910 3272 25 68 6909
3.9866922 5.5252328 0.41517144 603 85196910 2810 26 108 6826
3.7703106 5.6422291 0.34934577 540 85196910 2494 27 99 6795
4.4593258 5.3117695 0.3014743 419 85196910 2018 28 41 6942
4.2339315 5.4344058 0.2334684 227 85196910 1077 29 43 6893
4.016243 5.5551467 0.16908678 97 85196910 455 30 27 6857
3.7964067 5.6767764 0.10203654 47 85196910 217 31 52 6830
0 0 0 4 85196910 0 32 62 0
4.1676307 5.3452644 -0.017153254 15 85196910 67 33 51 6778
3.9838722 5.5089545 -0.081164889 42 85196910 192 34 46 6799
3.700598 5.5257878 -0.14267512 149 85196910 658 35 40 6652
4.3146009 5.1337357 -0.19914788 489 85196910 2201 36 126 6709
4.0625958 5.2026811 -0.25819829 606 85196910 2647 37 59 6606
3.8335822 5.2964578 -0.31828713 665 85196910 2848 38 156 6546
3.5912306 5.3626814 -0.37541819 784 85196910 3279 39 74 6465
4.206954 4.9976778 -0.43355322 871 85196910 3734 40 97 6547
3.9778385 5.0893755 -0.48943269 878 85196910 3684 41 115 6478
3.7450328 5.1710773 -0.54512304 832 85196910 3416 42 116 6408
3.5120347 5.2382874 -0.59848779 884 85196910 3549 43 63 6335
4.1443911 4.9198685 -0.66408575 938 85196910 3924 44 99 6467
3.9110944 4.9998426 -0.71516579 896 85196910 3658 45 62 6388
3.6893198 5.0885396 -0.76805681 935 85196910 3751 46 81 6332
