# .PCD v0.7 - Point Cloud Data file format
VERSION 0.7
FIELDS x y z intensity t reflectivity ring noise range
SIZE 4 4 4 4 4 2 1 2 4
TYPE F F F F U U U U U
COUNT 1 1 1 1 1 1 1 1 1
WIDTH 759
HEIGHT 1
VIEWPOINT 0 0 0 1 0 0 0
POINTS 759
DATA ascii
-0.89253443 5.8566637 -1.4661118 909 73495630 3387 59 81 6103
-0.23800427 6.1092544 -1.5689837 931 73495630 3711 60 61 6312
-0.4599494 6.0146279 -1.6086494 866 73495630 3377 61 63 6243
-0.67838329 5.9301672 -1.6548579 814 73495630 3124 62 70 6194
-0.89254266 5.840291 -1.7042798 808 73495630 3057 63 64 6149
-0.25114694 6.6419873 2.074682 771 73592860 3739 0 80 6963
-0.49414566 6.4999452 1.9565722 841 73592860 3897 1 103 6806
-0.73216784 6.4267159 1.8729694 754 73592860 3421 2 78 6734
-0.9607594 6.3099365 1.7829115 848 73592860 3726 3 64 6627
-0.25073874 6.5434747 1.7689452 814 73592860 3746 4 100 6783
-0.48798287 6.4561481 1.6801035 800 73592860 3581 5 67 6689
-0.72226107 6.3614755 1.59486 828 73592860 3605 6 99 6598
-0.94542933 6.2517748 1.5114492 856 73592860 3619 7 85 6501
-0.25098622 6.5172319 1.5029795 789 73592860 3535 8 104 6693
-0.48910347 6.4380803 1.4202915 795 73592860 3476 9 97 6611
-0.71388513 6.3181973 1.3348261 838 73592860 3539 10 74 6497
-0.93788856 6.2387309 1.2629199 830 73592860 3438 11 64 6434
-0.24935277 6.4484758 1.2381538 822 73592860 3548 12 144 6571
-0.48268643 6.386075 1.1628177 833 73592860 3530 13 96 6509
-0.70775968 6.2747822 1.0843611 802 73592860 3292 14 97 6407
-0.92663234 6.1741171 1.0135369 856 73592860 3426 15 68 6325
-0.24887908 6.4391365 0.99296921 841 73592860 3577 16 89 6520
-0.47792003 6.3421607 0.91764361 842 73592860 3478 17 95 6426
-0.70065606 6.242125 0.84569645 830 73592860 3336 18 66 6338
-0.92155826 6.1659684 0.77952611 813 73592860 3210 19 109 6283
-0.24658912 6.3827763 0.74640775 795 73592860 3289 20 106 6431
-0.47360396 6.2980876 0.67653269 817 73592860 3298 21 80 6352
-0.69482756 6.2166257 0.6099242 827 73592860 3269 22 65 6285
-0.91152549 6.1214943 0.54571152 855 73592860 3301 23 115 6213
-0.24383283 6.342999 0.50826949 797 73592860 3233 24 102 6368
-0.46848539 6.2519083 0.44203046 849 73592860 3355 25 82 6285
-0.69140321 6.1879449 0.37940809 805 73592860 3131 26 135 6238
-0.90054089 6.0724592 0.31603068 893 73592860 3374 27 110 6147
-0.23938122 6.3074989 0.2743755 876 73592860 3499 28 73 6318
-0.46689504 6.2600093 0.21273975 821 73592860 3240 29 67 6281
-0.68212068 6.1574488 0.15281186 855 73592860 3285 30 70 6197
-0.89574641 6.0554242 0.091459394 904 73592860 3389 31 82 6122
-0.23813473 6.2833357 0.043898165 833 73592860 3293 32 118 6288
-0.45990708 6.1969376 -0.015725924 844 73592860 3259 33 113 6214
-0.67778784 6.1251745 -0.073572472 788 73592860 2994 34 89 6163
-0.89027357 6.045393 -0.13109295 936 73592860 3497 35 81 6112
-0.23365837 6.2458758 -0.18561211 705 73592860 2756 36 132 6253
-0.45121017 6.1407371 -0.24084434 813 73592860 3089 37 69 6162
-0.67042226 6.0819149 -0.29786542 889 73592860 3337 38 201 6126
-0.88457173 6.0059476 -0.35311958 887 73592860 3281 39 90 6081
-0.23119976 6.312871 -0.41924933 292 73592860 1171 40 102 6331
-0.45038858 6.1678514 -0.46858004 412 73592860 1585 41 105 6202
-0.66512871 6.0494037 -0.51960224 520 73592860 1939 42 135 6108
-0.87568378 5.9679985 -0.57241315 634 73592860 2329 43 77 6059
-0.22972901 6.3331552 -0.65422761 232 73592860 942 44 109 6371
-0.45457745 6.25981 -0.7071051 192 73592860 768 45 68 6316
-0.67457926 6.1650696 -0.75786775 204 73592860 797 46 107 6248
-0.89013761 6.0768423 -0.8109681 155 73592860 595 47 112 6195
-0.22290029 6.2903662 -0.88337588 594 73592860 2400 48 93 6356
-0.44782022 6.2042327 -0.93330407 345 73592860 1366 49 80 6290
-0.67032653 6.1560125 -0.98975587 250 73592860 982 50 42 6271
-0.89036471 6.0902519 -1.0445751 127 73592860 497 51 65 6243
-0.21218555 6.1424756 -1.0954581 942 73592860 3671 52 127 6243
-0.43370175 6.0512843 -1.1400851 885 73592860 3373 53 81 6173
-0.65194184 6.0047035 -1.1946359 897 73592860 3401 54 93 6157
-0.86597407 5.9226933 -1.2461104 865 73592860 3235 55 61 6114
-0.2088511 6.1454234 -1.3339489 867 73592860 3431 56 158 6292
-0.42819425 6.0186343 -1.368088 869 73592860 3328 57 77 6187
-0.645733 5.9581771 -1.4200146 889 73592860 3373 58 74 6159
-0.85826606 5.8735561 -1.4689945 927 73592860 3467 59 78 6115
-0.19975168 6.0873656 -1.563018 900 73592860 3561 60 59 6288
-0.42303568 6.0173368 -1.6086494 897 73592860 3494 61 52 6243
-0.64198369 5.9342179 -1.6548579 737 73592860 2829 62 66 6194
-0.86003423 5.868474 -1.7109318 840 73592860 3202 63 64 6173
-0.21038775 6.6434031 2.074682 751 73689470 3643 0 78 6963
-0.45425344 6.5028548 1.9565722 851 73689470 3943 1 92 6806
-0.69272047 6.431087 1.8729694 701 73689470 3180 2 71 6734
-0.9236939 6.3271494 1.78614 865 73689470 3811 3 52 6639
-0.2113291 6.568047 1.7752041 831 73689470 3852 4 70 6807
-0.45077255 6.493783 1.6891459 744 73689470 3362 5 53 6725
-0.68445677 6.3773646 1.5977604 808 73689470 3531 6 90 6610
-0.90537703 6.2459078 1.5086594 852 73689470 3589 7 81 6489
-0.2109925 6.5186491 1.5029795 816 73689470 3656 8 109 6693
-0.450407 6.452651 1.4228694 785 73689470 3443 9 122 6623
-0.67635089 6.3341365 1.3372916 811 73689470 3438 10 78 6509
-0.89791292 6.2327218 1.2605643 825 73689470 3400 11 53 6422
-0.21093029 6.4852209 1.2449373 833 73689470 3636 12 138 6607
-0.44349313 6.3889165 1.1628177 865 73689470 3667 13 82 6509
-0.67175192 6.302527 1.088423 806 73689470 3334 14 88 6431
-0.8904174 6.191411 1.0154598 860 73689470 3455 15 65 6337
-0.20936459 6.4405422 0.99296921 871 73689470 3701 16 50 6520
-0.43981606 6.3568225 0.91935724 760 73689470 3151 17 90 6438
-0.66359597 6.2581334 0.84729767 806 73689470 3251 18 84 6350
-0.88370723 6.1715069 0.77952611 808 73689470 3190 19 107 6283
-0.2081946 6.4079947 0.74919331 819 73689470 3413 20 101 6455
-0.4365941 6.3246822 0.67908889 765 73689470 3111 21 80 6376
-0.65541619 6.2088947 0.60875964 824 73689470 3244 22 80 6273
-0.87394756 6.1269722 0.54571152 851 73689470 3285 23 117 6213
-0.20606671 6.3802419 0.51114285 835 73689470 3426 24 81 6404
-0.43175805 6.2785497 0.44371843 861 73689470 3428 25 86 6309
-0.6521647 6.1801591 0.3786782 789 73689470 3057 26 140 6226
-0.86831969 6.1134658 0.31788149 800 73689470 3057 27 129 6183
-0.20105578 6.3208318 0.27489662 898 73689470 3600 28 69 6330
-0.42847556 6.2627559 0.21273975 816 73689470 3218 29 40 6281
-0.64557409 6.173449 0.15310775 841 73689470 3244 30 58 6209
-0.86194003 6.0845666 0.091817945 902 73689470 3408 31 85 6146
-0.20033817 6.3086662 0.044065718 848 73689470 3378 32 119 6312
-0.42187473 6.1996431 -0.015725924 860 73689470 3321 33 109 6214
-0.64393127 6.1650209 -0.074002229 771 73689470 2963 34 115 6199
-0.85483801 6.0626211 -0.13135032 902 73689470 3383 35 105 6124
-0.19570486 6.259181 -0.18596832 675 73689470 2649 36 137 6265
-0.41513345 6.1673174 -0.2417824 765 73689470 2929 37 77 6186
-0.63185155 6.0739927 -0.29728192 859 73689470 3212 38 195 6114
-0.84770328 6.0112619 -0.35311958 909 73689470 3362 39 95 6081
-0.19391954 6.3620434 -0.42242795 266 73689470 1083 40 102 6379
-0.41413128 6.1943769 -0.47039333 372 73689470 1443 41 87 6226
-0.62923151 6.0652637 -0.52062309 455 73689470 1703 42 143 6120
-0.84403354 6.00875 -0.57581419 565 73689470 2101 43 60 6095
-0.19050567 6.3225145 -0.65299535 232 73689470 939 44 105 6359
-0.41774073 6.2862778 -0.70979196 223 73689470 898 45 61 6340
-0.63918424 6.19279 -0.76077896 218 73689470 859 46 84 6272
-0.85283405 6.0821896 -0.8109681 183 73689470 702 47 109 6195
-0.18395118 6.2797365 -0.88170809 628 73689470 2528 48 95 6344
-0.40974334 6.2068639 -0.93330407 440 73689470 1739 49 48 6290
-0.63012052 6.1364346 -0.98596793 325 73689470 1266 50 55 6247
-0.85297889 6.0956006 -1.0445751 151 73689470 590 51 64 6243
-0.17482741 6.1554704 -1.0975637 939 73689470 3674 52 125 6255
-0.39733449 6.0655999 -1.1423014 862 73689470 3298 53 99 6185
-0.61508536 6.0085907 -1.1946359 884 73689470 3352 54 88 6157
-0.82961679 5.9278955 -1.2461104 905 73689470 3381 55 55 6114
-0.17113955 6.1465893 -1.3339489 908 73689470 3594 56 123 6292
-0.39201543 6.0328264 -1.3707415 874 73689470 3359 57 86 6199
-0.60916215 5.9620271 -1.4200146 858 73689470 3256 58 62 6159
-0.82382393 5.8902483 -1.4718773 888 73689470 3335 59 62 6127
-0.16332631 6.1233344 -1.5719665 909 73689470 3638 60 61 6324
-0.38684815 6.0313897 -1.6117414 868 73689470 3398 61 66 6255
-0.60555995 5.9380455 -1.6548579 833 73689470 3197 62 65 6194
-0.82240796 5.8622222 -1.7076058 800 73689470 3038 63 62 6161
-0.16991296 6.6560202 2.0782576 700 73787710 3407 0 84 6975
-0.41726631 6.5514002 1.9703711 827 73787710 3887 1 86 6854
-0.65324706 6.4352164 1.8729694 764 73787710 3466 2 78 6734
-0.88485384 6.3326979 1.78614 874 73787710 3851 3 55 6639
-0.17162734 6.592382 1.7814631 830 73787710 3874 4 90 6831
-0.41091898 6.4964271 1.6891459 831 73787710 3759 5 72 6725
-0.64414161 6.3698597 1.59486 844 73787710 3676 6 83 6598
-0.8702426 6.2744665 1.5142392 886 73787710 3760 7 77 6513
-0.17191057 6.5548897 1.5110636 811 73787710 3673 8 89 6729
-0.41006148 6.4435978 1.4202915 789 73787710 3448 9 119 6611
-0.63864785 6.3498526 1.3397571 828 73787710 3523 10 58 6521
-0.85965276 6.2381139 1.2605643 851 73787710 3508 11 55 6422
-0.1717554 6.5099554 1.2494595 806 73787710 3544 12 107 6631
-0.40577382 6.4150844 1.1671053 830 73787710 3545 13 74 6533
-0.63424897 6.3182983 1.090454 800 73787710 3321 14 97 6443
-0.85241085 6.1967583 1.0154598 837 73787710 3362 15 71 6337
-0.17015482 6.4535618 0.99479681 850 73787710 3629 16 59 6532
-0.40155011 6.3712549 0.92107087 841 73787710 3500 17 96 6450
-0.6251843 6.2620873 0.84729767 832 73787710 3356 18 67 6350
-0.8490538 6.200407 0.78250378 834 73787710 3318 19 109 6307
-0.16918589 6.4210663 0.75058609 827 73787710 3459 20 115 6467
-0.39777836 6.3272419 0.67908889 808 73787710 3285 21 101 6376
-0.6196686 6.2365694 0.61108875 840 73787710 3332 22 85 6297
-0.84602869 6.2032833 0.55203551 772 73787710 3048 23 158 6285
-0.1669144 6.3813863 0.51114285 830 73787710 3405 24 81 6404
-0.39247751 6.2691336 0.44287446 843 73787710 3344 25 83 6297
-0.61423165 6.1840444 0.3786782 803 73787710 3112 26 109 6226
-0.82917947 6.1068039 0.31726456 847 73787710 3225 27 110 6171
-0.16257572 6.333931 0.27541775 885 73787710 3561 28 82 6342
-0.39003995 6.2652674 0.21273975 800 73787710 3154 29 56 6281
-0.60768235 6.1772943 0.15310775 864 73787710 3329 30 54 6209
-0.82136959 6.0659604 0.091459394 909 73787710 3408 31 76 6122
-0.16131787 6.297781 0.04398194 853 73787710 3386 32 100 6300
-0.38530892 6.226069 -0.015786661 840 73787710 3268 33 133 6238
-0.60609132 6.1688557 -0.074002229 834 73787710 3206 34 101 6199
-0.81922454 6.0796423 -0.1316077 939 73787710 3535 35 110 6136
-0.15729555 6.2602639 -0.18596832 675 73787710 2649 36 113 6265
-0.37801558 6.1817174 -0.24225143 712 73787710 2737 37 65 6198
-0.59573734 6.089684 -0.29786542 844 73787710 3167 38 224 6126
-0.81240296 6.0282226 -0.35381642 851 73787710 3160 39 94 6093
-0.1557532 6.399024 -0.42481196 192 73787710 791 40 102 6415
-0.37829027 6.2326322 -0.47311321 347 73787710 1361 41 110 6262
-0.59316468 6.0809107 -0.52164394 434 73787710 1631 42 136 6132
-0.80555952 6.0019751 -0.57468051 553 73787710 2048 43 60 6083
-0.15285303 6.3712974 -0.65792447 243 73787710 998 44 105 6407
-0.37844333 6.2768197 -0.70844847 198 73787710 795 45 68 6328
-0.60232419 6.2084513 -0.76223451 193 73787710 763 46 106 6284
-0.82181704 6.1344743 -0.81725168 197 73787710 768 47 102 6243
-0.14541598 6.2807474 -0.88170809 674 73787710 2714 48 85 6344
-0.37306905 6.2329526 -0.93686515 484 73787710 1931 49 81 6314
-0.59473234 6.163775 -0.98975587 428 73787710 1685 50 64 6271
-0.81556094 6.1007195 -1.0445751 235 73787710 914 51 52 6243
-0.13731781 6.1682382 -1.0996695 937 73787710 3680 52 113 6267
-0.36150652 6.0914693 -1.1467339 855 73787710 3297 53 97 6209
-0.57820576 6.0122519 -1.1946359 874 73787710 3313 54 115 6157
-0.7947852 5.944519 -1.2485563 925 73787710 3473 55 70 6126
-0.1331671 6.1357989 -1.3314047 943 73787710 3718 56 140 6280
-0.35705286 6.0701666 -1.3787018 851 73787710 3309 57 80 6235
-0.57479948 5.9888988 -1.425548 878 73787710 3358 58 63 6183
-0.79075193 5.9182844 -1.4776428 890 73787710 3368 59 86 6151
-0.12598978 6.1358423 -1.5749495 925 73787710 3716 60 62 6336
-0.34916183 6.0220752 -1.6086494 828 73787710 3229 61 64 6243
-0.57131857 5.9646716 -1.66127 840 73787710 3249 62 62 6218
-0.78642255 5.8671584 -1.7076058 788 73787710 2989 63 54 6161
-0.12951331 6.6798434 2.0854084 739 73885630 3621 0 99 6999
-0.37705982 6.5538373 1.9703711 807 73885630 3792 1 94 6854
-0.6159364 6.4620528 1.8796446 757 73885630 3459 2 73 6758
-0.84903866 6.36092 1.7925968 884 73885630 3923 3 45 6663
-0.13186531 6.628058 1.7908516 806 73885630 3801 4 98 6867
-0.37104991 6.498826 1.6891459 813 73885630 3678 5 69 6725
-0.60834599 6.4084682 1.6035618 804 73885630 3539 6 107 6634
-0.83325922 6.2912579 1.517029 912 73885630 3884 7 88 6525
-0.13192213 6.567512 1.5137583 813 73885630 3695 8 109 6741
-0.37186167 6.4693933 1.4254476 743 73885630 3271 9 117 6635
-0.60077739 6.3653436 1.3422225 830 73885630 3545 10 58 6533
-0.82289505 6.2549372 1.2629199 870 73885630 3603 11 61 6434
-0.1315693 6.499104 1.2471983 813 73885630 3562 12 124 6619
-0.36573094 6.4056654 1.1649615 839 73885630 3569 13 94 6521
-0.59657776 6.3338456 1.092485 827 73885630 3446 14 108 6455
-0.81745648 6.2253599 1.0193057 867 73885630 3509 15 73 6361
-0.13055331 6.454484 0.99479681 839 73885630 3578 16 54 6532
-0.36110061 6.3498831 0.91764361 833 73885630 3441 17 94 6426
-0.58896667 6.2894869 0.85049999 768 73885630 3122 18 62 6374
-0.80944979 6.1936932 0.78101492 827 73885630 3279 19 78 6295
-0.12978379 6.4219837 0.75058609 818 73885630 3422 20 98 6467
-0.36097431 6.3653011 0.68292308 848 73885630 3487 21 96 6412
-0.58360589 6.2640376 0.61341774 819 73885630 3274 22 65 6321
-0.80177963 6.160943 0.5478195 827 73885630 3217 23 128 6237
-0.12799521 6.3942499 0.51210064 799 73885630 3291 24 82 6416
-0.35602728 6.3072777 0.44540635 821 73885630 3294 25 75 6333
-0.57849699 6.2115493 0.38013795 831 73885630 3245 26 145 6250
-0.79323268 6.123661 0.31788149 883 73885630 3375 27 110 6183
-0.12394246 6.3467956 0.27593887 881 73885630 3558 28 82 6354
-0.35360482 6.3034658 0.21395908 775 73885630 3091 29 52 6317
-0.57086897 6.1928525 0.15340365 840 73885630 3253 30 58 6221
-0.78874516 6.1065855 0.091997221 916 73885630 3474 31 105 6158
-0.12267238 6.2986522 0.04398194 809 73885630 3211 32 106 6300
-0.34709924 6.2283163 -0.015786661 859 73885630 3343 33 122 6238
-0.56932849 6.1844072 -0.074145488 843 73885630 3253 34 98 6211
-0.77884686 6.0607557 -0.13109295 906 73885630 3385 35 83 6112
-0.11933576 6.2850962 -0.18668073 608 73885630 2405 36 118 6289
-0.33941972 6.1719475 -0.2417824 726 73885630 2779 37 84 6186
-0.56054801 6.1170964 -0.29903236 805 73885630 3046 38 192 6150
-0.77539915 6.0330939 -0.35381642 838 73885630 3112 39 94 6093
-0.11692239 6.4238019 -0.42640126 204 73885630 847 40 86 6439
-0.34264696 6.2826281 -0.47673979 316 73885630 1258 41 117 6310
-0.56019276 6.1320634 -0.52572721 386 73885630 1473 42 145 6180
-0.77174985 6.0305047 -0.57694787 493 73885630 1840 43 71 6107
-0.1137566 6.3721151 -0.65792447 206 73885630 847 44 90 6407
-0.33798859 6.2433023 -0.70441818 221 73885630 873 45 49 6292
-0.56745082 6.2476177 -0.7666012 207 73885630 827 46 111 6320
-0.77813202 6.0921974 -0.8109681 205 73885630 787 47 103 6195
-0.10667314 6.2696395 -0.88004029 761 73885630 3053 48 69 6332
-0.33418104 6.2232747 -0.93508464 533 73885630 2118 49 70 6302
-0.5537039 6.1319032 -0.98407394 487 73885630 1895 50 58 6235
-0.77960783 6.1173444 -1.0465829 359 73885630 1406 51 70 6255
-0.099658079 6.1807771 -1.1017751 948 73885630 3738 52 118 6279
-0.32474959 6.1053495 -1.1489502 859 73885630 3325 53 108 6221
-0.54130441 6.0156865 -1.1946359 875 73885630 3318 54 85 6157
-0.75532454 5.9259758 -1.2436646 911 73885630 3393 55 70 6102
-0.095698565 6.1482267 -1.3339489 925 73885630 3662 56 121 6292
-0.3210313 6.0956168 -1.3840089 818 73885630 3205 57 86 6259
-0.53804147 5.9923129 -1.425548 855 73885630 3270 58 74 6183
-0.75295132 5.9114695 -1.4747601 920 73885630 3468 59 85 6139
-0.088338584 6.1364999 -1.5749495 914 73885630 3672 60 59 6336
-0.31340471 6.0472622 -1.6148335 897 73885630 3525 61 58 6267
-0.53470927 5.9680648 -1.66127 811 73885630 3134 62 55 6218
-0.75333071 5.8947473 -1.7142578 804 73885630 3077 63 63 6185
-0.088675886 6.6919656 2.088984 722 73984860 3550 0 90 7011
-0.33742887 6.5675058 1.9738208 823 73984860 3881 1 98 6866
-0.57832098 6.4886727 1.88632 753 73984860 3465 2 83 6782
-0.80707526 6.3430796 1.78614 877 73984860 3868 3 70 6639
-0.090875112 6.6055756 1.7845926 819 73984860 3835 4 106 6843
-0.33234876 6.5241809 1.6951741 818 73984860 3727 5 65 6749
-0.56798363 6.4004817 1.600661 780 73984860 3422 6 77 6622
-0.79610252 6.3078318 1.519819 879 73984860 3757 7 88 6537
-0.091785245 6.5798903 1.516453 776 73984860 3539 8 108 6753
-0.33396146 6.5066662 1.4331818 724 73984860 3222 9 108 6671
-0.56170911 6.3689103 1.3422225 835 73984860 3562 10 52 6533
-0.7845 6.2598686 1.2629199 844 73984860 3496 11 60 6434
-0.092187747 6.5351405 1.2539817 794 73984860 3517 12 107 6655
-0.32702032 6.4195809 1.1671053 833 73984860 3557 13 84 6533
-0.55770278 6.3373871 1.092485 803 73984860 3346 14 108 6455
-0.78218305 6.2537651 1.0231515 857 73984860 3495 15 68 6385
-0.091281034 6.4788814 0.99845189 832 73984860 3579 16 59 6556
-0.32393634 6.3875647 0.92278451 830 73984860 3467 17 81 6462
-0.54932791 6.2811351 0.84889889 815 73984860 3300 18 74 6362
-0.77290136 6.2103591 0.78250378 829 73984860 3299 19 92 6307
-0.090712197 6.4464941 0.7533716 802 73984860 3380 20 103 6491
-0.32191077 6.3673964 0.68292308 830 73984860 3413 21 90 6412
-0.5441246 6.2556024 0.61225325 812 73984860 3234 22 72 6309
-0.76543152 6.177609 0.54887348 851 73984860 3323 23 133 6249
-0.089090437 6.4188361 0.51401627 786 73984860 3261 24 87 6440
-0.31731987 6.3093433 0.44540635 827 73984860 3318 25 89 6333
-0.54037273 6.2149816 0.38013795 826 73984860 3225 26 142 6250
-0.75564367 6.1284127 0.31788149 878 73984860 3356 27 113 6183
-0.0854785 6.3833995 0.27750227 853 73984860 3484 28 109 6390
-0.31551906 6.3174949 0.21436553 782 73984860 3130 29 52 6329
-0.53491533 6.2201433 0.15399548 861 73984860 3360 30 71 6245
-0.75126106 6.1113105 0.091997221 922 73984860 3497 31 102 6158
-0.084662445 6.3472815 0.044317044 801 73984860 3228 32 106 6348
-0.30887648 6.2303286 -0.015786661 843 73984860 3281 33 103 6238
-0.5334242 6.2116942 -0.074431986 771 73984860 2998 34 103 6235
-0.74601239 6.1011462 -0.13186508 910 73984860 3440 35 103 6148
-0.081077106 6.3096976 -0.18739314 569 73984860 2266 36 153 6313
-0.30212793 6.1858907 -0.24225143 662 73984860 2545 37 72 6198
-0.52402413 6.1323628 -0.29961583 784 73984860 2977 38 223 6162
-0.73836619 6.0377383 -0.35381642 889 73984860 3302 39 91 6093
-0.077215597 6.4004536 -0.42481196 202 73984860 832 40 82 6415
-0.30582595 6.3204675 -0.47945967 267 73984860 1076 41 93 6346
-0.52560061 6.1711249 -0.5287897 383 73984860 1479 42 138 6216
-0.73473287 6.0351267 -0.57694787 463 73984860 1728 43 67 6107
-0.074795716 6.3846283 -0.65915668 217 73984860 895 44 91 6419
-0.30253169 6.3048129 -0.71113545 223 73984860 898 45 49 6352
-0.53011012 6.2628508 -0.76805681 161 73984860 645 46 132 6332
-0.74647576 6.1440969 -0.81725168 210 73984860 818 47 128 6243
-0.068201348 6.2701759 -0.88004029 781 73984860 3132 48 103 6332
-0.29711667 6.2489157 -0.93864572 645 73984860 2583 49 68 6326
-0.51606882 6.1351852 -0.98407394 517 73984860 2008 50 54 6235
-0.73921067 6.0985231 -1.0425673 436 73984860 1694 51 82 6231
-0.06173167 6.181272 -1.1017751 903 73984860 3561 52 90 6279
-0.28728178 6.1072273 -1.1489502 903 73984860 3495 53 96 6221
-0.50536573 6.0306253 -1.1969643 883 73984860 3360 54 114 6169
-0.72177696 5.9538245 -1.2485563 939 73984860 3526 55 62 6126
-0.058303639 6.1838779 -1.341581 939 73984860 3760 56 110 6328
-0.28307948 6.0857816 -1.3813554 877 73984860 3424 57 81 6247
-0.50223607 6.0071378 -1.4283147 870 73984860 3340 58 75 6195
-0.71666503 5.9159784 -1.4747601 928 73984860 3498 59 98 6139
-0.050876047 6.160172 -1.5809151 940 73984860 3801 60 40 6360
-0.27629349 6.0490713 -1.6148335 908 73984860 3564 61 52 6267
-0.49904108 5.9827571 -1.664476 881 73984860 3421 62 67 6230
-0.71853846 5.9107041 -1.7175838 769 73984860 2951 63 54 6197
-0.047857571 6.726748 2.0997105 672 74082290 3338 0 83 7047
-0.29764438 6.5809345 1.9772706 832 74082290 3938 1 85 6878
-0.54135472 6.5265598 1.8963329 750 74082290 3488 2 63 6818
-0.76952809 6.3593864 1.7893685 845 74082290 3740 3 72 6651
-0.050695475 6.6523461 1.7971106 827 74082290 3929 4 76 6891
-0.29335034 6.5493045 1.7012022 807 74082290 3700 5 50 6773
-0.53157461 6.4386606 1.6093631 750 74082290 3325 6 99 6658
-0.75877374 6.3241858 1.522609 907 74082290 3891 7 77 6549
-0.051501427 6.5920229 1.5191478 806 74082290 3689 8 116 6765
-0.29403102 6.5085931 1.4331818 802 74082290 3570 9 107 6671
-0.52453953 6.3956461 1.3471533 839 74082290 3606 10 56 6557
-0.75024986 6.2996163 1.2699862 878 74082290 3673 11 54 6470
-0.052274991 6.5591526 1.258504 773 74082290 3448 12 115 6679
-0.28868097 6.4450564 1.1713928 858 74082290 3691 13 80 6557
-0.52073568 6.3642645 1.0965468 807 74082290 3388 14 96 6479
-0.74379593 6.2584467 1.0231515 793 74082290 3234 15 75 6385
-0.051808584 6.5148983 1.0039345 837 74082290 3639 16 67 6592
-0.28526565 6.4012976 0.92449814 808 74082290 3387 17 116 6474
-0.51366752 6.3199482 0.85370243 763 74082290 3124 18 79 6398
-0.73617882 6.22681 0.78399259 854 74082290 3411 19 93 6319
-0.051155545 6.4469295 0.7533716 800 74082290 3372 20 93 6491
-0.2828351 6.3692517 0.68292308 818 74082290 3364 21 91 6412
-0.50765449 6.2826324 0.6145823 826 74082290 3314 22 81 6333
-0.727512 6.1821895 0.54887348 851 74082290 3322 23 164 6249
-0.049796134 6.4312229 0.514974 786 74082290 3273 24 97 6452
-0.27912837 6.3231301 0.44625032 829 74082290 3339 25 77 6345
-0.50512099 6.2539968 0.38232753 820 74082290 3239 26 136 6286
-0.72220689 6.168643 0.31973234 884 74082290 3419 27 110 6219
-0.046309084 6.3838038 0.27750227 903 74082290 3689 28 84 6390
-0.27622497 6.3073301 0.21395908 812 74082290 3239 29 47 6317
-0.49769369 6.2352667 0.15429139 877 74082290 3432 30 52 6257
-0.71513939 6.1277223 0.092176482 912 74082290 3473 31 86 6170
-0.045801077 6.3596802 0.044400815 806 74082290 3260 32 107 6360
-0.27220398 6.2680721 -0.015877767 843 74082290 3319 33 98 6274
-0.49529994 6.2148504 -0.074431986 815 74082290 3168 34 122 6235
-0.70856243 6.1056089 -0.13186508 868 74082290 3281 35 85 6148
-0.042521045 6.3340654 -0.18810555 541 74082290 2171 36 145 6337
-0.26570067 6.2235675 -0.2436585 639 74082290 2485 37 86 6234
-0.4854396 6.1235147 -0.29903236 779 74082290 2947 38 192 6150
-0.70130545 6.0421553 -0.35381642 811 74082290 3012 39 98 6093
-0.038012676 6.4127803 -0.42560661 210 74082290 868 40 92 6427
-0.26754349 6.3341799 -0.48036632 207 74082290 838 41 87 6358
-0.49243319 6.2338309 -0.53389388 326 74082290 1283 42 138 6276
-0.69905913 6.0513887 -0.57808155 413 74082290 1548 43 76 6119
-0.035685554 6.3969035 -0.66038895 157 74082290 650 44 99 6431
-0.26583415 6.354207 -0.71650922 199 74082290 813 45 57 6400
-0.48887667 6.230361 -0.76369011 180 74082290 713 46 124 6296
-0.70603752 6.1249247 -0.81410986 216 74082290 836 47 107 6219
-0.029726986 6.2704763 -0.88004029 816 74082290 3272 48 91 6332
-0.25778672 6.2269073 -0.93508464 666 74082290 2646 49 72 6302
-0.48117661 6.1736779 -0.98975587 578 74082290 2274 50 74 6271
-0.70312846 6.1146979 -1.0445751 474 74082290 1849 51 70 6243
-0.023893919 6.205162 -1.1059864 916 74082290 3639 52 109 6303
-0.24980311 6.1088753 -1.1489502 904 74082290 3499 53 104 6221
-0.47017506 6.0570865 -1.2016211 919 74082290 3526 54 73 6193
-0.68657368 5.9698124 -1.251002 937 74082290 3532 55 63 6138
-0.020358982 6.1841192 -1.341581 978 74082290 3915 56 140 6328
-0.24620453 6.0990973 -1.3840089 881 74082290 3452 57 84 6259
-0.46626893 6.0217481 -1.4310814 906 74082290 3492 58 73 6207
-0.68168169 5.9318371 -1.4776428 914 74082290 3459 59 94 6151
-0.01305231 6.1487455 -1.5779324 907 74082290 3653 60 51 6348
-0.24054579 6.0854106 -1.6241097 914 74082290 3630 61 47 6303
-0.46321264 5.9972358 -1.6676821 828 74082290 3228 62 61 6242
-0.68357861 5.9264555 -1.7209096 779 74082290 3005 63 64 6209
-0.0065933303 6.7383699 2.103286 671 74180580 3345 0 78 7059
-0.25770774 6.5941215 1.9807203 823 74180580 3908 1 89 6890
-0.50041604 6.5182662 1.8929952 740 74180580 3426 2 53 6806
-0.73181105 6.3754702 1.7925968 861 74180580 3825 3 70 6663
-0.009893693 6.6641169 1.80024 806 74180580 3841 4 109 6903
-0.25315905 6.550981 1.7012022 819 74180580 3755 5 52 6773
-0.49205771 6.4418011 1.6093631 728 74180580 3229 6 79 6658
-0.71995497 6.3287225 1.522609 889 74180580 3814 7 77 6549
-0.01111138 6.627295 1.5272319 806 74180580 3729 8 82 6801
-0.2540895 6.5102749 1.4331818 767 74180580 3414 9 112 6671
-0.48617482 6.4104548 1.3496187 834 74180580 3601 10 62 6569
-0.71158201 6.304101 1.2699862 872 74180580 3648 11 56 6470
-0.012049415 6.571135 1.2607652 836 74180580 3742 12 128 6691
-0.24912941 6.4467063 1.1713928 802 74180580 3451 13 61 6557
-0.48256764 6.3791332 1.0985777 807 74180580 3399 14 124 6491
-0.70405513 6.2511225 1.0212286 870 74180580 3534 15 89 6373
-0.011854483 6.5269532 1.0057621 819 74180580 3574 16 72 6604
-0.24598265 6.4029274 0.92449814 835 74180580 3501 17 96 6474
-0.47487935 6.3229809 0.85370243 796 74180580 3260 18 68 6398
-0.69928342 6.2430429 0.78548145 834 74180580 3344 19 84 6331
-0.011682725 6.4947977 0.75894272 824 74180580 3524 20 98 6539
-0.24466114 6.3947134 0.68547928 806 74180580 3339 21 102 6436
-0.47087318 6.3094497 0.61691141 829 74180580 3351 22 91 6357
-0.69221348 6.2102971 0.55098152 842 74180580 3313 23 145 6273
-0.010353174 6.4433694 0.51593184 752 74180580 3143 24 88 6464
-0.24168868 6.3606091 0.44878227 775 74180580 3156 25 86 6381
-0.46673766 6.2569785 0.38232753 838 74180580 3310 26 135 6286
-0.6856637 6.1848693 0.32034931 879 74180580 3412 27 119 6231
-0.0071513322 6.3959565 0.27802339 924 74180580 3788 28 90 6402
-0.23796993 6.3208909 0.21436553 818 74180580 3278 29 64 6329
-0.46030656 6.2501669 0.1545873 868 74180580 3413 30 62 6269
-0.68148017 6.1677732 0.09271431 858 74180580 3306 31 90 6206
-0.0068035279 6.383841 0.044568367 783 74180580 3191 32 103 6384
-0.23418574 6.2816162 -0.015908137 847 74180580 3348 33 83 6286
-0.45803687 6.2297392 -0.074575245 835 74180580 3260 34 79 6247
-0.67108577 6.1098413 -0.13186508 920 74180580 3478 35 91 6148
-0.0036689944 6.3581963 -0.18881796 487 74180580 1970 36 114 6361
-0.22838446 6.2490463 -0.24459656 626 74180580 2454 37 65 6258
-0.44873115 6.1383319 -0.29961583 755 74180580 2868 38 203 6162
-0.66683453 6.0701604 -0.35521007 816 74180580 3055 39 88 6117
0.0013361177 6.4128928 -0.42560661 259 74180580 1071 40 80 6427
-0.2316938 6.4194078 -0.48671278 150 74180580 623 41 98 6442
-0.45504224 6.2486596 -0.53491467 307 74180580 1213 42 123 6288
-0.6645115 6.0793147 -0.58034885 407 74180580 1538 43 63 6143
0.0035657824 6.3970022 -0.66038895 156 74180580 646 44 89 6431
-0.22641514 6.343802 -0.71516579 189 74180580 773 45 65 6388
-0.45149755 6.2451234 -0.76514566 187 74180580 745 46 102 6308
-0.67618126 6.2001014 -0.82353514 227 74180580 898 47 115 6291
0.0087319119 6.258657 -0.87837249 852 74180580 3405 48 67 6320
-0.21957429 6.2283716 -0.93508464 732 74180580 2909 49 67 6302
-0.44413486 6.1883335 -0.99164987 688 74180580 2714 50 54 6283
-0.66687548 6.1306581 -1.0465829 566 74180580 2216 51 76 6255
0.014153693 6.193378 -1.1038808 940 74180580 3721 52 96 6291
-0.21354371 6.1456523 -1.155599 892 74180580 3493 53 97 6257
-0.43383965 6.0715995 -1.2039493 917 74180580 3532 54 78 6205
-0.64866 5.9622335 -1.2485563 906 74180580 3398 55 56 6126
0.017619794 6.1958551 -1.3441252 964 74180580 3874 56 136 6340
-0.20917682 6.1121893 -1.3866624 895 74180580 3521 57 83 6271
-0.43014139 6.0361433 -1.4338481 828 74180580 3204 58 69 6219
-0.64653063 5.9474878 -1.4805255 905 74180580 3439 59 79 6163
0.024862513 6.1952028 -1.5898638 860 74180580 3517 60 52 6396
-0.20358875 6.0983601 -1.6272018 899 74180580 3583 61 54 6315
-0.42886484 6.0345693 -1.6773002 843 74180580 3324 62 74 6278
-0.64720172 5.9305382 -1.7209096 817 74180580 3148 63 55 6209
0.034693576 6.7268291 2.0997105 716 74277600 3557 0 87 7047
-0.21799886 6.6185532 1.9876199 817 74277600 3907 1 91 6914
-0.46122304 6.532712 1.8963329 785 74277600 3651 2 67 6818
-0.6951732 6.4028206 1.7990538 862 74277600 3857 3 60 6687
0.03105063 6.6756368 1.8033696 817 74277600 3907 4 94 6915
-0.21409014 6.5872388 1.7102445 832 74277600 3855 5 47 6809
-0.45333791 6.4563146 1.6122637 797 74277600 3546 6 101 6670
-0.68235713 6.3446255 1.525399 852 74277600 3669 7 80 6561
0.029605294 6.6389322 1.5299267 827 74277600 3840 8 85 6813
-0.21529402 6.5468512 1.4409158 789 74277600 3550 9 114 6707
-0.44764814 6.4250326 1.3520842 868 74277600 3762 10 62 6581
-0.67288738 6.3083487 1.2699862 836 74277600 3501 11 72 6470
0.028270537 6.571085 1.2607652 837 74277600 3748 12 112 6691
-0.2111026 6.495317 1.1799679 800 74277600 3492 13 69 6605
-0.44341695 6.3819737 1.0985777 797 74277600 3358 14 104 6491
-0.66819263 6.2788815 1.0250744 822 74277600 3365 15 73 6397
0.028143143 6.5150437 1.0039345 820 74277600 3565 16 81 6592
-0.20707351 6.4161868 0.92621177 851 74277600 3581 17 94 6486
-0.43525544 6.313911 0.85210121 825 74277600 3366 18 64 6386
-0.66221648 6.2590575 0.78697026 840 74277600 3381 19 77 6343
0.028168825 6.4947472 0.75894272 793 74277600 3392 20 88 6539
-0.20541932 6.3960943 0.68547928 810 74277600 3356 21 91 6436
-0.43215024 6.3122201 0.61691141 838 74277600 3388 22 79 6357
-0.65409482 6.2144275 0.55098152 836 74277600 3289 23 148 6273
0.029236967 6.4552732 0.51688963 787 74277600 3301 24 106 6476
-0.20265618 6.3619723 0.44878227 846 74277600 3446 25 70 6381
-0.42833677 6.2597246 0.38232753 825 74277600 3260 26 108 6286
-0.64520639 6.1651216 0.3191154 873 74277600 3363 27 117 6207
0.032213967 6.419857 0.27906567 897 74277600 3705 28 92 6426
-0.19955884 6.334219 0.21477197 828 74277600 3327 29 53 6341
-0.42194757 6.2528739 0.1545873 839 74277600 3299 30 66 6269
-0.64113349 6.1479707 0.092355758 872 74277600 3334 31 82 6182
0.032367114 6.3837628 0.044568367 654 74277600 2666 32 82 6384
-0.19563806 6.2829351 -0.015908137 833 74277600 3293 33 96 6286
-0.41899687 6.2204604 -0.074431986 816 74277600 3173 34 113 6235
-0.63482052 6.1257777 -0.13212247 908 74277600 3445 35 106 6160
0.035410911 6.3700933 -0.18917416 448 74277600 1819 36 118 6373
-0.19040115 6.2623158 -0.24506558 559 74277600 2200 37 65 6270
-0.41346014 6.176847 -0.30136627 688 74277600 2644 38 183 6198
-0.63204634 6.09797 -0.35660374 821 74277600 3098 39 73 6141
0.040988717 6.4606571 -0.42878523 279 74277600 1170 40 105 6475
-0.19086786 6.3728676 -0.48308626 157 74277600 642 41 100 6394
-0.41907829 6.2871246 -0.53797722 248 74277600 991 42 150 6324
-0.63087261 6.118928 -0.58374995 395 74277600 1510 43 67 6179
0.043296352 6.4684777 -0.66778249 138 74277600 584 44 93 6503
-0.18748604 6.3450718 -0.71516579 183 74277600 749 45 61 6388
-0.41474169 6.2715473 -0.76805681 178 74277600 714 46 108 6332
-0.63447374 6.1686301 -0.8188225 175 74277600 684 47 123 6255
0.047313139 6.2822523 -0.88170809 853 74277600 3433 48 106 6344
-0.18169889 6.2414637 -0.93686515 758 74277600 3020 49 54 6314
-0.40305269 6.1436448 -0.98407394 703 74277600 2734 50 72 6235
-0.62683159 6.1110969 -1.0425673 603 74277600 2342 51 86 6231
0.052553222 6.240428 -1.1123033 962 74277600 3866 52 107 6339
-0.17583068 6.1468472 -1.155599 925 74277600 3622 53 108 6257
-0.39580989 6.0623999 -1.2016211 885 74277600 3394 54 111 6193
-0.61686003 6.0128484 -1.2583392 923 74277600 3520 55 68 6174
0.05574182 6.2073569 -1.3466692 923 74277600 3724 56 124 6352
-0.17166919 6.1133575 -1.3866624 847 74277600 3332 57 87 6271
-0.39461327 6.0619731 -1.4393816 796 74277600 3103 58 84 6243
-0.61002535 5.9513431 -1.4805255 939 74277600 3567 59 101 6163
0.062757127 6.1833105 -1.5868808 907 74277600 3699 60 62 6384
-0.16679759 6.1226754 -1.6333859 908 74277600 3647 61 40 6339
-0.39108038 6.0255475 -1.6740942 820 74277600 3220 62 90 6266
-0.61198092 5.9458671 -1.7242357 774 74277600 2997 63 71 6221
0.076614782 6.7837605 2.117588 777 74373850 3926 0 79 7107
-0.17799981 6.6427445 1.9945192 811 74373850 3905 1 88 6938
-0.42261282 6.5584245 1.9030081 762 74373850 3569 2 60 6842
-0.65822709 6.4299607 1.8055108 769 74373850 3465 3 73 6711
0.07238587 6.7100725 1.812758 744 74373850 3596 4 88 6951
-0.17336151 6.576817 1.7072304 823 74373850 3800 5 49 6797
-0.41445845 6.4705944 1.6151642 784 74373850 3501 6 105 6682
-0.64576805 6.3719163 1.5309789 841 74373850 3648 7 72 6585
0.07046435 6.6503186 1.5326214 797 74373850 3713 8 102 6825
-0.17511924 6.548049 1.4409158 771 74373850 3468 9 120 6707
-0.40747207 6.4159379 1.3496187 840 74373850 3623 10 47 6569
-0.63651985 6.3357739 1.2746972 864 74373850 3645 11 67 6494
0.068589427 6.5707879 1.2607652 835 74373850 3738 12 126 6691
-0.17124411 6.49649 1.1799679 798 74373850 3483 13 75 6605
-0.40499687 6.396378 1.1006087 834 74373850 3527 14 99 6503
-0.6308347 6.2946491 1.0269973 855 74373850 3513 15 68 6409
0.06849017 6.5503263 1.0094172 847 74373850 3723 16 69 6628
-0.16770063 6.4173369 0.92621177 824 74373850 3468 17 83 6486
-0.39725089 6.3283324 0.85370243 825 74373850 3378 18 77 6398
-0.62379915 6.2630029 0.78697026 857 74373850 3449 19 81 6343
0.068393789 6.5302067 0.76312095 839 74373850 3628 20 99 6575
-0.1667894 6.4210896 0.68803549 794 74373850 3314 21 94 6460
-0.39489636 6.3385935 0.61924046 795 74373850 3239 22 73 6381
-0.61595148 6.2183242 0.55098152 843 74373850 3317 23 144 6273
0.068972796 6.4669333 0.51784742 816 74373850 3436 24 96 6488
-0.16392371 6.375062 0.44962621 832 74373850 3401 25 90 6393
-0.39140847 6.2861443 0.38378727 836 74373850 3328 26 123 6310
-0.61088842 6.2047443 0.32096624 855 74373850 3332 27 114 6243
0.071872294 6.4435143 0.28010792 867 74373850 3609 28 81 6450
-0.16099314 6.3473139 0.21517842 761 74373850 3073 29 59 6353
-0.38430694 6.2673187 0.15488321 771 74373850 3040 30 54 6281
-0.60574079 6.1756716 0.09271431 923 74373850 3556 31 95 6206
0.073150143 6.5274315 0.04557367 149 74373850 636 32 91 6528
-0.15708302 6.2840171 -0.015908137 819 74373850 3237 33 114 6286
-0.38228685 6.2468681 -0.074718498 826 74373850 3236 34 112 6259
-0.59838492 6.1414981 -0.13237986 933 74373850 3554 35 98 6172
0.075057492 6.4177322 -0.19059898 392 74373850 1615 36 152 6421
-0.15255442 6.2873402 -0.24600361 516 74373850 2045 37 81 6294
-0.37555194 6.1792674 -0.30136627 640 74373850 2459 38 208 6198
-0.59345609 6.0898099 -0.3559069 766 74373850 2879 39 86 6129
0.080629796 6.4602842 -0.42878523 276 74373850 1157 40 108 6475
-0.15176108 6.3739185 -0.48308626 205 74373850 839 41 103 6394
-0.38049331 6.2895775 -0.53797722 185 74373850 739 42 138 6324
-0.59792471 6.1702461 -0.58828461 358 74373850 1390 43 70 6227
0.083291642 6.4919615 -0.67024702 189 74373850 806 44 92 6527
-0.14827083 6.3341813 -0.71382236 157 74373850 640 45 72 6376
-0.37767851 6.2977543 -0.77096796 170 74373850 688 46 81 6356
-0.59890097 6.1960902 -0.82196426 147 74373850 579 47 120 6279
0.085859418 6.2818437 -0.88170809 899 74373850 3619 48 83 6344
-0.14339857 6.2424607 -0.93686515 787 74373850 3139 49 68 6314
-0.36605155 6.1578312 -0.98596793 779 74373850 3041 50 74 6247
-0.58818781 6.1030512 -1.0405594 666 74373850 2578 51 67 6219
0.090842776 6.2399883 -1.1123033 942 74373850 3786 52 109 6339
-0.13811101 6.1478105 -1.155599 926 74373850 3626 53 85 6257
-0.36068881 6.0999684 -1.208606 877 74373850 3404 54 77 6229
-0.57769984 5.9931321 -1.2534477 940 74373850 3557 55 70 6150
0.093828395 6.2068982 -1.3466692 927 74373850 3740 56 125 6352
-0.13492525 6.1493964 -1.3946227 845 74373850 3362 57 90 6307
-0.35672325 6.0526237 -1.4366149 856 74373850 3325 58 68 6231
-0.57573044 5.9781642 -1.4862909 899 74373850 3442 59 87 6187
0.10088531 6.1944313 -1.5898638 907 74373850 3713 60 61 6396
-0.12922642 6.1235833 -1.6333859 906 74373850 3639 61 51 6339
-0.35545725 6.0509219 -1.6805063 794 74373850 3142 62 90 6290
-0.57770646 5.9724627 -1.7308877 773 74373850 3016 63 65 6245
0.11803807 6.7717094 2.1140125 739 74472240 3722 0 71 7095
-0.13771208 6.6666937 2.0014188 718 74472240 3481 1 97 6962
-0.38236314 6.560894 1.9030081 799 74472240 3742 2 72 6842
-0.61876118 6.4338784 1.8055108 863 74472240 3889 3 65 6711
0.11375278 6.7210851 1.8158876 779 74472240 3778 4 88 6963
-0.13347328 6.6009827 1.7132585 822 74472240 3822 5 39 6821
-0.37676686 6.5078902 1.6238661 794 74472240 3583 6 122 6718
-0.60776401 6.3873773 1.5337687 809 74472240 3523 7 64 6597
0.11126861 6.6497607 1.5326214 817 74472240 3807 8 90 6825
-0.13493787 6.5490003 1.4409158 770 74472240 3464 9 121 6707
-0.36944181 6.4417672 1.3545496 831 74472240 3614 10 76 6593
-0.59763229 6.3395605 1.2746972 844 74472240 3561 11 61 6494
0.10949168 6.6055932 1.2675484 832 74472240 3764 12 146 6727
-0.13233395 6.5446367 1.188543 755 74472240 3344 13 73 6653
-0.36776656 6.4341655 1.1067016 785 74472240 3357 14 102 6539
-0.59219956 6.2984014 1.0269973 869 74472240 3571 15 64 6409
0.1088777 6.5616412 1.0112448 837 74472240 3693 16 67 6640
-0.12927109 6.4657435 0.93306625 844 74472240 3604 17 89 6534
-0.36043024 6.366272 0.85850602 816 74472240 3379 18 74 6434
-0.58868057 6.3022795 0.79143673 785 74472240 3196 19 79 6379
0.1084611 6.529664 0.76312095 824 74472240 3563 20 104 6575
-0.12786046 6.4458508 0.69059163 807 74472240 3394 21 88 6484
-0.35599604 6.3408971 0.61924046 848 74472240 3455 22 63 6381
-0.58110082 6.2576938 0.55414355 842 74472240 3351 23 141 6309
0.10905377 6.4903083 0.51976299 825 74472240 3500 24 87 6512
-0.12503825 6.3879161 0.45047018 798 74472240 3274 25 102 6405
-0.35148805 6.2645097 0.38232753 793 74472240 3133 26 118 6286
-0.57280535 6.2083759 0.32096624 861 74472240 3355 27 125 6243
0.1114076 6.4429522 0.28010792 875 74472240 3641 28 100 6450
-0.12250478 6.3721638 0.2159913 797 74472240 3239 29 51 6377
-0.34716564 6.2935152 0.15547502 887 74472240 3524 30 53 6305
-0.56564015 6.1553755 0.092355758 904 74472240 3456 31 95 6182
0.11153562 6.4308763 0.044903468 294 74472240 1216 32 109 6432
-0.11897457 6.3088584 -0.015968874 793 74472240 3159 33 87 6310
-0.34526846 6.2730579 -0.075005002 817 74472240 3227 34 87 6283
-0.56069016 6.1450543 -0.13237986 933 74472240 3554 35 95 6172
0.11486226 6.4411359 -0.19131139 343 74472240 1424 36 124 6445
-0.11397316 6.2881579 -0.24600361 474 74472240 1880 37 69 6294
-0.34024435 6.2293272 -0.30370018 542 74472240 2115 38 205 6246
-0.55607855 6.0933366 -0.3559069 724 74472240 2721 39 73 6129
0.12026783 6.4596677 -0.42878523 304 74472240 1275 40 96 6475
-0.11264859 6.3747296 -0.48308626 256 74472240 1048 41 83 6394
-0.34319156 6.3156719 -0.54001886 199 74472240 801 42 141 6348
-0.56437063 6.2213888 -0.59281933 334 74472240 1317 43 59 6275
0.1224449 6.4555249 -0.66655022 266 74472240 1121 44 98 6491
-0.11043173 6.3945856 -0.72053963 159 74472240 657 45 57 6436
-0.33774894 6.2761645 -0.76805681 152 74472240 610 46 88 6332
-0.56623065 6.2588902 -0.82981867 163 74472240 655 47 109 6339
0.12440247 6.2811985 -0.88170809 887 74472240 3570 48 98 6344
-0.10509285 6.2432232 -0.93686515 822 74472240 3275 49 48 6314
-0.32952204 6.1836271 -0.98975587 774 74472240 3045 50 79 6271
-0.55072916 6.1065454 -1.0405594 745 74472240 2883 51 67 6219
0.12937337 6.2511249 -1.1144089 958 74472240 3865 52 95 6351
-0.10134879 6.2075019 -1.1666803 834 74472240 3328 53 109 6317
-0.32387608 6.1138225 -1.2109344 858 74472240 3342 54 120 6241
-0.54091579 5.9965639 -1.2534477 931 74472240 3523 55 66 6150
0.13265906 6.2413797 -1.3543016 934 74472240 3811 56 127 6388
-0.097375639 6.1618099 -1.3972762 895 74472240 3575 57 65 6319
-0.3201938 6.066359 -1.4393816 876 74472240 3415 58 85 6243
-0.5390383 5.9815841 -1.4862909 921 74472240 3526 59 109 6187
0.13941288 6.2169361 -1.5958294 907 74472240 3741 60 60 6420
-0.091650389 6.1242614 -1.6333859 903 74472240 3627 61 57 6339
-0.31832278 6.052989 -1.6805063 806 74472240 3190 62 69 6290
-0.54104924 5.9758954 -1.7308877 796 74472240 3105 63 87 6245
0.1601261 6.7937613 2.1211634 722 74569930 3661 0 79 7119
-0.097137131 6.6903982 2.0083182 694 74569930 3388 1 94 6986
-0.34269902 6.5746269 1.9063457 737 74569930 3460 2 48 6854
-0.58030784 6.4490652 1.8087392 846 74569930 3826 3 65 6723
0.15499045 6.7202606 1.8158876 805 74569930 3903 4 98 6963
-0.093295008 6.6249061 1.7192868 802 74569930 3755 5 57 6845
-0.33562475 6.4868221 1.6180649 794 74569930 3559 6 89 6694
-0.56752616 6.3793612 1.5309789 865 74569930 3752 7 77 6585
0.1528708 6.6840248 1.5407056 826 74569930 3890 8 83 6861
-0.095090471 6.5731425 1.446072 772 74569930 3499 9 97 6731
-0.32990894 6.4439125 1.3545496 794 74569930 3454 10 62 6593
-0.56181949 6.3782711 1.2817636 877 74569930 3741 11 84 6530
0.15055601 6.6283612 1.2720708 832 74569930 3791 12 140 6751
-0.091841802 6.5217137 1.1842554 828 74569930 3640 13 85 6629
-0.32888275 6.448112 1.1087325 847 74569930 3636 14 82 6551
-0.5545786 6.3137164 1.0289203 848 74569930 3497 15 76 6421
0.14913712 6.5608497 1.0112448 847 74569930 3737 16 58 6640
-0.08976014 6.478291 0.93477988 822 74569930 3524 17 87 6546
-0.32136074 6.3683639 0.85850602 809 74569930 3349 18 93 6434
-0.54896474 6.2939105 0.78994793 761 74569930 3086 19 82 6367
0.1487954 6.5407915 0.76451373 815 74569930 3537 20 99 6587
-0.088470481 6.4584446 0.69186968 794 74569930 3351 21 107 6496
-0.3176786 6.3548903 0.62040496 843 74569930 3447 22 83 6393
-0.54166114 6.2492328 0.55308956 853 74569930 3382 23 123 6297
0.14914984 6.5014753 0.52072078 826 74569930 3517 24 88 6524
-0.086322859 6.4244709 0.45300213 797 74569930 3307 25 90 6441
-0.31543353 6.3143997 0.38524699 841 74569930 3373 26 120 6334
-0.53675622 6.2356534 0.32220012 860 74569930 3377 27 121 6267
0.15121953 6.4541326 0.28062907 883 74569930 3689 28 82 6462
-0.084031388 6.420764 0.21761708 601 74569930 2479 29 50 6425
-0.30795559 6.2835445 0.15517911 848 74569930 3357 30 51 6293
-0.53195947 6.2065501 0.093072861 915 74569930 3552 31 104 6230
0.15099263 6.4300709 0.044903468 584 74569930 2417 32 91 6432
-0.080414541 6.3214688 -0.015999243 775 74569930 3098 33 102 6322
-0.30677119 6.2750587 -0.075005002 826 74569930 3262 34 90 6283
-0.52500784 6.1722865 -0.13289461 940 74569930 3609 35 93 6196
0.15553196 6.4882755 -0.19273621 346 74569930 1458 36 131 6493
-0.075962536 6.336699 -0.24787973 413 74569930 1663 37 67 6342
-0.30143526 6.219326 -0.30311671 548 74569930 2130 38 214 6234
-0.51969558 6.1085706 -0.35660374 676 74569930 2550 39 101 6141
0.15990135 6.4588084 -0.42878523 321 74569930 1346 40 98 6475
-0.073669858 6.3872657 -0.48399287 268 74569930 1101 41 85 6406
-0.30500832 6.3296008 -0.54103965 177 74569930 716 42 123 6360
-0.52618629 6.2247343 -0.59281933 291 74569930 1147 43 75 6275
0.16265213 6.478518 -0.66901475 368 74569930 1563 44 98 6515
-0.071458697 6.4189911 -0.72322655 178 74569930 741 45 51 6460
-0.3020682 6.3376083 -0.77533466 116 74569930 474 46 116 6392
-0.52681702 6.250392 -0.82824779 144 74569930 576 47 126 6327
0.16355726 6.3040762 -0.88504368 824 74569930 3342 48 94 6368
-0.066783182 6.2437506 -0.93686515 836 74569930 3334 49 66 6314
-0.29045793 6.1618595 -0.98596793 825 74569930 3220 50 89 6247
-0.5132497 6.1098099 -1.0405594 796 74569930 3080 51 75 6219
0.16836095 6.2738323 -1.1186202 916 74569930 3723 52 102 6375
-0.063018031 6.1844206 -1.1622478 907 74569930 3593 53 88 6293
-0.28690687 6.1274538 -1.2132628 861 74569930 3367 54 102 6253
-0.50607866 6.0231838 -1.2583392 934 74569930 3562 55 64 6174
0.17063181 6.2287254 -1.3517574 905 74569930 3678 56 132 6376
-0.059565648 6.1622915 -1.3972762 879 74569930 3511 57 78 6319
-0.28350919 6.0798731 -1.4421482 847 74569930 3315 58 77 6255
-0.50232583 5.9847789 -1.4862909 931 74569930 3564 59 92 6187
0.17788854 6.2275825 -1.5988122 910 74569930 3763 60 57 6432
-0.054173261 6.1363025 -1.6364779 896 74569930 3613 61 40 6351
-0.28171277 6.0663795 -1.6837124 817 74569930 3246 62 68 6302
-0.50534081 5.9905915 -1.7342136 776 74569930 3039 63 81 6257
0.20248917 6.8155503 2.1283145 732 74668120 3736 0 94 7143
-0.055987455 6.6793752 2.0048685 792 74668120 3852 1 116 6974
-0.30288079 6.5881205 1.9096833 789 74668120 3717 2 50 6866
-0.54072618 6.4525046 1.8087392 853 74668120 3858 3 68 6723
0.19689861 6.7423429 1.8221465 802 74668120 3915 4 111 6987
-0.052735884 6.6369686 1.7223009 818 74668120 3844 5 49 6857
-0.29687664 6.5120239 1.6238661 817 74668120 3688 6 98 6718
-0.53029817 6.4059858 1.5365586 871 74668120 3805 7 86 6609
0.19489764 6.7180266 1.5487897 790 74668120 3758 8 108 6897
-0.054854255 6.5853214 1.4486501 770 74668120 3501 9 116 6743
-0.29194909 6.4810119 1.3619459 775 74668120 3408 10 71 6629
-0.52171206 6.3698711 1.279408 857 74668120 3643 11 63 6518
0.19088413 6.6155329 1.2698096 837 74668120 3801 12 125 6739
-0.052011222 6.5457678 1.188543 826 74668120 3658 13 87 6653
-0.28931168 6.4500089 1.1087325 824 74668120 3536 14 102 6551
-0.51679194 6.3288054 1.0308431 841 74668120 3482 15 71 6433
0.18973321 6.5716662 1.0130723 848 74668120 3751 16 52 6652
-0.050100077 6.4905958 0.93649346 849 74668120 3653 17 73 6558
-0.28280559 6.3820963 0.86010718 815 74668120 3387 18 77 6446
-0.51225942 6.3208976 0.7929256 851 74668120 3477 19 101 6391
0.18995866 6.5754967 0.76869202 795 74668120 3488 20 95 6623
-0.048930768 6.4707975 0.69314778 795 74668120 3368 21 100 6508
-0.27867976 6.35672 0.62040496 836 74668120 3415 22 53 6393
-0.50522465 6.2762685 0.55519754 858 74668120 3428 23 130 6321
0.18938705 6.5123944 0.52167857 816 74668120 3487 24 97 6536
-0.046814043 6.4129095 0.45215815 780 74668120 3225 25 85 6429
-0.27720734 6.3281827 0.38597685 838 74668120 3374 26 128 6346
-0.49848488 6.2388291 0.32220012 861 74668120 3380 27 133 6267
0.19117285 6.4650669 0.28115019 857 74668120 3594 28 80 6474
-0.045466345 6.5410867 0.22168152 245 74668120 1048 29 50 6545
-0.2704221 6.3092871 0.15577093 874 74668120 3486 30 40 6317
-0.49291548 6.1977363 0.092893586 876 74668120 3387 31 103 6218
0.18866743 6.369051 0.044484593 647 74668120 2628 32 97 6372
-0.041625228 6.3218431 -0.015999243 745 74668120 2978 33 114 6322
-0.26826239 6.2768226 -0.075005002 804 74668120 3175 34 97 6283
-0.48806894 6.1873522 -0.13315199 815 74668120 3141 35 92 6208
0.19570135 6.4991879 -0.19309241 298 74668120 1261 36 122 6505
-0.037290331 6.3730178 -0.2492868 389 74668120 1584 37 73 6378
-0.26428208 6.2450089 -0.30428368 479 74668120 1877 38 203 6258
-0.48314658 6.1235871 -0.35730058 663 74668120 2512 39 59 6153
0.20100796 6.5055771 -0.43196386 304 74668120 1293 40 118 6523
-0.034476951 6.3875976 -0.48399287 284 74668120 1166 41 94 6406
-0.2666671 6.3432994 -0.54206049 207 74668120 840 42 137 6372
-0.48704895 6.2159367 -0.59168571 224 74668120 880 43 72 6263
0.20277332 6.4893289 -0.67024702 434 74668120 1850 44 101 6527
-0.031832863 6.3716106 -0.71785271 252 74668120 1034 45 54 6412
-0.2626816 6.3274412 -0.77387905 119 74668120 485 46 93 6380
-0.48660257 6.2297859 -0.82510608 155 74668120 616 47 120 6303
0.20337856 6.3385859 -0.89004707 859 74668120 3524 48 75 6404
-0.028470989 6.2440429 -0.93686515 851 74668120 3391 49 48 6314
