# .PCD v0.7 - Point Cloud Data file format
VERSION 0.7
FIELDS x y z intensity t reflectivity ring noise range
SIZE 4 4 4 4 4 2 1 2 4
TYPE F F F F U U U U U
COUNT 1 1 1 1 1 1 1 1 1
WIDTH 768
HEIGHT 1
VIEWPOINT 0 0 0 1 0 0 0
POINTS 768
DATA ascii
0.87876159 -2.1535814 0.22679281 186 19134860 101 22 36 2337
0.96252984 -2.1327846 0.20632164 134 19134860 74 23 72 2349
0.67229229 -2.0664334 0.17399928 320 19134860 152 24 50 2180
0.78901917 -2.1554258 0.16183168 189 19134860 100 25 60 2301
0.87254632 -2.1385629 0.14074227 165 19134860 89 26 66 2314
0.96125579 -2.133337 0.12045874 214 19134860 118 27 68 2343
0.67958528 -2.092325 0.095627546 339 19134860 164 28 44 2202
0.79251593 -2.1673217 0.078206666 156 19134860 83 29 23 2309
0.83382457 -2.0491774 0.054570373 27 19134860 13 30 12 2213
0.94645238 -2.1025405 0.034450401 327 19134860 174 31 43 2306
0.69677895 -2.1456437 0.015749723 272 19134860 139 32 66 2256
0.76095319 -2.0833731 -0.0056131477 270 19134860 133 33 42 2218
0.8390429 -2.0627236 -0.026585411 48 19134860 24 34 47 2227
0.90646201 -2.0171812 -0.047443978 62 19134860 30 35 36 2212
0.67725319 -2.0889912 -0.065215066 315 19134860 152 36 85 2197
0.74516273 -2.0447912 -0.085128047 153 19134860 72 37 36 2178
0.85942829 -2.1153779 -0.11115251 331 19134860 173 38 89 2286
0.94159555 -2.0952675 -0.13361752 309 19134860 163 39 42 2301
0.66890097 -2.0687656 -0.144297 360 19134860 171 40 77 2179
0.75631458 -2.0783241 -0.16757669 287 19134860 141 41 64 2218
0.86348367 -2.127063 -0.19599928 339 19134860 180 42 105 2304
0.93865323 -2.0917463 -0.21757179 372 19134860 197 43 38 2303
0.66366303 -2.0550163 -0.22293645 397 19134860 187 44 70 2171
0.75899261 -2.0882914 -0.25033042 310 19134860 155 45 59 2236
0.84867579 -2.0937309 -0.27607349 352 19134860 183 46 64 2276
0.94560617 -2.1086199 -0.30514392 331 19134860 180 47 90 2331
0.66173261 -2.0549238 -0.3029829 379 19134860 180 48 74 2180
0.75375795 -2.0767107 -0.33147874 320 19134860 159 49 47 2234
0.83836585 -2.0714104 -0.3571707 347 19134860 178 50 35 2263
0.92526829 -2.0648122 -0.38399804 358 19134860 188 51 36 2295
0.64369345 -2.0050206 -0.37532997 382 19134860 175 52 67 2139
0.74904275 -2.0669813 -0.41314927 350 19134860 175 53 63 2237
0.83001947 -2.0526423 -0.43792325 355 19134860 181 54 56 2257
0.93444937 -2.0852029 -0.47569868 408 19134860 222 55 33 2334
0.64531833 -2.0139458 -0.45878339 387 19134860 181 56 96 2164
0.73093277 -2.0203087 -0.48713395 360 19134860 175 57 44 2203
0.82364178 -2.0379961 -0.52083337 390 19134860 199 58 41 2259
0.92198718 -2.0578752 -0.5580498 407 19134860 219 59 38 2323
0.65022629 -2.0374589 -0.54884601 407 19134860 198 60 42 2208
0.72118825 -1.9986067 -0.56662184 372 19134860 180 61 32 2199
0.82359082 -2.0389967 -0.60968447 404 19134860 210 62 38 2282
0.91737533 -2.045285 -0.64662302 385 19134860 209 63 35 2333
0.67407584 -2.1205652 0.69454026 422 19233020 229 0 48 2331
0.76432854 -2.1211236 0.67672217 399 19233020 221 1 53 2354
0.87604827 -2.1717665 0.67809618 332 19233020 197 2 31 2438
0.94128168 -2.1016839 0.64326864 401 19233020 229 3 39 2391
0.6652239 -2.0890551 0.59225631 376 19233020 194 4 52 2271
0.76854694 -2.1357517 0.58900326 394 19233020 216 5 31 2345
0.86529011 -2.1474729 0.5767408 388 19233020 221 6 55 2386
0.99836367 -2.2351987 0.58518964 220 19233020 139 7 49 2517
0.66299963 -2.0806882 0.5032388 349 19233020 175 8 50 2241
0.75841224 -2.1050508 0.49219298 359 19233020 189 9 67 2291
0.86532837 -2.1509242 0.48671746 372 19233020 209 10 31 2369
0.95865846 -2.1513441 0.47148484 217 19233020 125 11 22 2402
0.66434181 -2.0837688 0.41962692 362 19233020 180 12 99 2227
0.76123929 -2.1154444 0.40820992 358 19233020 187 13 46 2285
0.85998911 -2.1388385 0.39586711 296 19233020 162 14 2104 2339
0.94965756 -2.1325464 0.37897465 247 19233020 138 15 31 2365
0.66042632 -2.0716124 0.33505094 358 19233020 173 16 40 2200
0.75355148 -2.0955725 0.32130378 316 19233020 160 17 48 2250
0.87801021 -2.1870759 0.31730294 169 19233020 95 18 47 2378
0.93157911 -2.0953929 0.28672367 39 19233020 21 19 49 2311
0.66216052 -2.0771775 0.25476053 323 19233020 155 20 55 2195
0.76005608 -2.1147046 0.24070589 325 19233020 166 21 64 2260
0.86553097 -2.1589327 0.22679281 196 19233020 107 22 31 2337
0.93002439 -2.0949485 0.20210561 35 19233020 19 23 73 2301
0.66686189 -2.0933144 0.17591487 324 19233020 157 24 43 2204
0.77577883 -2.1602266 0.16183168 202 19233020 107 25 61 2301
0.8594079 -2.1438766 0.14074227 185 19233020 99 26 73 2314
0.95785993 -2.1611073 0.12169263 184 19233020 103 27 55 2367
0.65220046 -2.050756 0.093543015 322 19233020 149 28 49 2154
0.76300442 -2.1269889 0.07658089 174 19233020 89 29 26 2261
0.87022001 -2.1767862 0.05782536 111 19233020 61 30 9 2345
0.93839163 -2.1192796 0.034629676 336 19233020 180 31 45 2318
0.66541958 -2.0927012 0.015330848 299 19233020 144 32 66 2196
0.74815553 -2.0880029 -0.0056131477 272 19233020 134 33 38 2218
0.84418184 -2.1124027 -0.027158424 65 19233020 33 34 50 2275
0.93286991 -2.1104898 -0.049503028 37 19233020 19 35 44 2308
0.66442263 -2.0931075 -0.065215066 299 19233020 144 36 81 2197
0.73663837 -2.0606158 -0.085597068 114 19233020 55 37 33 2190
0.84643239 -2.1206117 -0.11115251 321 19233020 168 38 93 2286
0.93356496 -2.1119626 -0.13431436 367 19233020 196 39 49 2313
0.64896721 -2.0500004 -0.14270768 369 19233020 171 40 55 2155
0.73147959 -2.049118 -0.16485678 316 19233020 151 41 72 2182
0.82826978 -2.076792 -0.19089514 299 19233020 150 42 122 2244
0.93062478 -2.1083953 -0.21870546 357 19233020 191 43 42 2315
0.65104121 -2.0590496 -0.22293645 376 19233020 177 44 52 2171
0.7381559 -2.0704451 -0.24764352 322 19233020 157 45 45 2212
0.83140624 -2.0878327 -0.27461791 350 19233020 180 46 83 2264
0.9230476 -2.0926127 -0.30200216 331 19233020 176 47 83 2307
0.64196521 -2.0362782 -0.29964733 369 19233020 171 48 52 2156
0.74100131 -2.0812967 -0.33147874 311 19233020 155 49 54 2234
0.81688392 -2.0544932 -0.35338277 340 19233020 170 50 27 2239
0.92212468 -2.0921023 -0.38801369 356 19233020 191 51 57 2319
0.63846296 -2.0314732 -0.37954125 409 19233020 192 52 62 2163
0.73239595 -2.0604262 -0.41093302 350 19233020 173 53 55 2225
0.83044708 -2.0905178 -0.44490829 380 19233020 200 54 56 2293
0.91216022 -2.0693972 -0.47080719 372 19233020 198 55 40 2310
0.63294882 -2.0178676 -0.45878339 390 19233020 183 56 89 2164
0.71069491 -2.0026975 -0.48182702 351 19233020 166 57 45 2179
0.8068127 -2.0321591 -0.5180667 386 19233020 195 58 41 2247
0.90934289 -2.0634935 -0.5580498 405 19233020 219 59 64 2323
0.63424659 -2.0303156 -0.54586315 430 19233020 207 60 43 2196
0.71278 -2.0139246 -0.56971389 398 19233020 194 61 28 2211
0.81106424 -2.0440118 -0.60968447 408 19233020 212 62 42 2282
0.90015441 -2.0403266 -0.64329708 394 19233020 212 63 36 2321
0.65424544 -2.1027858 0.68738925 377 19332900 201 0 59 2307
0.74363935 -2.1041005 0.66982269 469 19332900 255 1 59 2330
0.86270607 -2.1771009 0.67809618 298 19332900 177 2 30 2438
0.92836827 -2.10742 0.64326864 399 19332900 228 3 40 2391
0.65928769 -2.1152174 0.59851527 375 19332900 197 4 52 2295
0.75156206 -2.1294744 0.58598924 377 19332900 205 5 18 2333
0.84781164 -2.1419148 0.57384014 389 19332900 219 6 67 2374
0.94707543 -2.1557982 0.56287009 449 19332900 263 7 53 2421
0.66066563 -2.1182067 0.51132292 363 19332900 188 8 68 2277
0.74938637 -2.1207149 0.49477103 377 19332900 200 9 52 2303
0.83916527 -2.1234272 0.47932115 390 19332900 212 10 21 2333
0.95016319 -2.1679626 0.47384027 241 19332900 140 11 24 2414
0.65505433 -2.099056 0.42188808 350 19332900 176 12 84 2239
0.73645633 -2.0866737 0.40177861 338 19332900 171 13 42 2249
0.83381528 -2.1110752 0.38977426 323 19332900 171 14 67 2303
0.92229837 -2.1057835 0.3732059 293 19332900 159 15 27 2329
0.64416981 -2.0643044 0.33322343 320 19332900 153 16 32 2188
0.74067909 -2.1001568 0.32130378 329 19332900 167 17 61 2250
0.83403403 -2.1149776 0.30609462 345 19332900 181 18 37 2294
0.92347497 -2.1119795 0.28821251 49 19332900 26 19 28 2323
0.65295291 -2.0925791 0.25615329 311 19332900 152 20 61 2207
0.7470662 -2.1193283 0.24070589 311 19332900 159 21 56 2260
0.84789145 -2.1530902 0.22562827 191 19332900 103 22 42 2325
0.95541698 -2.1882553 0.21053766 32 19332900 19 23 84 2397
0.65044421 -2.0859475 0.17495708 300 19332900 144 24 48 2192
0.74262649 -2.1084938 0.15761182 316 19332900 158 25 53 2241
0.85062563 -2.1602542 0.14147215 181 19332900 98 26 81 2326
0.92542654 -2.1230009 0.11922484 72 19332900 38 27 48 2319
0.64316827 -2.0661662 0.094064154 373 19332900 175 28 41 2166
0.76187974 -2.1655707 0.077800229 176 19332900 93 29 34 2297
0.82615411 -2.1039207 0.05575401 189 19332900 96 30 35 2261
0.93016082 -2.1359985 0.034808949 221 19332900 120 31 49 2330
0.65256649 -2.0967448 0.015330848 303 19332900 146 32 74 2196
0.727373 -2.0699115 -0.0055524101 297 19332900 143 33 50 2194
0.80051392 -2.0393567 -0.026155654 110 19332900 53 34 50 2191
0.9438169 -2.1711872 -0.050789934 50 19332900 28 35 51 2368
0.64089048 -2.0627811 -0.064146452 317 19332900 148 36 98 2161
0.7438159 -2.1216748 -0.08794219 207 19332900 105 37 43 2250
0.82902986 -2.1146066 -0.11056904 287 19332900 149 38 85 2274
0.91103643 -2.0956779 -0.13292068 448 19332900 235 39 45 2289
0.63637638 -2.0539439 -0.14270768 367 19332900 171 40 66 2155
0.71889269 -2.0535676 -0.16485678 319 19332900 152 41 58 2182
0.81551123 -2.081835 -0.19089514 336 19332900 169 42 96 2244
0.90815675 -2.092149 -0.21643811 347 19332900 182 43 66 2291
0.63133752 -2.0401995 -0.22047193 372 19332900 172 44 66 2147
0.72150248 -2.063679 -0.24630006 317 19332900 153 45 41 2200
0.81424111 -2.0818017 -0.27316234 351 19332900 178 46 77 2252
0.89125252 -2.0545805 -0.29571864 306 19332900 156 47 77 2259
0.63296229 -2.0515342 -0.30131513 375 19332900 176 48 62 2168
0.73212832 -2.097008 -0.33325928 315 19332900 159 49 62 2246
0.8042624 -2.0594668 -0.35338277 349 19332900 175 50 52 2239
0.89515501 -2.0651562 -0.38199019 346 19332900 180 51 50 2283
0.61209452 -1.990185 -0.37111866 393 19332900 176 52 80 2115
0.71585786 -2.0537448 -0.40871674 372 19332900 182 53 57 2213
0.80476791 -2.0626736 -0.43792325 360 19332900 184 54 81 2257
0.88542813 -2.0426183 -0.46346995 411 19332900 212 55 41 2274
0.61711442 -2.0105026 -0.45623934 383 19332900 178 56 74 2152
0.70608544 -2.0291262 -0.48713395 367 19332900 178 57 52 2203
0.79432839 -2.0370712 -0.5180667 374 19332900 189 58 48 2247
0.88276863 -2.0369701 -0.54940158 403 19332900 211 59 51 2287
0.61837912 -2.0230532 -0.5428803 439 19332900 209 60 32 2184
0.70040935 -2.0182602 -0.56971389 398 19332900 194 61 35 2211
0.78171128 -2.005852 -0.59686029 406 19332900 202 62 38 2234
0.89220744 -2.0563886 -0.64662302 385 19332900 209 63 34 2333
0.64133066 -2.1067607 0.68738925 408 19430520 217 0 35 2307
0.73447818 -2.1194835 0.67327237 470 19430520 258 1 48 2342
0.82424861 -2.1179032 0.65807033 334 19430520 187 2 43 2366
0.92460865 -2.1342871 0.64972562 423 19430520 247 3 29 2415
0.63953793 -2.0970612 0.59225631 365 19430520 188 4 57 2271
0.72708637 -2.1011157 0.57694691 375 19430520 198 5 33 2297
0.83043426 -2.1362238 0.57093954 361 19430520 201 6 54 2362
0.91068667 -2.1079984 0.54892039 451 19430520 251 7 52 2361
0.64424288 -2.1110363 0.50862819 329 19430520 169 8 67 2265
0.74019665 -2.1363468 0.49734905 366 19430520 196 9 62 2315
0.81762183 -2.1066394 0.47439024 352 19430520 188 10 37 2309
0.91355771 -2.1197233 0.46206298 429 19430520 238 11 19 2354
0.63527906 -2.0804932 0.41736585 358 19430520 176 12 80 2215
0.72750002 -2.1023111 0.40392241 367 19430520 187 13 45 2261
0.82512331 -2.1271777 0.39180517 336 19430520 180 14 64 2315
0.91873109 -2.1331608 0.37705177 213 19430520 118 15 31 2353
0.63149136 -2.068218 0.33322343 346 19430520 166 16 24 2188
0.7083714 -2.0485377 0.31273568 340 19430520 163 17 57 2190
0.82533592 -2.1311452 0.30769581 339 19430520 180 18 47 2306
0.91990548 -2.1394839 0.29119018 309 19430520 170 19 53 2347
0.63314009 -2.0737474 0.25336778 315 19430520 150 20 66 2183
0.72625297 -2.1013181 0.23814973 310 19430520 155 21 60 2236
0.83035648 -2.1471128 0.22446375 165 19430520 88 22 50 2313
0.94668794 -2.2050607 0.21159166 35 19430520 21 23 70 2409
0.64810491 -2.1242225 0.17783047 328 19430520 163 24 49 2228
0.71795332 -2.0790668 0.1550799 322 19430520 157 25 59 2205
0.82871455 -2.1430895 0.1400124 193 19430520 102 26 55 2302
0.89821881 -2.0955942 0.117374 36 19430520 19 27 49 2283
0.62698543 -2.0586052 0.093543015 348 19430520 161 28 46 2154
0.72902399 -2.1135166 0.075768001 169 19430520 84 29 21 2237
0.77870017 -2.0194063 0.053386744 235 19430520 110 30 26 2165
0.91703707 -2.1416657 0.034808949 174 19430520 94 31 47 2330
0.64318442 -2.1121886 0.015414624 305 19430520 149 32 63 2208
0.71465856 -2.0743356 -0.0055524101 299 19430520 144 33 54 2194
0.7750383 -2.0106416 -0.025725894 338 19430520 157 34 51 2155
0.9210465 -2.1548741 -0.050275173 227 19430520 124 35 39 2344
0.62822145 -2.0666747 -0.064146452 292 19430520 137 36 60 2161
0.719091 -2.0921798 -0.086535111 355 19430520 174 37 50 2214
0.81173301 -2.1084681 -0.10998556 296 19430520 152 38 95 2262
0.90286905 -2.1122441 -0.13361752 363 19430520 192 39 47 2301
0.627235 -2.0692687 -0.14350232 374 19430520 176 40 64 2167
0.71404707 -2.0805755 -0.16667004 292 19430520 142 41 72 2206
0.79842931 -2.0756404 -0.18987431 343 19430520 171 42 115 2232
0.89061296 -2.0866945 -0.21530442 364 19430520 189 43 40 2279
0.61534858 -2.0326104 -0.21923967 374 19430520 170 44 56 2135
0.7126928 -2.0793476 -0.24764352 324 19430520 158 45 39 2212
0.8014521 -2.0867586 -0.27316234 338 19430520 172 46 92 2252
0.89263111 -2.0928392 -0.30043128 341 19430520 180 47 85 2295
0.61349487 -2.0326259 -0.2979795 375 19430520 173 48 73 2144
0.70387632 -2.05655 -0.32613713 337 19430520 163 49 44 2198
0.7916106 -2.064363 -0.35338277 368 19430520 184 50 40 2239
0.87782818 -2.0597265 -0.37998238 367 19430520 189 51 34 2271
0.60667855 -2.0165293 -0.37532997 407 19430520 186 52 55 2139
0.6918028 -2.0246184 -0.40206793 355 19430520 168 53 66 2177
0.78788495 -2.0565796 -0.43559489 355 19430520 179 54 60 2245
0.87748438 -2.05882 -0.46591565 385 19430520 201 55 59 2286
0.60139424 -2.0030193 -0.45369524 382 19430520 175 56 70 2140
0.69739991 -2.0444968 -0.48978746 377 19430520 185 57 48 2215
0.7859894 -2.0528114 -0.52083337 367 19430520 187 58 46 2259
0.87025338 -2.0423484 -0.54940158 405 19430520 212 59 69 2287
0.60595429 -2.0268095 -0.5428803 421 19430520 201 60 37 2184
0.68427825 -2.0115428 -0.56662184 393 19430520 190 61 36 2199
0.77765441 -2.0322108 -0.60327238 391 19430520 199 62 46 2258
0.87052453 -2.0406139 -0.63997108 376 19430520 200 63 38 2309
0.63166028 -2.1216347 0.6909647 364 19529750 196 0 62 2319
0.71776283 -2.1130676 0.66982269 420 19529750 228 1 57 2330
0.82358134 -2.1552224 0.66808325 373 19529750 215 2 33 2402
0.90243709 -2.1186538 0.64326864 403 19529750 230 3 31 2391
0.63659239 -2.1342502 0.60164475 367 19529750 196 4 71 2307
0.72164249 -2.127537 0.58297509 371 19529750 200 5 31 2321
0.79654944 -2.0868857 0.55643642 366 19529750 194 6 65 2302
0.90686083 -2.1350315 0.55450034 463 19529750 263 7 53 2385
0.62793314 -2.1037443 0.50593346 360 19529750 183 8 49 2253
0.71953666 -2.118654 0.49219298 360 19529750 189 9 50 2291
0.80886233 -2.1225908 0.4768557 374 19529750 201 10 29 2321
0.90971541 -2.1469569 0.4667739 383 19529750 216 11 28 2378
0.62250143 -2.084352 0.41736585 348 19529750 171 12 64 2215
0.71458679 -2.1067355 0.40392241 363 19529750 185 13 49 2261
0.80363697 -2.1100957 0.38774329 320 19529750 168 14 54 2291
0.91024345 -2.1496651 0.37897465 190 19529750 106 15 30 2365
0.61878914 -2.0720539 0.33322343 343 19529750 164 16 37 2188
0.71866369 -2.1203365 0.32301742 338 19529750 173 17 61 2262
0.79956371 -2.1028209 0.30289224 294 19529750 151 18 50 2270
0.88821572 -2.1012175 0.28523484 317 19529750 168 19 61 2299
0.62722456 -2.1004343 0.25615329 334 19529750 163 20 66 2207
0.71717423 -2.1170356 0.23942782 313 19529750 158 21 61 2248
0.81716639 -2.1521676 0.22446375 159 19529750 85 22 41 2313
0.92849183 -2.199815 0.21053766 121 19529750 70 23 77 2397
0.62479746 -2.0937724 0.17495708 309 19529750 148 24 52 2192
0.71285832 -2.1061099 0.15676785 309 19529750 153 25 56 2229
0.83255458 -2.1929259 0.14293186 188 19529750 104 26 80 2350
0.87138295 -2.0679352 0.11552317 29 19529750 15 27 58 2247
0.61091977 -2.0509238 0.093021892 354 19529750 162 28 37 2142
0.712201 -2.1065888 0.075361557 282 19529750 139 29 25 2225
0.7917788 -2.0914619 0.055162188 108 19529750 54 30 26 2237
0.88525808 -2.1030169 0.034091856 38 19529750 20 31 41 2282
0.623362 -2.0930941 0.015247073 294 19529750 140 32 50 2184
0.71727371 -2.1241589 -0.0056738849 288 19529750 145 33 44 2242
0.74145168 -1.9592471 -0.025009625 521 19529750 229 34 70 2095
0.89386469 -2.1273034 -0.049503028 330 19529750 176 35 47 2308
0.61894679 -2.0819879 -0.064502664 280 19529750 132 36 105 2173
0.69858438 -2.0738258 -0.085597068 304 19529750 146 37 51 2190
0.79878038 -2.113409 -0.10998556 248 19529750 127 38 79 2262
0.88525063 -2.1066999 -0.13292068 323 19529750 169 39 49 2289
0.61452639 -2.0730784 -0.14350232 369 19529750 173 40 63 2167
0.69745272 -2.0735762 -0.16576339 334 19529750 161 41 48 2194
0.78567839 -2.0805004 -0.18987431 338 19529750 168 42 105 2232
0.87779248 -2.0921199 -0.21530442 374 19529750 194 43 46 2279
0.6028651 -2.0363479 -0.21923967 383 19529750 175 44 67 2135
0.69612366 -2.0723774 -0.24630006 346 19529750 167 45 46 2200
0.79703748 -2.1139278 -0.27607349 335 19529750 174 46 77 2276
0.88897312 -2.1202197 -0.30357304 329 19529750 177 47 79 2319
0.59764749 -2.0249548 -0.29631174 380 19529750 172 48 56 2132
0.69501811 -2.0720811 -0.32791764 321 19529750 157 49 39 2210
0.77892905 -2.0691814 -0.35338277 327 19529750 164 50 45 2239
0.8651734 -2.065074 -0.37998238 370 19529750 191 51 58 2271
0.59095985 -2.0088801 -0.37322432 399 19529750 181 52 63 2127
0.68685657 -2.0511916 -0.40650049 381 19529750 184 53 50 2201
0.7793951 -2.0723939 -0.43792325 353 19529750 180 54 80 2257
0.86029541 -2.0533299 -0.46346995 395 19529750 204 55 48 2274
0.58909261 -2.0066717 -0.45369524 381 19529750 175 56 75 2140
0.67742163 -2.0265391 -0.4844805 396 19529750 190 57 42 2191
0.7692706 -2.0466654 -0.5180667 393 19529750 198 58 40 2247
0.84870452 -2.0261612 -0.54363608 412 19529750 211 59 43 2263
0.58698457 -2.0081763 -0.53691459 414 19529750 193 60 36 2160
0.66825604 -2.0047038 -0.56352973 410 19529750 196 61 25 2187
0.76110393 -2.0261188 -0.6000663 374 19529750 188 62 42 2246
0.86244619 -2.0565498 -0.64329708 378 19529750 203 63 29 2321
0.61222798 -2.1034737 0.68381375 379 19626360 199 0 50 2295
0.7047838 -2.1174319 0.66982269 404 19626360 220 1 58 2330
0.8103416 -2.1602352 0.66808325 395 19626360 228 2 31 2402
0.88495654 -2.1134906 0.64004022 392 19626360 222 3 31 2379
0.61375558 -2.1047513 0.59225631 379 19626360 195 4 56 2271
0.70857459 -2.1319249 0.58297509 355 19626360 191 5 31 2321
0.78781503 -2.102638 0.55933702 376 19626360 202 6 73 2314
0.88025296 -2.1082454 0.54613048 397 19626360 219 7 58 2349
0.61173731 -2.0963326 0.5032388 362 19626360 182 8 64 2241
0.7065233 -2.123029 0.49219298 343 19626360 180 9 43 2291
0.79170859 -2.1165142 0.47439024 373 19626360 199 10 28 2309
0.88747668 -2.1307743 0.46206298 382 19626360 212 11 21 2354
0.61300343 -2.0994449 0.41962692 356 19626360 177 12 82 2227
0.69047493 -2.0774674 0.39749107 361 19626360 179 13 40 2225
0.786533 -2.103909 0.38571233 327 19626360 170 14 66 2279
0.9106909 -2.1880164 0.38474339 200 19626360 115 15 43 2401
0.60938746 -2.0871961 0.33505094 341 19626360 165 16 55 2200
0.6981532 -2.1021628 0.31959018 338 19626360 169 17 52 2238
0.79080445 -2.118829 0.30449343 326 19626360 170 18 43 2282
0.88901258 -2.1396155 0.28970131 172 19626360 94 19 60 2335
0.61098456 -2.092802 0.25476053 306 19626360 148 20 69 2195
0.70041192 -2.1100721 0.23814973 319 19626360 159 21 52 2236
0.79560369 -2.134758 0.22213466 315 19626360 165 22 38 2289
0.88749284 -2.1392238 0.20421362 245 19626360 133 23 60 2325
0.60858852 -2.0860837 0.17399928 312 19626360 148 24 50 2180
0.69992208 -2.1104441 0.15676785 299 19626360 149 25 67 2229
0.7772578 -2.0857551 0.13563322 182 19626360 91 26 72 2230
0.87243503 -2.1064589 0.117374 38 19626360 20 27 48 2283
0.59832406 -2.0546339 0.093021892 337 19626360 155 28 32 2142
0.69926178 -2.110919 0.075361557 289 19626360 143 29 24 2225
0.7789309 -2.0962806 0.055162188 175 19626360 87 30 20 2237
0.84481418 -2.0418861 0.033016212 50 19626360 24 31 32 2210
0.60715288 -2.0853586 0.015163299 283 19626360 133 32 52 2172
0.68914944 -2.0829494 -0.0055524101 332 19626360 160 33 63 2194
0.78790855 -2.1212354 -0.02701517 149 19626360 76 34 57 2263
0.87163591 -2.1105704 -0.048988268 314 19626360 164 35 67 2284
0.61620253 -2.120301 -0.065571271 304 19626360 148 36 90 2209
0.68960458 -2.0894599 -0.086066097 298 19626360 144 37 55 2202
0.78162903 -2.1070328 -0.10940208 91 19626360 46 38 67 2250
0.87230748 -2.112092 -0.13292068 312 19626360 163 39 49 2289
0.59846222 -2.0653095 -0.14270768 360 19626360 167 40 79 2155
0.6847164 -2.0778167 -0.16576339 293 19626360 141 41 65 2194
0.7728979 -2.0852821 -0.18987431 336 19626360 167 42 101 2232
0.85583037 -2.0753784 -0.21303707 353 19626360 179 43 53 2255
0.58704084 -2.0285428 -0.21800743 406 19626360 183 44 68 2123
0.67966712 -2.0652831 -0.24495661 337 19626360 161 45 57 2188
0.77165014 -2.0852654 -0.27170676 346 19626360 174 46 72 2240
0.86234879 -2.0926361 -0.29886037 326 19626360 170 47 98 2283
0.58850521 -2.0400014 -0.2979795 361 19626360 166 48 47 2144
0.6785863 -2.0650327 -0.32613713 333 19626360 161 49 35 2198
0.76211149 -2.0628066 -0.3514888 341 19626360 169 50 41 2227
0.86149514 -2.0922229 -0.38399804 376 19626360 198 51 50 2295
0.57535803 -2.0011144 -0.37111866 409 19626360 183 52 66 2115
0.66322947 -2.0217495 -0.39985168 366 19626360 171 53 53 2165
0.76258826 -2.0660934 -0.43559489 347 19626360 175 54 56 2245
0.84768021 -2.0585701 -0.46346995 384 19626360 198 55 44 2274
0.58323723 -2.0327933 -0.45878339 398 19626360 187 56 72 2164
0.66133219 -2.0195355 -0.48182702 381 19626360 181 57 56 2179
0.76073909 -2.0623021 -0.52083337 358 19626360 182 58 57 2259
0.84512514 -2.0528738 -0.54940158 402 19626360 210 59 51 2287
0.57784408 -2.0229166 -0.53989744 443 19626360 209 60 29 2172
0.66314113 -2.0308106 -0.56971389 410 19626360 200 61 35 2211
0.74865752 -2.0307508 -0.6000663 376 19626360 189 62 42 2246
0.84102386 -2.0404832 -0.63664514 386 19626360 203 63 42 2297
0.59617609 -2.0961726 0.68023825 379 19724750 197 0 50 2283
0.68465251 -2.0998619 0.66292322 375 19724750 199 1 53 2306
0.7970714 -2.1651666 0.66808325 362 19724750 209 2 32 2402
0.87637001 -2.1295686 0.64326864 370 19724750 211 3 36 2391
0.60082954 -2.1084776 0.59225631 377 19724750 194 4 50 2271
0.68828851 -2.1141431 0.57694691 395 19724750 208 5 30 2297
0.77891719 -2.118361 0.56223768 372 19724750 202 6 60 2326
0.86730045 -2.1136067 0.54613048 442 19724750 244 7 41 2349
0.59565616 -2.0888014 0.50054401 365 19724750 182 8 65 2229
0.68621856 -2.1050389 0.48703688 371 19724750 191 9 61 2267
0.78680098 -2.1433818 0.47932115 355 19724750 193 10 29 2333
0.87438577 -2.1361797 0.46206298 392 19724750 217 11 33 2354
0.5904091 -2.0691688 0.41284361 374 19724750 180 12 80 2191
0.69964534 -2.1490269 0.41035372 351 19724750 185 13 34 2297
0.7776823 -2.1197989 0.38774329 335 19724750 176 14 57 2291
0.86585778 -2.1168206 0.37128302 386 19724750 207 15 33 2317
0.58355319 -2.0452766 0.32774079 333 19724750 154 16 34 2152
0.69258982 -2.1289959 0.32301742 361 19724750 185 17 58 2262
0.77778864 -2.1236415 0.30449343 317 19724750 165 18 56 2282
0.88937116 -2.1781013 0.29416782 192 19724750 108 19 46 2371
0.59159189 -2.0735884 0.251975 304 19724750 144 20 64 2171
0.68376225 -2.102983 0.23687166 298 19724750 147 21 51 2224
0.76608139 -2.0947328 0.21747655 314 19724750 158 22 53 2241
0.86081177 -2.1114218 0.20105159 317 19724750 166 23 71 2289
0.58921808 -2.0667717 0.17208371 312 19724750 145 24 50 2156
0.67956287 -2.0919297 0.1550799 299 19724750 145 25 51 2205
0.78089964 -2.1354821 0.13855268 183 19724750 95 26 79 2278
0.88208222 -2.1672726 0.12045874 167 19724750 92 27 58 2343
0.58898699 -2.069797 0.093543015 368 19724750 171 28 44 2154
0.68259484 -2.1037621 0.074955113 301 19724750 147 29 21 2213
0.77838182 -2.1348324 0.056049913 107 19724750 55 30 27 2273
0.82323134 -2.0248013 0.032657668 185 19724750 88 31 51 2186
0.59762955 -2.1005862 0.015247073 268 19724750 128 32 62 2184
0.66895717 -2.0643077 -0.005491673 293 19724750 138 33 45 2170
0.80364072 -2.2049458 -0.028017944 152 19724750 84 34 50 2347
0.85866934 -2.1158791 -0.048988268 278 19724750 145 35 54 2284
0.5900743 -2.077888 -0.064146452 310 19724750 145 36 117 2161
0.67308277 -2.0822423 -0.085597068 292 19724750 140 37 25 2190
0.77278548 -2.1230521 -0.10998556 102 19724750 52 38 60 2262
0.85032153 -2.0952039 -0.13152702 329 19724750 169 39 55 2265
0.57925463 -2.0459011 -0.14111835 363 19724750 165 40 61 2131
0.67195427 -2.0819788 -0.16576339 291 19724750 140 41 55 2194
0.74782878 -2.0562756 -0.18681182 366 19724750 176 42 109 2196
0.85205287 -2.1027343 -0.21530442 330 19724750 171 43 47 2279
0.57783061 -2.0435927 -0.21923967 388 19724750 177 44 55 2135
0.66332394 -2.0580647 -0.24361315 337 19724750 159 45 39 2176
0.75071025 -2.0675685 -0.26879561 336 19724750 165 46 76 2216
0.84056216 -2.075834 -0.29571864 356 19724750 182 47 100 2259
0.56952941 -2.0206983 -0.29464394 386 19724750 173 48 55 2120
0.66590273 -2.0691576 -0.32613713 333 19724750 161 49 47 2198
0.7454018 -2.0563037 -0.34959486 350 19724750 172 50 38 2215
0.84864128 -2.0974696 -0.38399804 382 19724750 201 51 48 2295
0.56306857 -2.0046072 -0.37111866 401 19724750 180 52 62 2115
0.65081179 -2.0257809 -0.39985168 366 19724750 171 53 51 2165
0.74187988 -2.0485966 -0.43093821 350 19724750 173 54 65 2221
0.83503312 -2.0637326 -0.46346995 423 19724750 219 55 43 2274
0.56442332 -2.0137496 -0.45369524 377 19724750 173 56 78 2140
0.65607554 -2.0458434 -0.48713395 382 19724750 185 57 50 2203
0.72820163 -2.0120325 -0.50699985 366 19724750 177 58 55 2199
0.8194083 -2.0256252 -0.54075336 429 19724750 217 59 52 2251
0.56229693 -2.0152283 -0.53691459 417 19724750 194 60 44 2160
0.64360493 -2.0127535 -0.56352973 387 19724750 185 61 28 2187
0.73224974 -2.0244319 -0.59686029 371 19724750 185 62 44 2234
0.82415962 -2.0349185 -0.63331914 404 19724750 211 63 36 2285
0.58943498 -2.1218653 0.68738925 376 19823210 200 0 38 2307
0.67175514 -2.1040232 0.66292322 396 19823210 211 1 59 2306
0.77593994 -2.1483345 0.66140795 342 19823210 193 2 27 2378
0.86761945 -2.1456206 0.64649713 470 19823210 271 3 45 2403
0.58166808 -2.0898037 0.58599734 382 19823210 193 4 58 2247
0.67177546 -2.10726 0.57393283 371 19823210 193 5 32 2285
0.75800174 -2.1011939 0.55643642 349 19823210 185 6 59 2302
0.85431528 -2.1188886 0.54613048 408 19823210 225 7 58 2349
0.58596605 -2.1036816 0.5032388 366 19823210 184 8 51 2241
0.66616142 -2.0868802 0.48188075 347 19823210 175 9 63 2243
0.76169688 -2.1150212 0.47192484 371 19823210 196 10 34 2297
0.85687149 -2.1305878 0.4597075 368 19823210 202 11 27 2342
0.58719385 -2.1068094 0.41962692 353 19823210 175 12 96 2227
0.66851526 -2.0970333 0.39963484 321 19823210 160 13 48 2237
0.76466084 -2.1245306 0.38774329 314 19823210 165 14 67 2291
0.85285294 -2.1220934 0.37128302 371 19823210 199 15 44 2317
0.57736057 -2.0716679 0.33139586 352 19823210 167 16 41 2176
0.66869897 -2.0992553 0.31787655 309 19823210 153 17 64 2226
0.76474357 -2.1283739 0.30449343 332 19823210 173 18 51 2282
0.8582558 -2.139313 0.28821251 164 19823210 88 19 40 2323
0.58205706 -2.0886607 0.25336778 331 19823210 158 20 55 2183
0.66722602 -2.0957694 0.23559357 329 19823210 161 21 62 2212
0.7653138 -2.1331191 0.22097015 319 19823210 165 22 56 2277
0.85672975 -2.1388571 0.20315962 192 19823210 103 23 82 2313
0.57973439 -2.0818717 0.17304151 319 19823210 150 24 56 2168
0.67034256 -2.1074672 0.15592387 303 19823210 149 25 64 2217
0.76778191 -2.1402333 0.13855268 158 19823210 82 26 80 2278
0.83762085 -2.0947516 0.11614011 191 19823210 98 27 73 2259
0.58269686 -2.0964739 0.094585285 341 19823210 162 28 50 2178
0.66604233 -2.0964808 0.074548669 272 19823210 132 29 33 2201
0.77334839 -2.1621594 0.056641731 234 19823210 123 30 37 2297
0.83749682 -2.0966702 0.033733308 84 19823210 43 31 55 2258
0.58472937 -2.1042137 0.015247073 307 19823210 146 32 55 2184
0.65264899 -2.0569355 -0.005461304 289 19823210 134 33 49 2158
0.76181841 -2.1307445 -0.02701517 330 19823210 169 34 85 2263
0.82789791 -2.0765312 -0.047958739 122 19823210 61 35 44 2236
0.57090187 -2.0583529 -0.063434049 293 19823210 134 36 88 2137
0.6566757 -2.0749013 -0.085128047 290 19823210 137 37 41 2178
0.75974411 -2.1277537 -0.10998556 321 19823210 164 38 86 2262
0.83301276 -2.0892539 -0.1308302 316 19823210 160 39 48 2253
0.56349921 -2.0378764 -0.1403237 379 19823210 170 40 60 2119
0.65556157 -2.0746531 -0.16485678 304 19823210 145 41 61 2182
0.73921514 -2.072087 -0.18783265 334 19823210 163 42 88 2208
0.82587934 -2.074625 -0.21190339 359 19823210 180 43 45 2243
0.5652805 -2.0470996 -0.21923967 380 19823210 173 44 71 2135
0.64709502 -2.0507243 -0.24226968 341 19823210 160 45 45 2164
0.73800975 -2.0721359 -0.26879561 357 19823210 176 46 58 2216
0.81901449 -2.0588443 -0.29257688 330 19823210 165 47 87 2235
0.5539664 -2.0126972 -0.29297614 385 19823210 171 48 61 2108
0.64606178 -2.0505669 -0.32257599 310 19823210 146 49 37 2174
0.72880059 -2.0496738 -0.34770086 338 19823210 164 50 38 2203
0.82701558 -2.0806489 -0.37998238 365 19823210 188 51 45 2271
0.54138333 -1.9738451 -0.36480176 376 19823210 163 52 60 2079
0.63483125 -2.0184858 -0.3976354 364 19823210 169 53 65 2153
0.73323631 -2.064203 -0.43326652 357 19823210 178 54 77 2233
0.81801492 -2.0579 -0.46102417 397 19823210 203 55 48 2262
0.54896092 -2.0058637 -0.45115113 403 19823210 183 56 79 2128
0.64000487 -2.0386648 -0.4844805 368 19823210 176 57 57 2191
0.71974874 -2.0274668 -0.50976658 352 19823210 172 58 52 2211
0.81126571 -2.0414398 -0.54363608 416 19823210 213 59 62 2263
0.54075581 -1.9849966 -0.52796596 439 19823210 198 60 27 2124
0.62777919 -2.0055993 -0.56043768 410 19823210 194 61 38 2175
0.71594775 -2.0179887 -0.59365422 399 19823210 197 62 34 2222
0.81165808 -2.039937 -0.63331914 400 19823210 209 63 34 2285
0.57640439 -2.125442 0.68738925 371 19920520 197 0 49 2307
0.65883243 -2.1081054 0.66292322 422 19920520 224 1 43 2306
0.76274341 -2.153055 0.66140795 356 19920520 201 2 18 2378
0.84590411 -2.1294217 0.64004022 433 19920520 245 3 33 2379
0.56275862 -2.0709746 0.57973832 366 19920520 181 4 54 2223
0.66575277 -2.1335182 0.579961 368 19920520 196 5 35 2309
0.74121076 -2.0948284 0.55353582 351 19920520 184 6 54 2290
0.84129792 -2.1240907 0.54613048 391 19920520 216 7 70 2349
0.56384146 -2.0733862 0.49515462 347 19920520 169 8 66 2205
0.65683943 -2.1021149 0.48445883 332 19920520 169 9 50 2255
0.74870497 -2.1196551 0.47192484 382 19920520 201 10 37 2297
0.83513552 -2.1139183 0.45499659 367 19920520 197 11 30 2318
0.56187838 -2.0648866 0.41058245 364 19920520 173 12 84 2179
0.65915263 -2.1123667 0.40177861 340 19920520 172 13 38 2249
0.73586315 -2.0845728 0.37961945 316 19920520 159 14 65 2243
0.83981591 -2.1272864 0.37128302 370 19920520 198 15 44 2317
0.5646382 -2.0751715 0.33139586 332 19920520 157 16 46 2176
0.65580559 -2.1033187 0.31787655 322 19920520 160 17 70 2226
0.7437644 -2.1105931 0.30129105 337 19920520 172 18 66 2258
0.86694121 -2.1999295 0.29565665 154 19920520 87 19 45 2383
0.56610125 -2.0806921 0.251975 300 19920520 142 20 60 2171
0.65080422 -2.0884326 0.23431547 346 19920520 168 21 60 2200
0.74031812 -2.103976 0.21747655 326 19920520 164 22 41 2241
0.83921319 -2.1329501 0.20210561 165 19920520 88 23 76 2301
0.57008743 -2.0969322 0.17399928 294 19920520 140 24 57 2180
0.65028214 -2.0886824 0.15423593 299 19920520 144 25 45 2193
0.73873419 -2.0997086 0.13563322 303 19920520 151 26 87 2230
0.82037085 -2.0886972 0.11552317 247 19920520 125 27 72 2247
0.55726409 -2.0537286 0.092500754 373 19920520 169 28 35 2130
0.65672708 -2.1119802 0.074955113 246 19920520 120 29 31 2213
0.74815482 -2.1329036 0.05575401 217 19920520 111 30 24 2261
0.82899857 -2.1129394 0.033912584 172 19920520 88 31 42 2270
0.56866539 -2.0961809 0.015163299 279 19920520 132 32 60 2172
0.6506924 -2.0952816 -0.0055524101 315 19920520 151 33 52 2194
0.74475986 -2.1240556 -0.02687192 290 19920520 147 34 59 2251
0.79326779 -2.0257158 -0.046671834 126 19920520 59 35 40 2176
0.56766582 -2.0965505 -0.064502664 293 19920520 138 36 95 2173
0.64393198 -2.0788915 -0.085128047 302 19920520 143 37 48 2178
0.7308296 -2.087126 -0.10765164 323 19920520 159 38 67 2214
0.82017761 -2.094326 -0.1308302 336 19920520 171 39 61 2253
0.55410469 -2.0528553 -0.14111835 371 19920520 169 40 66 2131
0.6428194 -2.0786366 -0.16485678 308 19920520 147 41 69 2182
0.72253883 -2.0652978 -0.18681182 338 19920520 163 42 97 2196
0.80878395 -2.0685277 -0.21076973 365 19920520 181 43 42 2231
0.5527091 -2.0505295 -0.21923967 369 19920520 168 44 59 2135
0.63801837 -2.0660498 -0.24361315 336 19920520 159 45 53 2176
0.72920901 -2.0878706 -0.27025121 327 19920520 163 46 73 2228
0.81935465 -2.0970738 -0.29728952 351 19920520 181 47 94 2271
0.54160631 -2.0160584 -0.29297614 367 19920520 163 48 63 2108
0.63346756 -2.0544925 -0.32257599 350 19920520 165 49 37 2174
0.72401285 -2.0764849 -0.3514888 342 19920520 169 50 49 2227
0.81423336 -2.0856843 -0.37998238 380 19920520 196 51 56 2271
0.53231674 -1.988542 -0.36690742 414 19920520 181 52 62 2091
0.61896485 -2.0110712 -0.39541912 341 19920520 156 53 57 2141
0.70894009 -2.0353127 -0.42628148 343 19920520 166 54 75 2197
0.81391752 -2.0847678 -0.46591565 407 19920520 212 55 49 2286
0.53664285 -2.0091941 -0.45115113 375 19920520 170 56 85 2128
0.6240471 -2.0313663 -0.48182702 389 19920520 184 57 50 2179
0.7111336 -2.0428724 -0.51253325 383 19920520 189 58 53 2223
0.79025364 -2.0246768 -0.53787059 416 19920520 208 59 56 2239
0.53453839 -2.0107436 -0.53393167 409 19920520 189 60 37 2148
0.61885685 -2.0204999 -0.56352973 410 19920520 196 61 30 2187
0.69975257 -2.0114217 -0.59044814 379 19920520 185 62 46 2210
0.79492927 -2.0341399 -0.62999314 383 19920520 198 63 44 2273
0.55749142 -2.106791 0.68023825 372 20019280 194 0 54 2283
0.64252394 -2.1011174 0.65947354 364 20019280 192 1 78 2294
0.74195367 -2.1359181 0.6547327 352 20019280 195 2 33 2354
0.82442051 -2.1130376 0.63358331 402 20019280 223 3 36 2355
0.55894834 -2.1079819 0.58912677 373 20019280 190 4 57 2259
0.64925742 -2.1264541 0.57694691 377 20019280 199 5 28 2297
0.73215979 -2.1103375 0.55643642 351 20019280 186 6 65 2302
0.8240177 -2.1183355 0.54334056 402 20019280 219 7 52 2337
0.55710727 -2.0994115 0.50054401 368 20019280 183 8 76 2229
0.64050204 -2.094898 0.48188075 349 20019280 175 9 55 2243
0.73568493 -2.1242092 0.47192484 367 20019280 194 10 28 2297
0.81789285 -2.1080329 0.45264113 376 20019280 200 11 18 2306
0.55222243 -2.0796857 0.41284361 352 20019280 169 12 71 2191
0.64273113 -2.1050789 0.39963484 366 20019280 183 13 40 2237
0.73079532 -2.1114016 0.38368139 324 20019280 167 14 67 2267
0.8139019 -2.0992677 0.36551425 358 20019280 186 15 40 2281
0.55189455 -2.0785971 0.33139586 362 20019280 171 16 33 2176
0.63595617 -2.084583 0.31444931 320 20019280 155 17 45 2202
0.73468381 -2.1263576 0.30289224 329 20019280 169 18 51 2270
0.81904578 -2.11637 0.28374603 370 20019280 194 19 71 2287
0.55332369 -2.0841262 0.251975 322 20019280 152 20 65 2171
0.63797754 -2.0923865 0.23431547 307 20019280 149 21 70 2200
0.73128939 -2.1197691 0.21864107 305 20019280 155 22 57 2253
0.83903468 -2.17151 0.20526762 193 20019280 106 23 81 2337
0.55414301 -2.088829 0.17304151 306 20019280 144 24 47 2168
0.64094216 -2.104084 0.1550799 298 20019280 145 25 53 2205
0.72974259 -2.1155248 0.13636309 307 20019280 154 26 81 2242
0.80322671 -2.0825102 0.11490622 304 20019280 152 27 46 2235
0.54158366 -2.0455198 0.091979623 345 20019280 155 28 38 2118
0.64375585 -2.1159701 0.074955113 285 20019280 139 29 30 2213
0.72725099 -2.1147652 0.055162188 195 20019280 97 30 30 2237
0.82895935 -2.1515751 0.034450401 105 20019280 56 31 40 2306
0.54658073 -2.0648303 0.014911973 281 20019280 128 32 58 2136
0.63433528 -2.0877531 -0.0055220416 290 20019280 138 33 48 2182
0.73171288 -2.1285853 -0.02687192 279 20019280 142 34 73 2251
0.78512937 -2.041743 -0.046929218 152 20019280 73 35 45 2188
0.5486635 -2.0768006 -0.063790254 290 20019280 134 36 69 2149
0.63116401 -2.0828035 -0.085128047 293 20019280 139 37 52 2178
0.72190112 -2.1029077 -0.10823513 296 20019280 147 38 93 2226
0.81161159 -2.1105006 -0.13152702 332 20019280 170 39 46 2265
0.53844893 -2.0446379 -0.1403237 345 20019280 155 40 48 2119
0.62658805 -2.0710886 -0.16395013 315 20019280 148 41 53 2170
0.7059738 -2.0583825 -0.18579097 347 20019280 165 42 117 2184
0.7875126 -2.051146 -0.20850235 339 20019280 165 43 44 2207
0.53708112 -2.0423384 -0.21800743 369 20019280 167 44 66 2123
0.6149838 -2.0356805 -0.23958278 334 20019280 153 45 37 2140
0.7125259 -2.0810363 -0.26879561 343 20019280 169 46 65 2216
0.79794908 -2.0798471 -0.29414776 328 20019280 166 47 71 2247
0.52621317 -2.0078485 -0.29130834 388 20019280 170 48 54 2096
0.62084955 -2.0583408 -0.32257599 327 20019280 154 49 44 2174
0.69592798 -2.0360377 -0.34391293 360 20019280 171 50 30 2179
0.80142057 -2.090641 -0.37998238 370 20019280 191 51 55 2271
0.52607489 -2.0146317 -0.37111866 398 20019280 178 52 71 2115
0.61001348 -2.0261242 -0.3976354 367 20019280 170 53 58 2153
0.70404625 -2.0619051 -0.43093821 365 20019280 180 54 59 2221
0.79269975 -2.0677834 -0.46102417 402 20019280 206 55 30 2262
0.52430451 -2.012449 -0.45115113 393 20019280 178 56 64 2128
0.61157113 -2.0351572 -0.48182702 362 20019280 172 57 49 2179
0.68727225 -2.0140445 -0.50423312 363 20019280 173 58 53 2187
0.78615302 -2.0512416 -0.54363608 430 20019280 220 59 58 2263
0.5192734 -2.0027344 -0.53094888 453 20019280 207 60 31 2136
0.59646499 -1.9909378 -0.55425352 401 20019280 185 61 29 2151
0.68739754 -2.0156775 -0.59044814 378 20019280 184 62 49 2210
0.78656381 -2.0497439 -0.63331914 380 20019280 198 63 38 2285
0.54455388 -2.110172 0.68023825 380 20117790 198 0 50 2283
0.62632602 -2.0940087 0.65602374 410 20117790 213 1 51 2282
0.73626465 -2.1622529 0.66140795 318 20117790 180 2 42 2378
0.81557441 -2.128849 0.63681179 419 20117790 235 3 43 2367
0.54600346 -2.1113718 0.58912677 373 20117790 191 4 62 2259
0.63287389 -2.1192682 0.57393283 369 20117790 192 5 31 2285
0.72294629 -2.1258144 0.55933702 343 20117790 183 6 51 2314
0.80267572 -2.1015458 0.53776067 401 20117790 214 7 50 2313
0.54421502 -2.1027904 0.50054401 336 20117790 167 8 68 2229
0.62427813 -2.0875602 0.47930273 340 20117790 170 9 60 2231
0.71508676 -2.1064417 0.46699396 392 20117790 202 10 30 2273
0.80913162 -2.1240077 0.45499659 367 20117790 197 11 32 2318
0.53354222 -2.0602174 0.40832132 327 20117790 154 12 80 2167
0.63318098 -2.1202965 0.40177861 352 20117790 178 13 44 2249
0.70262742 -2.0710464 0.37555754 317 20117790 156 14 49 2219
0.80943364 -2.1263621 0.36936009 367 20117790 195 15 44 2305
0.53615695 -2.0704629 0.3295683 370 20117790 173 16 27 2164
0.62315339 -2.0884459 0.31444931 328 20117790 159 17 65 2202
0.71399337 -2.1082969 0.29968983 315 20117790 159 18 69 2246
0.80604458 -2.1213558 0.28374603 350 20117790 183 19 52 2287
0.53454995 -2.0644054 0.24918947 302 20117790 139 20 47 2147
0.6251269 -2.0962617 0.23431547 304 20117790 147 21 72 2200
0.71826899 -2.1242163 0.21864107 328 20117790 166 22 54 2253
0.81297547 -2.1430879 0.20210561 172 20117790 91 23 98 2301
0.54131573 -2.09219 0.17304151 334 20117790 157 24 48 2168
0.62460184 -2.0965049 0.15423593 275 20117790 132 25 54 2193
0.71674824 -2.1199627 0.13636309 300 20117790 151 26 97 2242
0.79892141 -2.1098144 0.11614011 195 20117790 100 27 59 2259
0.53801429 -2.0836282 0.093543015 346 20117790 160 28 48 2154
0.62734014 -2.1083853 0.074548669 254 20117790 123 29 29 2201
0.71809292 -2.1305559 0.055458099 302 20117790 153 30 34 2249
0.81149703 -2.1453986 0.034271128 271 20117790 143 31 58 2294
0.53690028 -2.0797637 0.014995747 291 20117790 134 32 50 2148
0.63176721 -2.1261146 -0.0056131477 304 20117790 149 33 46 2218
0.72630036 -2.1557772 -0.027158424 281 20117790 145 34 54 2275
0.73868883 -1.9567293 -0.044870161 337 20117790 147 35 56 2092
0.53591019 -2.0801282 -0.063790254 315 20117790 146 36 74 2149
0.61496526 -2.0751402 -0.084659018 269 20117790 126 37 33 2166
0.71662837 -2.1300175 -0.10940208 327 20117790 166 38 89 2250
0.79018408 -2.0930257 -0.13013338 318 20117790 160 39 38 2241
0.5199368 -2.0247083 -0.13873437 373 20117790 164 40 65 2095
0.61047357 -2.0634201 -0.16304348 314 20117790 146 41 64 2158
0.70094955 -2.0853424 -0.18783265 350 20117790 171 42 94 2208
0.77912563 -2.0671182 -0.20963603 383 20117790 188 43 34 2219
0.52157456 -2.0340328 -0.21677516 390 20117790 174 44 68 2111
0.60248148 -2.0394158 -0.23958278 337 20117790 154 45 45 2140
0.6959542 -2.0740764 -0.26734003 372 20117790 181 46 66 2204
0.78097916 -2.0735707 -0.29257688 338 20117790 169 47 101 2235
0.51976746 -2.0340667 -0.29464394 369 20117790 166 48 57 2120
0.60485095 -2.0507293 -0.32079548 334 20117790 156 49 38 2162
0.69094932 -2.0627415 -0.34770086 369 20117790 179 50 42 2203
0.78441066 -2.0844464 -0.37797454 363 20117790 185 51 68 2259
0.50787419 -1.9949245 -0.36690742 373 20117790 163 52 67 2091
0.58757806 -1.9958885 -0.39098659 351 20117790 158 53 60 2117
0.68017483 -2.0326958 -0.42395318 382 20117790 183 54 66 2185
0.76758337 -2.0396225 -0.45368692 395 20117790 196 55 39 2226
0.50039887 -1.9701631 -0.44097483 388 20117790 168 56 80 2080
0.59577292 -2.0276432 -0.47917351 379 20117790 178 57 49 2167
0.67490137 -2.0182235 -0.50423312 372 20117790 178 58 34 2187
0.76534826 -2.0342219 -0.53787059 427 20117790 214 59 70 2239
0.50412691 -1.9946138 -0.52796596 416 20117790 188 60 42 2124
0.58749694 -2.0056875 -0.55734563 431 20117790 202 61 33 2163
0.66768616 -1.9979223 -0.58403605 383 20117790 183 62 36 2186
0.7577135 -2.0113728 -0.62001526 384 20117790 192 63 41 2237
0.52880168 -2.1023648 0.67666274 362 20214650 186 0 53 2271
0.61023974 -2.086781 0.65257406 357 20214650 184 1 48 2270
0.71933514 -2.1557963 0.65807033 347 20214650 194 2 34 2366
0.78622293 -2.0905421 0.62389797 399 20214650 215 3 25 2319
0.53303808 -2.1146824 0.58912677 392 20214650 200 4 54 2259
0.60358202 -2.0673623 0.55886239 366 20214650 181 5 23 2225
0.70252627 -2.1081166 0.55353582 355 20214650 186 6 71 2290
0.78976578 -2.1064315 0.53776067 410 20214650 219 7 52 2313
0.53130227 -2.1060901 0.50054401 358 20214650 178 8 55 2229
0.621324 -2.125098 0.48703688 354 20214650 182 9 41 2267
0.70585531 -2.1219335 0.46945941 358 20214650 187 10 35 2285
0.7919625 -2.1179111 0.45264113 394 20214650 209 11 19 2306
0.52665991 -2.0863056 0.41284361 372 20214650 179 12 67 2191
0.60692328 -2.0788066 0.39320356 338 20214650 164 13 50 2201
0.70109922 -2.1089876 0.38165042 345 20214650 176 14 75 2255
0.78393334 -2.0980017 0.36359134 339 20214650 174 15 36 2269
0.52344275 -2.0737138 0.3295683 357 20214650 167 16 50 2164
0.61697924 -2.1150336 0.31787655 349 20214650 173 17 53 2226
0.70104367 -2.1126382 0.29968983 333 20214650 168 18 45 2246
0.79301304 -2.1262617 0.28374603 314 20214650 164 19 50 2287
0.51895607 -2.0560901 0.24779668 334 20214650 153 20 60 2135
0.6155923 -2.1115129 0.23559357 283 20214650 138 21 55 2212
0.6977092 -2.1059089 0.21631201 315 20214650 157 22 64 2229
0.79981041 -2.148036 0.20210561 153 20214650 81 23 72 2301
0.51969284 -2.0606763 0.17016812 316 20214650 143 24 44 2132
0.61172616 -2.1002979 0.15423593 265 20214650 128 25 62 2193
0.70372689 -2.1243205 0.13636309 274 20214650 138 26 85 2242
0.79848605 -2.1483769 0.11799095 159 20214650 84 27 69 2295
0.52229327 -2.0752642 0.093021892 370 20214650 170 28 38 2142
0.60099268 -2.0661316 0.072922893 266 20214650 123 29 24 2153
0.70500654 -2.1349218 0.055458099 286 20214650 145 30 33 2249
0.78161365 -2.1053433 0.033554032 318 20214650 161 31 61 2246
0.52998519 -2.106293 0.015163299 279 20214650 132 32 63 2172
0.61201489 -2.1069036 -0.0055524101 283 20214650 136 33 61 2194
0.69801432 -2.1146154 -0.026585411 276 20214650 137 34 60 2227
0.76835144 -2.0737236 -0.047443978 173 20214650 84 35 52 2212
0.52605778 -2.0950105 -0.064146452 289 20214650 135 36 84 2161
0.5988844 -2.0673571 -0.084189989 297 20214650 138 37 56 2154
0.69228858 -2.1002247 -0.10765164 325 20214650 159 38 74 2214
0.76900178 -2.0753677 -0.1287397 320 20214650 157 39 48 2217
0.51041055 -2.0394759 -0.13952903 340 20214650 151 40 55 2107
0.59115279 -2.0441377 -0.16123022 323 20214650 147 41 82 2134
0.68440104 -2.0782475 -0.18681182 362 20214650 175 42 75 2196
0.77057213 -2.0830643 -0.21076973 365 20214650 181 43 42 2231
0.50329638 -2.014034 -0.21431065 363 20214650 158 44 75 2087
0.59326476 -2.0545306 -0.24092625 321 20214650 148 45 47 2152
0.67577511 -2.0556765 -0.26442891 359 20214650 171 46 82 2180
0.75999171 -2.0560062 -0.28943512 363 20214650 177 47 104 2211
0.50153416 -2.0141549 -0.29130834 356 20214650 156 48 39 2096
0.60211837 -2.0886102 -0.32613713 314 20214650 152 49 32 2198
0.67458498 -2.0556836 -0.34580693 365 20214650 175 50 37 2191
0.75521064 -2.0448277 -0.36994323 349 20214650 170 51 51 2211
0.49562404 -1.9980032 -0.36690742 405 20214650 177 52 60 2091
0.58184272 -2.0221236 -0.39541912 391 20214650 179 53 81 2141
0.67135656 -2.048017 -0.42628148 360 20214650 174 54 64 2197
0.75098366 -2.0332735 -0.45124114 391 20214650 191 55 47 2214
0.49675211 -2.0073478 -0.44860709 401 20214650 179 56 57 2116
0.57362974 -1.9975156 -0.4712131 374 20214650 170 57 38 2131
0.65523481 -2.0001338 -0.49869969 394 20214650 184 58 51 2163
0.75285208 -2.0388796 -0.53787059 451 20214650 226 59 52 2239
0.49187869 -1.9976696 -0.52796596 416 20214650 188 60 29 2124
0.57837027 -2.0204017 -0.56043768 397 20214650 188 61 27 2175
0.65541458 -2.0019815 -0.58403605 389 20214650 186 62 42 2186
0.75735271 -2.0484273 -0.62999314 377 20214650 195 63 38 2273
0.51043993 -2.0833182 0.6695118 381 20312590 193 0 58 2247
0.60058218 -2.101537 0.65602374 378 20312590 197 1 55 2282
0.70251268 -2.1492133 0.6547327 361 20312590 200 2 36 2354
0.77338082 -2.0953269 0.62389797 398 20312590 214 3 33 2319
0.51176488 -2.0841615 0.57973832 359 20312590 178 4 73 2223
0.60044599 -2.1045358 0.56790465 366 20312590 187 5 28 2261
0.68596435 -2.1013184 0.55063516 334 20312590 173 6 52 2278
0.7727958 -2.1002843 0.53497076 411 20312590 217 7 57 2301
0.51278824 -2.0865991 0.49515462 348 20312590 169 8 54 2205
0.59539372 -2.0837948 0.47672465 345 20312590 170 9 64 2219
0.6928221 -2.1262245 0.46945941 381 20312590 199 10 32 2285
0.77084529 -2.1006382 0.44793022 372 20312590 194 11 26 2282
0.51103431 -2.0780537 0.41058245 353 20312590 168 12 90 2179
0.60711402 -2.127907 0.40177861 344 20312590 174 13 40 2249
0.67715961 -2.0795126 0.37555754 327 20312590 161 14 54 2219
0.76696777 -2.0916517 0.36166844 351 20312590 179 15 40 2257
0.50504476 -2.0538526 0.32591322 351 20312590 161 16 16 2140
0.58771002 -2.0616696 0.30930847 315 20312590 148 17 61 2166
0.68071514 -2.0942795 0.29648745 319 20312590 157 18 46 2222
0.77585912 -2.1199055 0.2822572 333 20312590 172 19 55 2275
0.50633031 -2.0592356 0.24779668 306 20312590 139 20 55 2135
0.59608632 -2.0923002 0.23303741 312 20312590 149 21 55 2188
