# .PCD v0.7 - Point Cloud Data file format
VERSION 0.7
FIELDS x y z intensity t reflectivity ring noise range
SIZE 4 4 4 4 4 2 1 2 4
TYPE F F F F U U U U U
COUNT 1 1 1 1 1 1 1 1 1
WIDTH 779
HEIGHT 1
VIEWPOINT 0 0 0 1 0 0 0
POINTS 779
DATA ascii
1.3547417 -1.8528342 -0.11173599 167 15238520 88 38 107 2298
1.4447409 -1.8319051 -0.13570802 103 15238520 56 39 74 2337
1.1261575 -1.8036119 -0.14111835 424 15238520 193 40 101 2131
1.2453417 -1.8421829 -0.1684833 192 15238520 96 41 98 2230
1.2838964 -1.7569711 -0.18579097 31 15238520 15 42 153 2184
1.3892051 -1.7634482 -0.21303707 39 15238520 20 43 65 2255
1.1557389 -1.8524275 -0.225401 212 15238520 102 44 115 2195
1.2369857 -1.8314062 -0.24898697 49 15238520 24 45 75 2224
1.3249545 -1.8151522 -0.27461791 276 15238520 142 46 108 2264
1.414901 -1.7969695 -0.30200216 347 15238520 185 47 127 2307
1.1663346 -1.8729022 -0.30965412 113 15238520 56 48 102 2228
1.2025784 -1.7821409 -0.32257599 346 15238520 164 49 59 2174
1.2956089 -1.7769024 -0.3514888 368 15238520 183 50 70 2227
1.3846149 -1.759516 -0.37998238 401 15238520 207 51 63 2271
1.0679303 -1.7182912 -0.36059049 412 15238520 174 52 103 2055
1.1892793 -1.7643579 -0.39985168 421 15238520 197 53 86 2165
1.2969637 -1.7799348 -0.43559489 422 15238520 213 54 88 2245
1.369516 -1.7402663 -0.46102417 421 15238520 215 55 52 2262
1.1029583 -1.7768636 -0.45369524 425 15238520 195 56 115 2140
1.1933866 -1.7724528 -0.4844805 466 15238520 224 57 72 2191
1.273527 -1.7484759 -0.51253325 408 15238520 202 58 75 2223
1.3655672 -1.7355601 -0.5465188 37 15238520 19 59 58 2275
1.1013279 -1.7788761 -0.53691459 465 15238520 217 60 60 2160
1.1787293 -1.7538531 -0.56352973 406 15238520 194 61 62 2187
1.3215702 -1.8151684 -0.6225087 171 15238520 93 62 50 2330
1.3868464 -1.7610865 -0.64662302 228 15238520 124 63 51 2333
1.187186 -1.9224665 0.70526671 310 15334680 174 0 92 2367
1.1799312 -1.7573345 0.63532537 81 15334680 40 1 86 2210
1.1266267 -1.5489234 0.55460364 66 15334680 26 2 45 1994
1.1522113 -1.4647945 0.52058756 79 15334680 29 3 34 1935
1.0493251 -1.6972996 0.53905493 262 15334680 112 4 70 2067
1.0121071 -1.5088074 0.47145382 363 15334680 128 5 1 1877
1.1694725 -1.6091276 0.49552333 101 15334680 43 6 95 2050
1.1872627 -1.5125031 0.45964238 173 15334680 68 7 61 1977
0.98877078 -1.5986658 0.43317607 316 15334680 117 8 44 1929
1.0446607 -1.5560451 0.41227338 326 15334680 120 9 46 1919
1.0653596 -1.4675431 0.38070384 370 15334680 127 10 61 1853
1.2204301 -1.5575532 0.39611009 280 15334680 114 11 36 2018
1.0453349 -1.6895266 0.38118783 330 15334680 135 12 66 2023
1.1077353 -1.6513659 0.36104697 320 15334680 131 13 25 2021
1.1038518 -1.5211809 0.32275268 294 15334680 107 14 98 1907
1.191051 -1.5208238 0.31359553 330 15334680 126 15 55 1957
1.1003152 -1.778458 0.32225811 330 15334680 148 16 36 2116
1.140939 -1.701699 0.29559949 347 15334680 149 17 57 2070
1.2086248 -1.6674621 0.27727315 307 15334680 133 18 89 2078
1.2293987 -1.5717661 0.24950296 291 15334680 118 19 75 2011
1.1533 -1.864171 0.25615329 324 15334680 158 20 106 2207
1.2112513 -1.8071826 0.23303741 374 15334680 179 21 94 2188
1.2520944 -1.7291486 0.2081603 336 15334680 155 22 74 2145
1.3007911 -1.6648957 0.18629552 337 15334680 152 23 129 2121
1.1555108 -1.8685461 0.17591487 438 15334680 213 24 84 2204
1.2507743 -1.8672076 0.15845579 357 15334680 181 25 85 2253
1.2913508 -1.7834929 0.13417348 397 15334680 193 26 131 2206
1.3510429 -1.7313299 0.11305539 328 15334680 159 27 112 2199
1.1498495 -1.8614244 0.095106408 493 15334680 237 28 101 2190
1.2569542 -1.8778507 0.07658089 412 15334680 211 29 60 2261
1.3449514 -1.8612112 0.056641731 490 15334680 259 30 69 2297
1.4030777 -1.7993708 0.034091856 376 15334680 196 31 121 2282
1.1413511 -1.8478832 0.015163299 388 15334680 183 32 104 2172
1.2397488 -1.8536156 -0.0056435163 388 15334680 193 33 99 2230
1.3321548 -1.8439771 -0.027158424 368 15334680 191 34 104 2275
1.410349 -1.8111064 -0.049245644 54 15334680 29 35 75 2296
1.140498 -1.8485218 -0.064502664 398 15334680 188 36 144 2173
1.22191 -1.8298451 -0.086066097 391 15334680 190 37 77 2202
1.3503623 -1.8708305 -0.11231948 151 15334680 81 38 112 2310
1.4261128 -1.8312836 -0.13501118 168 15334680 91 39 81 2325
1.127628 -1.8308784 -0.14270768 466 15334680 216 40 134 2155
1.2273744 -1.8398355 -0.16757669 181 15334680 89 41 104 2218
1.2730917 -1.7648159 -0.18579097 30 15334680 14 42 135 2184
1.3490188 -1.7342215 -0.20850235 25 15334680 12 43 70 2207
1.1756315 -1.9103128 -0.23156229 193 15334680 98 44 110 2255
1.172816 -1.7595819 -0.23823932 26 15334680 12 45 64 2128
1.25112 -1.7362731 -0.26151776 435 15334680 202 46 135 2156
1.3673375 -1.7586573 -0.29414776 354 15334680 179 47 118 2247
1.1237215 -1.8293945 -0.30131513 246 15334680 116 48 86 2168
1.1784658 -1.7697312 -0.31901491 288 15334680 133 49 73 2150
1.2846817 -1.7848186 -0.3514888 371 15334680 184 50 56 2227
1.3810518 -1.7773206 -0.38199019 381 15334680 199 51 79 2283
1.0388438 -1.6945958 -0.35427359 69 15334680 28 52 111 2019
1.178431 -1.7716221 -0.39985168 434 15334680 203 53 99 2165
1.2791437 -1.7783028 -0.43326652 396 15334680 198 54 94 2233
1.3660208 -1.7579135 -0.46346995 412 15334680 213 55 65 2274
1.0859113 -1.7735962 -0.45115113 321 15334680 145 56 108 2128
1.1824886 -1.779742 -0.4844805 398 15334680 191 57 102 2191
1.2764078 -1.7752182 -0.5180667 380 15334680 192 58 95 2247
1.3548923 -1.7439064 -0.5465188 53 15334680 28 59 69 2275
1.0601035 -1.7360002 -0.52200031 429 15334680 189 60 39 2100
1.1679456 -1.7610526 -0.56352973 421 15334680 201 61 47 2187
1.229421 -1.710562 -0.58403605 368 15334680 176 62 65 2186
1.3618591 -1.7513589 -0.63997108 348 15334680 185 63 47 2309
1.1515325 -1.8905823 0.6909647 304 15433270 164 0 79 2319
1.1246889 -1.6974728 0.61117727 111 15433270 50 1 79 2126
1.1776063 -1.6400733 0.58464235 38 15433270 17 2 57 2102
1.2070084 -1.5539857 0.54964358 78 15433270 32 3 45 2043
1.0087345 -1.6542518 0.52340752 473 15433270 190 4 12 2007
0.97077388 -1.4665611 0.45638335 344 15433270 114 5 1 1817
1.1256381 -1.5689675 0.48102018 179 15433270 71 6 96 1990
1.2208596 -1.5751073 0.47638199 112 15433270 47 7 60 2049
0.99721253 -1.6346505 0.44126025 346 15433270 134 8 25 1965
1.0350933 -1.5624257 0.41227338 330 15433270 122 9 13 1919
1.0768572 -1.5026902 0.38810012 330 15433270 118 10 38 1889
1.2252507 -1.5836248 0.400821 298 15433270 124 11 35 2042
1.0410876 -1.7059686 0.38344896 327 15433270 136 12 70 2035
1.0910648 -1.6482862 0.35890317 336 15433270 136 13 16 2009
1.1289335 -1.5759985 0.3329075 297 15433270 115 14 92 1967
1.1527131 -1.4906229 0.30590385 353 15433270 129 15 67 1909
1.09556 -1.7952996 0.32408565 367 15433270 166 16 47 2128
1.1370295 -1.7185729 0.29731309 326 15433270 142 17 70 2082
1.1914504 -1.6651747 0.27567196 315 15433270 135 18 78 2066
1.2415665 -1.6075515 0.25396943 301 15433270 126 19 98 2047
1.1480485 -1.8813868 0.25754607 328 15433270 162 20 118 2219
1.2133039 -1.8344846 0.23559357 420 15433270 206 21 106 2212
1.2622966 -1.7659476 0.21165387 337 15433270 161 22 74 2181
1.2905511 -1.6728458 0.18629552 327 15433270 147 23 143 2121
1.1315663 -1.8551772 0.17399928 439 15433270 209 24 79 2180
1.2260923 -1.8548754 0.15676785 529 15433270 263 25 88 2229
1.2873482 -1.8011276 0.13490336 414 15433270 203 26 144 2218
1.3623378 -1.768066 0.11490622 339 15433270 169 27 122 2235
1.1259308 -1.8479687 0.094064154 477 15433270 224 28 72 2166
1.2321885 -1.8655132 0.075768001 388 15433270 194 29 57 2237
1.3265393 -1.8596623 0.056345824 383 15433270 200 30 42 2285
1.4066504 -1.8269602 0.034450401 375 15433270 200 31 89 2306
1.1362342 -1.8650993 0.015247073 356 15433270 170 32 101 2184
1.215132 -1.8411571 -0.0055827787 406 15433270 198 33 90 2206
1.3208152 -1.8521163 -0.027158424 401 15433270 208 34 129 2275
1.369958 -1.7816832 -0.048216123 114 15433270 58 35 69 2248
1.1291342 -1.8554851 -0.064502664 401 15433270 189 36 143 2173
1.2106593 -1.8373082 -0.086066097 389 15433270 189 37 73 2202
1.3179923 -1.8497965 -0.11056904 335 15433270 173 38 121 2274
1.3564298 -1.7640254 -0.12943654 116 15433270 58 39 71 2229
1.0977232 -1.8070625 -0.1403237 440 15433270 198 40 103 2119
1.2160623 -1.8473319 -0.16757669 349 15433270 172 41 141 2218
1.3454636 -1.8894687 -0.19804093 42 15433270 23 42 121 2328
1.3456295 -1.7519405 -0.20963603 29 15433270 15 43 63 2219
1.1081452 -1.8256549 -0.22047193 446 15433270 206 44 96 2147
1.2471814 -1.8962623 -0.25570425 116 15433270 61 45 58 2284
1.2887716 -1.8118618 -0.27170676 235 15433270 118 46 108 2240
1.3782539 -1.7953238 -0.29886037 249 15433270 130 47 123 2283
1.0940025 -1.8057637 -0.29631174 312 15433270 142 48 92 2132
1.2197187 -1.8562707 -0.33325928 205 15433270 104 49 80 2246
1.3080224 -1.8409661 -0.36095867 242 15433270 127 50 66 2287
1.3629187 -1.7763748 -0.37998238 405 15433270 209 51 82 2271
1.0284264 -1.7009381 -0.35427359 44 15433270 18 52 78 2019
1.1804811 -1.7985383 -0.40428421 293 15433270 141 53 85 2189
1.261393 -1.7765197 -0.43093821 472 15433270 233 54 81 2221
1.3552088 -1.7662621 -0.46346995 410 15433270 212 55 69 2274
1.0689462 -1.770187 -0.44860709 287 15433270 128 56 115 2116
1.1651294 -1.7771769 -0.48182702 397 15433270 189 57 93 2179
1.238458 -1.7449281 -0.50699985 392 15433270 190 58 65 2199
1.3796169 -1.7983985 -0.56093252 107 15433270 59 59 69 2335
1.0614252 -1.7623861 -0.52796596 465 15433270 210 60 46 2124
1.1380708 -1.73908 -0.55425352 427 15433270 197 61 56 2151
1.2322843 -1.736936 -0.59044814 389 15433270 190 62 77 2210
1.3440658 -1.750537 -0.63664514 303 15433270 160 63 66 2297
1.1458091 -1.907432 0.69454026 334 15530450 182 0 84 2331
1.246327 -1.9063616 0.68362159 271 15530450 153 1 98 2378
1.1875166 -1.6754801 0.59465522 52 15530450 24 2 52 2138
1.1622832 -1.5155076 0.53350133 187 15530450 73 3 48 1983
0.99259466 -1.6504824 0.52027798 479 15530450 191 4 16 1995
0.96810871 -1.4822149 0.45939746 356 15530450 119 5 1 1829
1.0352349 -1.4618137 0.44621268 359 15530450 122 6 89 1846
1.211172 -1.5825688 0.47638199 88 15530450 37 7 66 2049
0.9931922 -1.6507583 0.44395494 327 15530450 128 8 53 1977
1.0318996 -1.5785573 0.41485143 344 15530450 128 9 33 1931
1.087963 -1.5380327 0.39549643 335 15530450 124 10 48 1925
1.1869385 -1.5537117 0.39139915 247 15530450 98 11 38 1994
1.0366777 -1.7224218 0.38571009 326 15530450 137 12 64 2047
1.0680175 -1.6351795 0.35461563 328 15530450 129 13 35 1985
1.1260701 -1.5925525 0.33493844 291 15530450 114 14 105 1979
1.143545 -1.4976678 0.30590385 379 15530450 138 15 57 1909
1.0784079 -1.7918267 0.32225811 367 15530450 164 16 53 2116
1.1329558 -1.7354627 0.29902673 339 15530450 149 17 95 2094
1.1880715 -1.6821682 0.27727315 357 15530450 154 18 59 2078
1.2316793 -1.6151394 0.25396943 284 15530450 119 19 77 2047
1.1180451 -1.8577592 0.25336778 544 15530450 259 20 108 2183
1.2150668 -1.8618791 0.23814973 402 15530450 201 21 120 2236
1.2514372 -1.7736597 0.21165387 347 15530450 165 22 104 2181
1.2730192 -1.671224 0.18524152 346 15530450 154 23 143 2109
1.1201618 -1.8620853 0.17399928 430 15530450 205 24 72 2180
1.2146879 -1.8623637 0.15676785 444 15530450 221 25 106 2229
1.2762724 -1.8089927 0.13490336 369 15530450 181 26 128 2218
1.3369513 -1.7573167 0.11367233 343 15530450 168 27 98 2211
1.1083957 -1.8445663 0.093543015 480 15530450 223 28 79 2154
1.2207187 -1.8730386 0.075768001 384 15530450 192 29 74 2237
1.3151037 -1.8677669 0.056345824 382 15530450 199 30 54 2285
1.380891 -1.8164532 0.034091856 360 15530450 188 31 85 2282
1.1247687 -1.872036 0.015247073 387 15530450 185 32 103 2184
1.1972636 -1.8385226 -0.0055524101 401 15530450 193 33 92 2194
1.3025191 -1.8503739 -0.02701517 375 15530450 192 34 88 2263
1.3372366 -1.7613891 -0.047443978 184 15530450 90 35 96 2212
1.0930381 -1.8212397 -0.063077837 396 15530450 179 36 125 2125
1.1797549 -1.8145435 -0.084659018 389 15530450 182 37 56 2166
1.2928271 -1.8382407 -0.10940208 408 15530450 206 38 159 2250
1.265896 -1.6673598 -0.12177138 125 15530450 55 39 64 2097
1.0927682 -1.8240353 -0.14111835 433 15530450 197 40 100 2131
1.1786332 -1.8146197 -0.16395013 374 15530450 176 41 115 2170
1.2994673 -1.8487792 -0.19293679 36 15530450 18 42 137 2268
1.3131983 -1.731608 -0.20623501 43 15530450 21 43 63 2183
1.1030533 -1.8426617 -0.22170421 459 15530450 214 44 124 2159
1.1900831 -1.833859 -0.24630006 239 15530450 116 45 78 2200
1.3118523 -1.8684784 -0.27898464 244 15530450 129 46 135 2300
1.3600258 -1.794266 -0.29728952 220 15530450 113 47 131 2271
1.088997 -1.8226436 -0.2979795 289 15530450 133 48 97 2144
1.1695713 -1.8039745 -0.32257599 46 15530450 22 49 70 2174
1.2490748 -1.7810463 -0.34770086 266 15530450 129 50 60 2203
1.3448495 -1.7752737 -0.37797454 401 15530450 205 51 73 2259
1.0482219 -1.7579509 -0.36480176 39 15530450 17 52 88 2079
1.1501911 -1.7760507 -0.3976354 284 15530450 132 53 101 2153
1.2572248 -1.7938659 -0.43326652 438 15530450 219 54 83 2233
1.3372514 -1.7651798 -0.46102417 414 15530450 212 55 69 2262
1.0640647 -1.7867885 -0.45115113 331 15530450 150 56 111 2128
1.1478466 -1.7744662 -0.47917351 399 15530450 187 57 84 2167
1.2344279 -1.7620578 -0.50976658 384 15530450 188 58 94 2211
1.3193234 -1.7418305 -0.54075336 396 15530450 201 59 77 2251
1.056527 -1.7788594 -0.53094888 424 15530450 194 60 59 2136
1.1273786 -1.7460302 -0.55425352 437 15530450 202 61 43 2151
1.2348698 -1.763409 -0.59686029 393 15530450 196 62 69 2234
1.3402647 -1.7679391 -0.63997108 102 15530450 54 63 51 2309
1.1340837 -1.9144267 0.69454026 309 15627160 168 0 77 2331
1.2408366 -1.9236314 0.68707132 323 15627160 185 1 106 2390
1.1441768 -1.6355115 0.57796711 50 15627160 21 2 45 2078
1.0901687 -1.4396849 0.50444531 365 15627160 128 3 19 1875
0.97653931 -1.6465775 0.51714849 525 15627160 206 4 9 1983
0.97157961 -1.5076542 0.46542561 346 15627160 119 5 1 1853
1.0262458 -1.4681382 0.44621268 394 15627160 134 6 93 1846
1.1944026 -1.580659 0.4735921 86 15627160 36 7 66 2037
0.97707772 -1.6467648 0.44126025 325 15627160 125 8 24 1965
0.99678504 -1.5454633 0.40453923 336 15627160 119 9 10 1883
1.0583359 -1.5157918 0.38810012 337 15627160 120 10 56 1889
1.1348695 -1.5046015 0.37726638 328 15627160 121 11 26 1922
1.0321046 -1.7388846 0.38797119 348 15627160 148 12 85 2059
1.0771514 -1.6714759 0.36104697 313 15627160 128 13 50 2021
1.1095085 -1.5897336 0.3329075 281 15627160 109 14 102 1967
1.1628557 -1.5424895 0.31359553 344 15627160 132 15 61 1957
1.0613399 -1.788211 0.32043055 349 15627160 154 16 46 2104
1.1222858 -1.7423817 0.29902673 338 15627160 148 17 82 2094
1.1913297 -1.7089386 0.28047553 308 15627160 136 18 84 2102
1.2647189 -1.6797411 0.26290241 287 15627160 129 19 86 2119
1.1187913 -1.8850837 0.25615329 434 15627160 212 20 91 2207
1.1842411 -1.8392035 0.23431547 398 15627160 193 21 91 2200
1.2541817 -1.8009068 0.21398295 378 15627160 184 22 75 2205
1.2771105 -1.6981103 0.18734953 343 15627160 156 23 142 2133
1.1209213 -1.8894988 0.17591487 418 15627160 203 24 91 2204
1.1967601 -1.8597156 0.15592387 413 15627160 203 25 99 2217
1.285683 -1.8462777 0.13709295 366 15627160 186 26 122 2254
1.347736 -1.794233 0.11552317 383 15627160 193 27 116 2247
1.0909451 -1.8410189 0.093021892 453 15627160 208 28 64 2142
1.209203 -1.8804936 0.075768001 378 15627160 189 29 45 2237
1.2967724 -1.8659499 0.056049913 376 15627160 195 30 62 2273
1.3769222 -1.8344883 0.034271128 370 15627160 195 31 86 2294
1.1010274 -1.858255 0.015079523 367 15627160 171 32 110 2160
1.1794736 -1.8357387 -0.0055220416 392 15627160 187 33 98 2182
1.2911409 -1.8583311 -0.02701517 361 15627160 185 34 113 2263
1.4055563 -1.8751588 -0.050275173 105 15627160 58 35 77 2344
1.118498 -1.8898462 -0.065215066 374 15627160 180 36 155 2197
1.1815473 -1.8419336 -0.085597068 373 15627160 179 37 70 2190
1.2746888 -1.8362929 -0.10881861 403 15627160 202 38 176 2238
1.2771975 -1.7038528 -0.12386188 149 15627160 68 39 66 2133
1.0754652 -1.8203971 -0.1403237 451 15627160 203 40 105 2119
1.1610206 -1.8117428 -0.16304348 402 15627160 187 41 93 2158
1.2812836 -1.8468938 -0.19191596 79 15627160 40 42 132 2256
1.36699 -1.8256984 -0.21643811 27 15627160 14 43 52 2291
1.0795902 -1.8288368 -0.21923967 427 15627160 195 44 113 2135
1.1723785 -1.8310843 -0.24495661 258 15627160 124 45 70 2188
1.2732248 -1.8373311 -0.27316234 177 15627160 90 46 94 2252
1.3561188 -1.812102 -0.29886037 214 15627160 112 47 117 2283
1.0476309 -1.7780985 -0.28964055 364 15627160 158 48 102 2084
1.1009293 -1.7211442 -0.30655104 51 15627160 22 49 52 2066
1.2516114 -1.808163 -0.3514888 237 15627160 117 50 55 2227
1.3339312 -1.7834921 -0.37797454 388 15627160 198 51 91 2259
1.0254397 -1.743982 -0.36059049 54 15627160 23 52 94 2055
1.1456217 -1.793013 -0.39985168 274 15627160 129 53 77 2165
1.2261033 -1.7725022 -0.42628148 362 15627160 175 54 93 2197
1.3123221 -1.7545365 -0.45613268 399 15627160 200 55 86 2238
1.0352659 -1.7629462 -0.44351888 316 15627160 138 56 100 2092
1.136937 -1.7814758 -0.47917351 409 15627160 192 57 84 2167
1.2235929 -1.769599 -0.50976658 420 15627160 205 58 83 2211
1.3016347 -1.7405642 -0.53787059 420 15627160 211 59 72 2239
1.039718 -1.7752787 -0.52796596 458 15627160 206 60 49 2124
1.1353325 -1.7822523 -0.56352973 427 15627160 204 61 62 2187
1.2174516 -1.76144 -0.59365422 401 15627160 198 62 56 2222
1.2879381 -1.7207457 -0.62001526 27 15627160 13 63 50 2237
1.0876496 -1.8620025 0.67308724 89 15725150 46 0 92 2259
1.1426194 -1.7954587 0.63877511 484 15725150 239 1 81 2222
1.1079228 -1.604561 0.56461656 59 15725150 24 2 52 2030
1.108996 -1.4833734 0.51735914 152 15725150 56 3 36 1923
0.9488731 -1.6225379 0.50776005 524 15725150 199 4 1 1947
0.98723823 -1.5527953 0.47748199 342 15725150 124 5 6 1901
1.0039933 -1.4552387 0.44041145 390 15725150 130 6 92 1822
1.1846813 -1.587958 0.4735921 81 15725150 33 7 55 2037
0.96695501 -1.6527289 0.44126025 327 15725150 126 8 28 1965
1.0061588 -1.5812137 0.41227338 343 15725150 126 9 32 1919
1.069007 -1.5512679 0.39549643 355 15725150 131 10 53 1925
1.0975049 -1.4737875 0.36784452 395 15725150 139 11 24 1874
1.0333215 -1.7655269 0.39249349 372 15725150 162 12 76 2083
1.0858793 -1.7079448 0.36747828 332 15725150 140 13 22 2057
1.1198605 -1.6257308 0.33900034 311 15725150 125 14 91 2003
1.1392248 -1.5305918 0.30974969 322 15725150 120 15 66 1933
1.0563382 -1.8049254 0.32225811 366 15725150 164 16 59 2116
1.137054 -1.7893323 0.30588123 373 15725150 171 17 89 2142
1.153857 -1.6770259 0.27407077 332 15725150 140 18 78 2054
1.2188699 -1.6396885 0.25545827 322 15725150 137 19 80 2059
1.1132238 -1.9021999 0.25754607 399 15725150 197 20 116 2219
1.1921271 -1.8766496 0.23814973 344 15725150 172 21 102 2236
1.2363427 -1.7987258 0.21281841 404 15725150 194 22 86 2193
1.2595408 -1.6963172 0.18629552 357 15725150 161 23 129 2121
1.0911871 -1.8653666 0.17304151 442 15725150 208 24 110 2168
1.1853265 -1.8670238 0.15592387 469 15725150 231 25 106 2217
1.2539772 -1.8245183 0.13490336 342 15725150 168 26 133 2218
1.3367014 -1.8024688 0.11552317 389 15725150 196 27 122 2247
1.0856766 -1.8580291 0.093543015 475 15725150 221 28 83 2154
1.1976417 -1.8878778 0.075768001 370 15725150 185 29 68 2237
1.2852987 -1.8738716 0.056049913 369 15725150 191 30 76 2273
1.3584963 -1.8332621 0.034091856 511 15725150 266 31 86 2282
1.0956581 -1.8753369 0.015163299 372 15725150 176 32 96 2172
1.1746119 -1.8530763 -0.0055524101 402 15725150 194 33 99 2194
1.2797141 -1.8662184 -0.02701517 354 15725150 181 34 85 2263
1.3654774 -1.8451726 -0.049245644 165 15725150 87 35 84 2296
1.0887437 -1.8655946 -0.064146452 387 15725150 181 36 152 2161
1.1573988 -1.8288842 -0.084659018 356 15725150 167 37 87 2166
1.2633976 -1.8440796 -0.10881861 392 15725150 196 38 150 2238
1.2738453 -1.7212871 -0.12455872 164 15725150 76 39 91 2145
1.058248 -1.8166156 -0.13952903 397 15725150 176 40 118 2107
1.1562763 -1.8289466 -0.16395013 367 15725150 173 41 119 2170
1.2766821 -1.8645865 -0.19293679 241 15725150 124 42 179 2268
1.3912686 -1.8820844 -0.2221065 17 15725150 10 43 68 2351
1.0623436 -1.8251106 -0.21800743 457 15725150 206 44 118 2123
1.154753 -1.8281616 -0.24361315 285 15725150 135 45 79 2176
1.2148572 -1.776286 -0.26297334 60 15725150 28 46 95 2168
1.323766 -1.7916838 -0.29414776 212 15725150 107 47 145 2247
1.0784874 -1.856421 -0.30131513 265 15725150 125 48 90 2168
1.1410127 -1.8081552 -0.32079548 27 15725150 13 49 58 2162
1.2404931 -1.8158088 -0.3514888 256 15725150 127 50 58 2227
1.3229629 -1.7916434 -0.37797454 400 15725150 204 51 64 2259
1.0917494 -1.8831062 -0.3879638 101 15725150 50 52 79 2211
1.140887 -1.8099854 -0.40206793 255 15725150 121 53 89 2177
1.2152044 -1.779992 -0.42628148 424 15725150 205 54 91 2197
1.3015318 -1.7625557 -0.45613268 392 15725150 197 55 72 2238
1.0303055 -1.7794142 -0.44606298 257 15725150 114 56 99 2104
1.1197495 -1.778515 -0.47652009 395 15725150 184 57 76 2155
1.2061298 -1.7674285 -0.50699985 392 15725150 190 58 67 2199
1.2909303 -1.7485181 -0.53787059 437 15725150 219 59 84 2239
1.0288056 -1.7816249 -0.52796596 433 15725150 195 60 32 2124
1.1058671 -1.7597334 -0.55425352 410 15725150 190 61 41 2151
1.1935879 -1.7497712 -0.58724213 393 15725150 190 62 85 2198
1.2088341 -1.6358874 -0.58675563 31 15725150 14 63 54 2117
1.0990716 -1.9083468 0.68738925 75 15822310 40 0 82 2307
1.1499146 -1.8316382 0.64912432 391 15822310 200 1 94 2258
1.0656017 -1.5637033 0.54792839 123 15822310 48 2 56 1970
1.1616448 -1.5738404 0.54641521 64 15822310 26 3 45 2031
0.94468629 -1.6383654 0.51088953 386 15822310 148 4 20 1959
0.94683355 -1.5096235 0.46241152 364 15822310 123 5 1 1841
1.0147058 -1.4902462 0.44911331 342 15822310 118 6 73 1858
1.167994 -1.5857997 0.47080213 100 15822310 41 7 57 2025
1.0093831 -1.7497925 0.46551272 302 15822310 130 8 77 2073
1.0151306 -1.6171359 0.42000753 307 15822310 117 9 34 1955
1.0462596 -1.5383761 0.39056557 333 15822310 121 10 59 1901
1.0814716 -1.4710138 0.36548907 402 15822310 139 11 40 1862
1.0165786 -1.7616266 0.39023232 338 15822310 145 12 92 2071
1.0753791 -1.7145755 0.36747828 347 15822310 147 13 43 2057
1.1298118 -1.6619138 0.34509319 307 15822310 128 14 115 2039
1.1718948 -1.5948237 0.32128718 320 15822310 129 15 60 2005
1.0748818 -1.8627352 0.33139586 360 15822310 170 16 48 2176
1.1197449 -1.7862121 0.3041676 420 15822310 191 17 89 2130
1.156907 -1.7037518 0.27727315 358 15822310 155 18 83 2078
1.215831 -1.6567361 0.2569471 331 15822310 142 19 79 2071
1.0955743 -1.898671 0.25615329 471 15822310 230 20 81 2207
1.1552463 -1.843487 0.23303741 359 15822310 172 21 104 2188
1.2319874 -1.816162 0.21398295 413 15822310 201 22 78 2205
1.2773771 -1.742577 0.19051155 344 15822310 162 23 163 2169
1.0916735 -1.8927503 0.17495708 434 15822310 209 24 79 2192
1.1547872 -1.8438271 0.15339194 437 15822310 208 25 91 2181
1.2696532 -1.8718284 0.13782281 477 15822310 245 26 139 2266
1.3326958 -1.8203062 0.11614011 404 15822310 206 27 98 2259
1.0742555 -1.8646557 0.093543015 442 15822310 205 28 57 2154
1.1796732 -1.8850245 0.075361557 367 15822310 181 29 51 2225
1.2805014 -1.8916571 0.056345824 385 15822310 201 30 57 2285
1.3330532 -1.8221953 0.033733308 454 15822310 232 31 82 2258
1.0781409 -1.8716264 0.015079523 365 15822310 170 32 109 2160
1.144133 -1.829725 -0.005461304 375 15822310 175 33 80 2158
1.2480638 -1.8442231 -0.026585411 341 15822310 169 34 114 2227
1.3258207 -1.814767 -0.048216123 386 15822310 195 35 93 2248
1.0712941 -1.8618436 -0.063790254 376 15822310 174 36 128 2149
1.1461552 -1.8359514 -0.084659018 369 15822310 173 37 77 2166
1.2453452 -1.8418677 -0.10823513 387 15822310 192 38 140 2226
1.2844611 -1.75809 -0.1266492 64 15822310 31 39 96 2181
1.0351548 -1.8023088 -0.13793972 412 15822310 179 40 93 2083
1.1387002 -1.8258539 -0.16304348 374 15822310 174 41 104 2158
1.2451344 -1.8426646 -0.18987431 223 15822310 111 42 138 2232
1.3374406 -1.8326859 -0.21530442 20 15822310 10 43 47 2279
1.0451835 -1.8212416 -0.21677516 422 15822310 188 44 104 2111
1.1498201 -1.8453333 -0.24495661 205 15822310 98 45 82 2188
1.1572882 -1.7145963 -0.25278434 34 15822310 15 46 108 2084
1.2987261 -1.7805492 -0.29100597 248 15822310 122 47 157 2223
1.06117 -1.8526917 -0.29964733 268 15822310 125 48 91 2156
1.1737962 -1.8856449 -0.33325928 46 15822310 23 49 54 2246
1.21608 -1.8037359 -0.34770086 238 15822310 116 50 72 2203
1.2910371 -1.7710463 -0.37195104 410 15822310 203 51 68 2223
1.0274115 -1.7974607 -0.36901307 340 15822310 151 52 79 2103
1.1422147 -1.8369826 -0.40650049 273 15822310 132 53 109 2201
1.1976821 -1.7776521 -0.42395318 395 15822310 189 54 107 2185
1.2906924 -1.7705085 -0.45613268 414 15822310 208 55 59 2238
1.013554 -1.7755178 -0.44351888 76 15822310 33 56 106 2092
1.11499 -1.7952937 -0.47917351 417 15822310 196 57 68 2167
1.1756947 -1.7457405 -0.49869969 408 15822310 191 58 73 2163
1.2801772 -1.7564062 -0.53787059 430 15822310 216 59 92 2239
1.0063533 -1.7677017 -0.52200031 437 15822310 193 60 41 2100
1.0828308 -1.7467761 -0.54806936 418 15822310 189 61 50 2127
1.1699135 -1.7378765 -0.58082998 377 15822310 178 62 69 2174
1.1783884 -1.6153296 -0.57677776 35 15822310 15 63 39 2081
1.019471 -1.7955192 0.64448327 196 15919380 92 0 76 2163
1.1749622 -1.8972882 0.66982269 359 15919380 195 1 99 2330
1.0045276 -1.4936943 0.5212273 311 15919380 109 2 57 1874
1.1451596 -1.5715976 0.54318672 66 15919380 27 3 40 2019
0.9861412 -1.7347723 0.53905493 313 15919380 134 4 54 2067
0.99255329 -1.6043041 0.48953834 374 15919380 142 5 1 1949
0.99904835 -1.4867793 0.44621268 311 15919380 106 6 93 1846
1.151378 -1.5834969 0.46801218 153 15919380 62 7 83 2013
1.0275314 -1.8067764 0.47898629 334 15919380 152 8 73 2133
1.011359 -1.6332985 0.42258561 327 15919380 126 9 36 1967
1.0564349 -1.5740206 0.39796185 363 15919380 136 10 68 1937
1.0931596 -1.5061903 0.37255546 386 15919380 139 11 21 1898
1.0057503 -1.767831 0.39023232 343 15919380 147 12 90 2071
1.0834744 -1.7512636 0.37390959 354 15919380 155 13 39 2093
1.1130042 -1.6589936 0.34306228 319 15919380 131 14 102 2027
1.1481768 -1.5828084 0.31744134 343 15919380 134 15 40 1981
1.0810256 -1.9002213 0.33687851 374 15919380 183 16 71 2212
1.1212569 -1.8132524 0.30759484 427 15919380 198 17 93 2154
1.1729128 -1.7503369 0.28367794 355 15919380 161 18 84 2126
1.2126285 -1.6738079 0.25843593 326 15919380 142 19 105 2083
1.0721167 -1.8846378 0.25336778 441 15919380 210 20 107 2183
1.1627343 -1.8809885 0.23687166 447 15919380 221 21 116 2224
1.2141764 -1.8137622 0.21281841 463 15919380 223 22 87 2193
1.2666608 -1.7503821 0.19051155 358 15919380 168 23 154 2169
1.0682141 -1.8786166 0.17304151 396 15919380 186 24 73 2168
1.1371607 -1.8406945 0.15254799 418 15919380 197 25 82 2169
1.2514813 -1.8696301 0.13709295 442 15919380 224 26 125 2254
1.3144817 -1.8187364 0.11552317 397 15919380 200 27 112 2247
1.062794 -1.8712121 0.093543015 452 15919380 210 28 64 2154
1.1491853 -1.8616116 0.074142225 404 15919380 193 29 48 2189
1.255543 -1.8795278 0.05575401 376 15919380 192 30 63 2261
1.3218474 -1.8303405 0.033733308 398 15919380 203 31 103 2258
1.0607107 -1.867772 0.014995747 376 15919380 174 32 90 2148
1.1454839 -1.8571378 -0.0055220416 366 15919380 174 33 113 2182
1.2367244 -1.8518463 -0.026585411 385 15919380 191 34 91 2227
1.3216783 -1.8325984 -0.0484735 354 15919380 181 35 101 2260
1.0539316 -1.8579488 -0.063434049 381 15919380 174 36 142 2137
1.1348684 -1.8429495 -0.084659018 377 15919380 177 37 95 2166
1.2273679 -1.839504 -0.10765164 380 15919380 186 38 166 2214
1.3367188 -1.853385 -0.13292068 201 15919380 105 39 54 2289
1.0358758 -1.8294652 -0.13952903 427 15919380 190 40 104 2107
1.1212062 -1.8226149 -0.16213685 376 15919380 173 41 103 2146
1.2271712 -1.8403221 -0.18885347 238 15919380 117 42 166 2220
1.2353926 -1.7148492 -0.20056662 19 15919380 8 43 52 2123
1.0281113 -1.8172315 -0.21554291 439 15919380 194 44 89 2099
1.1322317 -1.8421944 -0.24361315 250 15919380 119 45 82 2176
1.199571 -1.8009739 -0.26442891 26 15919380 12 46 99 2180
1.2877764 -1.7884845 -0.29100597 214 15919380 106 47 146 2223
1.0205674 -1.8074287 -0.29130834 298 15919380 131 48 86 2096
1.174623 -1.9130378 -0.33682039 76 15919380 39 49 46 2270
1.2049896 -1.8111637 -0.34770086 288 15919380 140 50 53 2203
1.2801459 -1.7789346 -0.37195104 371 15919380 183 51 83 2223
1.0163631 -1.8037308 -0.36901307 333 15919380 147 52 94 2103
1.075429 -1.753476 -0.38655406 253 15919380 111 53 85 2093
1.1802344 -1.7751644 -0.42162481 405 15919380 191 54 92 2173
1.2866668 -1.7879303 -0.45857841 409 15919380 207 55 67 2250
1.0371482 -1.843024 -0.45878339 47 15919380 22 56 116 2164
1.0856135 -1.7721633 -0.4712131 391 15919380 178 57 71 2131
1.1843499 -1.7820965 -0.50699985 453 15919380 219 58 79 2199
1.2625728 -1.7547727 -0.53498787 448 15919380 222 59 98 2227
0.99548787 -1.7738433 -0.52200031 304 15919380 134 60 59 2100
1.0781409 -1.7632796 -0.55116147 442 15919380 202 61 51 2139
1.1720256 -1.7642866 -0.58724213 409 15919380 198 62 80 2198
1.3234251 -1.8377234 -0.65327495 87 15919380 48 63 55 2357
0.94129902 -1.6817913 0.60157734 462 16016240 188 0 1 2019
1.1632985 -1.9044619 0.66982269 359 16016240 195 1 102 2330
1.0017171 -1.5094339 0.52456492 215 16016240 76 2 53 1886
1.1422439 -1.5879771 0.54641521 71 16016240 29 3 43 2031
0.98114139 -1.7508966 0.54218441 316 16016240 136 4 54 2079
1.0129429 -1.6599392 0.50460875 472 16016240 190 5 3 2009
0.98347193 -1.4831769 0.44331208 310 16016240 104 6 85 1834
1.0531673 -1.4672716 0.431743 368 16016240 127 7 78 1857
1.039299 -1.853847 0.48976514 336 16016240 160 8 101 2181
1.0074269 -1.6494752 0.42516363 331 16016240 130 9 42 1979
1.0402721 -1.5706819 0.39549643 325 16016240 120 10 48 1925
1.0701914 -1.4937394 0.36784452 355 16016240 125 11 26 1874
1.0064135 -1.7945267 0.39475456 355 16016240 156 12 110 2095
1.0604079 -1.7377214 0.36962202 350 16016240 150 13 37 2069
1.1093324 -1.6756531 0.34509319 317 16016240 132 14 103 2039
1.1453395 -1.5994542 0.31936428 315 16016240 125 15 69 1993
1.0635445 -1.8964741 0.33505094 419 16016240 203 16 71 2200
1.122479 -1.840378 0.3110221 445 16016240 211 17 98 2178
1.1621509 -1.7575008 0.28367794 372 16016240 168 18 81 2126
1.2231151 -1.710273 0.26290241 342 16016240 154 19 91 2119
1.0663624 -1.9015768 0.25476053 431 16016240 208 20 86 2195
1.1449596 -1.8778999 0.23559357 487 16016240 238 21 120 2212
1.2161903 -1.8411088 0.21514747 409 16016240 201 22 89 2217
1.2489486 -1.7483943 0.18945754 395 16016240 184 23 129 2157
1.056667 -1.8851357 0.17304151 411 16016240 193 24 75 2168
1.1383024 -1.8680815 0.15423593 435 16016240 209 25 115 2193
1.2267828 -1.857285 0.13563322 370 16016240 184 26 145 2230
1.3172177 -1.8462791 0.11675707 355 16016240 183 27 125 2271
1.033722 -1.846316 0.091979623 446 16016240 200 28 70 2118
1.1439781 -1.8788716 0.074548669 378 16016240 183 29 77 2201
1.2373844 -1.8771802 0.055458099 362 16016240 183 30 72 2249
1.3036267 -1.8286464 0.033554032 415 16016240 210 31 85 2246
1.0433687 -1.8637747 0.014911973 366 16016240 167 32 103 2136
1.1278301 -1.8538795 -0.005491673 367 16016240 173 33 104 2170
1.2055306 -1.8293425 -0.026155654 343 16016240 165 34 103 2191
1.289535 -1.8113533 -0.047701363 362 16016240 179 35 93 2224
1.0483657 -1.8748498 -0.063790254 356 16016240 164 36 141 2149
1.1297636 -1.860127 -0.085128047 363 16016240 172 37 81 2178
1.2028756 -1.8269788 -0.1064847 379 16016240 182 38 156 2190
1.3114257 -1.8420339 -0.13152702 148 16016240 76 39 74 2265
1.0187953 -1.8253312 -0.13873437 435 16016240 191 40 97 2095
1.1037947 -1.8192301 -0.16123022 387 16016240 176 41 117 2134
1.2092839 -1.8378291 -0.18783265 223 16016240 109 42 127 2208
1.266387 -1.7808111 -0.20736869 37 16016240 18 43 67 2195
1.0169417 -1.8235056 -0.21554291 424 16016240 187 44 120 2099
1.1332698 -1.8695016 -0.24630006 174 16016240 84 45 85 2200
1.2081244 -1.8381623 -0.26879561 32 16016240 16 46 83 2216
1.2767782 -1.7963525 -0.29100597 215 16016240 106 47 113 2223
1.0383546 -1.8655744 -0.29964733 222 16016240 103 48 73 2156
1.1198317 -1.8491529 -0.32435656 253 16016240 121 49 52 2186
1.1938537 -1.8185232 -0.34770086 252 16016240 122 50 66 2203
1.2760578 -1.796401 -0.37395889 403 16016240 201 51 84 2235
0.98806775 -1.7789501 -0.36269614 341 16016240 146 52 93 2067
1.0768576 -1.7802237 -0.39098659 91 16016240 41 53 96 2117
1.16932 -1.7823728 -0.42162481 395 16016240 187 54 83 2173
1.2620648 -1.7766364 -0.45368692 419 16016240 208 55 82 2226
0.95187008 -1.7160357 -0.42571029 47 16016240 19 56 119 2008
1.0686674 -1.7687746 -0.46855965 369 16016240 166 57 77 2119
1.1669897 -1.7795655 -0.50423312 447 16016240 214 58 89 2187
1.258527 -1.7719837 -0.53787059 420 16016240 211 59 95 2239
0.98458505 -1.7799182 -0.52200031 93 16016240 41 60 49 2100
1.0732889 -1.7797908 -0.55425352 429 16016240 199 61 58 2151
1.1484991 -1.7521023 -0.58082998 435 16016240 206 62 81 2174
1.2653619 -1.7800273 -0.62999314 327 16016240 169 63 62 2273
0.90882921 -1.6474156 0.58727533 467 16113870 181 0 2 1971
1.1515911 -1.9115639 0.66982269 312 16113870 170 1 97 2330
1.1881876 -1.8144836 0.62803161 103 16113870 52 2 51 2258
1.1324787 -1.5949558 0.54641521 92 16113870 38 3 30 2031
0.9759807 -1.7670245 0.54531389 309 16113870 135 4 64 2091
0.99075973 -1.6462194 0.4985806 516 16113870 203 5 1 1985
0.99985385 -1.5281588 0.45491457 320 16113870 113 6 80 1882
1.0239027 -1.4451367 0.42337319 426 16113870 141 7 71 1821
1.0165932 -1.8397194 0.48437572 314 16113870 146 8 92 2157
0.99728692 -1.6556256 0.42516363 319 16113870 125 9 48 1979
1.0370396 -1.5868661 0.39796185 327 16113870 123 10 66 1937
1.0949761 -1.5483123 0.37962186 369 16113870 138 11 36 1934
1.001085 -1.8109822 0.39701572 351 16113870 156 12 98 2107
1.0740788 -1.78466 0.37819713 347 16113870 156 13 73 2117
1.1119661 -1.7022314 0.34915513 321 16113870 137 14 108 2063
1.1423408 -1.6161243 0.32128718 361 16113870 145 15 55 2005
1.0289377 -1.8614451 0.32774079 551 16113870 255 16 68 2152
1.1234096 -1.8675859 0.31444931 453 16113870 220 17 113 2202
1.1643424 -1.7845186 0.28688031 379 16113870 175 18 80 2150
1.2057309 -1.7080179 0.26141357 366 16113870 163 19 106 2107
1.0373769 -1.8767897 0.25058225 439 16113870 205 20 86 2159
1.1272666 -1.8746643 0.23431547 428 16113870 207 21 107 2200
1.2179139 -1.8685479 0.21747655 385 16113870 194 22 85 2241
1.2657509 -1.7951019 0.19367357 396 16113870 192 23 155 2205
1.0508646 -1.9020537 0.17399928 416 16113870 198 24 94 2180
1.1144869 -1.8545107 0.15254799 420 16113870 198 25 97 2169
1.2153636 -1.8647774 0.13563322 382 16113870 190 26 123 2230
1.2989641 -1.8445284 0.11614011 362 16113870 185 27 125 2259
1.0339589 -1.8736171 0.093021892 456 16113870 209 28 51 2142
1.1324281 -1.8858556 0.074548669 365 16113870 177 29 74 2201
1.2323838 -1.8947937 0.05575401 381 16113870 195 30 64 2261
1.2992867 -1.8464237 0.033733308 402 16113870 205 31 106 2258
1.0319132 -1.8701415 0.014911973 366 16113870 167 32 95 2136
1.1226076 -1.8710549 -0.0055220416 371 16113870 177 33 80 2182
1.2139063 -1.8668834 -0.026585411 338 16113870 168 34 115 2227
1.2852943 -1.8290476 -0.047958739 374 16113870 187 35 86 2236
1.0368421 -1.8812472 -0.063790254 380 16113870 175 36 125 2149
1.1121671 -1.8567374 -0.084659018 369 16113870 173 37 71 2166
1.1851134 -1.8242741 -0.10590123 402 16113870 190 38 160 2178
1.3207623 -1.8794507 -0.13361752 159 16113870 84 39 76 2301
1.007576 -1.8315481 -0.13873437 411 16113870 180 40 84 2095
1.1171875 -1.8670402 -0.16485678 387 16113870 184 41 134 2182
1.2565815 -1.9354696 -0.19702011 175 16113870 94 42 142 2316
1.2073922 -1.7201023 -0.19943292 114 16113870 51 43 76 2111
0.99423403 -1.8087901 -0.21307838 423 16113870 182 44 118 2075
1.1278963 -1.8866551 -0.24764352 179 16113870 88 45 70 2212
1.2097849 -1.8655283 -0.27170676 130 16113870 65 46 99 2240
1.2725645 -1.8138919 -0.29257688 240 16113870 120 47 136 2235
1.0326037 -1.8823293 -0.30131513 195 16113870 92 48 82 2168
1.071955 -1.7948587 -0.31367326 396 16113870 177 49 51 2114
1.1633465 -1.7959781 -0.34201896 253 16113870 119 50 46 2167
1.2582192 -1.79451 -0.37195104 376 16113870 186 51 103 2223
0.96578807 -1.7642536 -0.35848483 487 16113870 203 52 84 2043
1.0417459 -1.7462845 -0.3821215 47 16113870 20 53 67 2069
1.1519647 -1.7796317 -0.41929644 340 16113870 159 54 89 2161
1.2376505 -1.7651087 -0.44879544 405 16113870 197 55 66 2202
0.94694811 -1.7321337 -0.42825437 43 16113870 18 56 106 2020
1.069775 -1.7954056 -0.47386658 275 16113870 126 57 89 2143
1.1370188 -1.7572819 -0.49593297 403 16113870 187 58 84 2151
1.2409439 -1.7701342 -0.53498787 443 16113870 220 59 92 2227
0.92357194 -1.6940783 -0.49515456 102 16113870 40 60 34 1992
1.0564215 -1.7763773 -0.55116147 440 16113870 201 61 48 2139
1.1440068 -1.7688264 -0.58403605 399 16113870 191 62 91 2186
1.241171 -1.7688814 -0.62334126 358 16113870 181 63 61 2249
0.89870375 -1.6529611 0.58727533 481 16212080 187 0 1 1971
1.1222289 -1.8889503 0.65947354 320 16212080 169 1 98 2294
1.1019686 -1.7055618 0.58797997 321 16212080 143 2 38 2114
1.1027713 -1.5734808 0.53672981 86 16212080 34 3 45 1995
0.95958132 -1.7628049 0.54218441 335 16212080 145 4 51 2079
0.98064005 -1.6522676 0.4985806 475 16212080 187 5 1 1985
0.99677378 -1.5440477 0.45781517 310 16212080 111 6 96 1894
1.0083275 -1.4418277 0.42058325 408 16212080 134 7 77 1809
1.0108786 -1.856192 0.48707044 339 16212080 160 8 93 2169
0.99908042 -1.6818657 0.43031973 338 16212080 136 9 28 2003
1.0591042 -1.64255 0.41028902 330 16212080 131 10 52 1997
1.0719852 -1.535705 0.37491092 354 16212080 129 11 22 1910
1.0068685 -1.8481374 0.40379909 351 16212080 161 12 106 2143
1.0631081 -1.7912169 0.37819713 356 16212080 160 13 59 2117
1.1079077 -1.7189631 0.35118607 345 16212080 149 14 103 2075
1.1391804 -1.6328175 0.32321012 324 16212080 132 15 76 2017
1.0174967 -1.8677236 0.32774079 435 16212080 202 16 65 2152
1.1119292 -1.8744438 0.31444931 415 16212080 201 17 106 2202
1.1791207 -1.8316286 0.2932851 403 16212080 195 18 87 2198
1.2156496 -1.7446929 0.26588008 332 16212080 153 19 92 2143
1.037245 -1.9040527 0.25336778 438 16212080 209 20 84 2183
1.1279145 -1.902072 0.23687166 431 16212080 213 21 106 2224
1.1999656 -1.8659402 0.21631201 375 16212080 187 22 84 2229
1.2478842 -1.7930232 0.19261955 409 16212080 197 23 132 2193
1.0391741 -1.9084659 0.17399928 418 16212080 199 24 89 2180
1.1091896 -1.8716117 0.15339194 432 16212080 206 25 86 2181
1.2103771 -1.8822744 0.13636309 412 16212080 207 26 146 2242
1.3013017 -1.8721448 0.117374 363 16212080 189 27 109 2283
1.0281711 -1.8904576 0.093543015 453 16212080 210 28 58 2154
1.1269462 -1.9030879 0.074955113 374 16212080 183 29 60 2213
1.2142555 -1.8922235 0.055458099 370 16212080 187 30 51 2249
1.2810882 -1.8445063 0.033554032 422 16212080 213 31 109 2246
1.0204188 -1.876438 0.014911973 384 16212080 175 32 99 2136
1.0927742 -1.8469249 -0.0054309354 355 16212080 164 33 92 2146
1.1894701 -1.8540977 -0.026298905 365 16212080 177 34 91 2203
1.2535349 -1.8073251 -0.047186594 362 16212080 175 35 92 2200
1.0252795 -1.8875737 -0.063790254 351 16212080 162 36 159 2149
1.1007534 -1.8635266 -0.084659018 390 16212080 183 37 79 2166
1.1674298 -1.8214204 -0.10531774 384 16212080 180 38 157 2166
1.2682393 -1.8284575 -0.12943654 337 16212080 168 39 70 2229
0.99631888 -1.837696 -0.13873437 421 16212080 185 40 100 2095
1.0813869 -1.8326384 -0.16123022 389 16212080 177 41 116 2134
1.1672925 -1.8223263 -0.18477017 410 16212080 193 42 144 2172
1.2648484 -1.825677 -0.21076973 50 16212080 25 43 68 2231
1.0001733 -1.8463432 -0.21677516 467 16212080 208 44 87 2111
1.0799634 -1.831906 -0.23958278 423 16212080 194 45 67 2140
1.1405396 -1.7826152 -0.25860664 413 16212080 188 46 108 2132
1.2614108 -1.821666 -0.29257688 219 16212080 109 47 126 2235
0.98147416 -1.815454 -0.28964055 424 16212080 184 48 87 2084
1.0609218 -1.8014023 -0.31367326 311 16212080 139 49 63 2114
1.1523046 -1.8030823 -0.34201896 90 16212080 42 50 68 2167
1.267382 -1.8313818 -0.37797454 191 16212080 98 51 85 2259
0.96616286 -1.7909412 -0.36269614 361 16212080 154 52 96 2067
1.0429709 -1.7729741 -0.38655406 37 16212080 16 53 101 2093
1.1600316 -1.8164306 -0.42628148 251 16212080 121 54 95 2197
1.2134256 -1.7533489 -0.44390392 438 16212080 208 55 66 2178
0.94742656 -1.7585602 -0.43334258 209 16212080 87 56 92 2044
1.0587385 -1.8019359 -0.47386658 278 16212080 128 57 78 2143
1.1324979 -1.7740678 -0.49869969 397 16212080 186 58 68 2163
1.2101752 -1.7489781 -0.52633971 427 16212080 205 59 88 2191
0.92966276 -1.7304311 -0.50410312 107 16212080 44 60 38 2028
1.0279059 -1.7528204 -0.54188526 421 16212080 186 61 42 2103
1.1269116 -1.7660643 -0.58082998 403 16212080 191 62 82 2174
1.2171651 -1.7575065 -0.61668932 392 16212080 194 63 59 2225
0.87772506 -1.6382502 0.58012438 448 16307950 170 0 1 1947
1.0989981 -1.8759668 0.65257406 336 16307950 173 1 89 2270
1.1906146 -1.8678067 0.6413821 184 16307950 98 2 70 2306
1.0536457 -1.5231873 0.51735914 247 16307950 91 3 45 1923
0.96517539 -1.7992857 0.55157286 330 16307950 147 4 55 2115
0.97048348 -1.6582536 0.4985806 374 16307950 147 5 1 1985
0.98728091 -1.5501348 0.45781517 318 16307950 114 6 97 1894
1.0127214 -1.4671979 0.42616311 395 16307950 133 7 81 1833
1.0049996 -1.872663 0.48976514 342 16307950 163 8 90 2181
1.0005891 -1.7081897 0.43547586 341 16307950 140 9 48 2027
1.0427023 -1.6391088 0.40782359 330 16307950 130 10 57 1985
1.0892447 -1.5810119 0.38433278 337 16307950 129 11 39 1958
1.0010841 -1.864664 0.40606022 386 16307950 179 12 115 2155
1.0520973 -1.7977062 0.37819713 371 16307950 167 13 61 2117
1.0973394 -1.7257288 0.35118607 356 16307950 153 14 109 2075
1.1291403 -1.6397766 0.32321012 339 16307950 138 15 57 2017
1.0116272 -1.8843809 0.3295683 431 16307950 202 16 47 2164
1.1064036 -1.8914831 0.31616291 375 16307950 184 17 82 2214
1.1614838 -1.8287898 0.29168388 427 16307950 204 18 96 2186
1.2049215 -1.7521192 0.26588008 359 16307950 165 19 106 2143
1.0142677 -1.8893785 0.25058225 431 16307950 201 20 86 2159
1.0981541 -1.8780565 0.23303741 475 16307950 227 21 99 2188
1.1948923 -1.8833529 0.21747655 356 16307950 179 22 96 2241
1.263931 -1.8400587 0.19683559 449 16307950 225 23 146 2241
1.0161331 -1.8937258 0.17208371 399 16307950 186 24 99 2156
1.1037244 -1.8887174 0.15423593 438 16307950 211 25 102 2193
1.185972 -1.8694375 0.13490336 382 16307950 188 26 132 2218
1.2626723 -1.8405653 0.11490622 487 16307950 243 27 138 2235
0.99389911 -1.8544639 0.091458499 441 16307950 196 28 67 2106
1.103153 -1.8892533 0.074142225 361 16307950 173 29 41 2189
1.1897885 -1.8793666 0.054866284 341 16307950 169 30 52 2225
1.2561784 -1.8325388 0.033195488 383 16307950 189 31 99 2222
1.0145538 -1.8932406 0.014995747 350 16307950 162 32 97 2148
1.0874681 -1.8639601 -0.005461304 356 16307950 166 33 100 2158
1.1909053 -1.8816394 -0.026585411 352 16307950 175 34 111 2227
1.2695292 -1.8545823 -0.048216123 405 16307950 205 35 77 2248
1.0023575 -1.8726788 -0.063077837 352 16307950 159 36 133 2125
1.0832634 -1.859884 -0.084189989 378 16307950 176 37 78 2154
1.1626375 -1.8386799 -0.10590123 384 16307950 182 38 156 2178
1.243462 -1.8164341 -0.12804288 400 16307950 195 39 94 2205
0.98502427 -1.8437747 -0.13873437 416 16307950 183 40 84 2095
1.0701216 -1.8392391 -0.16123022 383 16307950 174 41 136 2134
1.1560889 -1.8294543 -0.18477017 403 16307950 190 42 148 2172
1.2738512 -1.862988 -0.21417077 70 16307950 36 43 65 2267
0.9888255 -1.8524454 -0.21677516 446 16307950 199 44 108 2111
1.0687028 -1.838498 -0.23958278 359 16307950 165 45 75 2140
1.1740853 -1.8600885 -0.26879561 256 16307950 126 46 103 2216
1.2367845 -1.8097274 -0.28943512 213 16307950 104 47 132 2211
0.97031623 -1.8214421 -0.28964055 423 16307950 184 48 93 2084
1.0677269 -1.8386651 -0.31901491 246 16307950 114 49 66 2150
1.115941 -1.7700241 -0.33444312 37 16307950 16 50 54 2119
1.2361031 -1.8098152 -0.37195104 241 16307950 119 51 63 2223
0.96070081 -1.8072672 -0.36480176 335 16307950 145 52 92 2079
1.0202379 -1.7589369 -0.3821215 33 16307950 14 53 89 2069
1.123764 -1.7836742 -0.41696814 281 16307950 130 54 82 2149
1.2158967 -1.7801636 -0.44879544 420 16307950 204 55 79 2202
0.83764112 -1.5778934 -0.38754901 657 16307950 219 56 29 1828
1.0300624 -1.7780192 -0.46590617 312 16307950 139 57 66 2107
1.1278136 -1.790864 -0.50146645 433 16307950 205 58 78 2175
1.1862824 -1.7371315 -0.52057415 441 16307950 207 59 88 2167
0.90815151 -1.7155572 -0.49813744 72 16307950 29 60 36 2004
1.0113275 -1.7490568 -0.53879315 362 16307950 158 61 47 2091
1.1098937 -1.7631594 -0.57762396 403 16307950 188 62 53 2162
1.1933459 -1.7459043 -0.61003745 403 16307950 195 63 53 2201
0.88369936 -1.6739953 0.59085083 280 16406100 110 0 19 1983
1.0127332 -1.7532926 0.60772753 388 16406100 174 1 76 2114
1.2220834 -1.94338 0.66474557 289 16406100 165 2 63 2390
0.99214733 -1.4532619 0.49153152 397 16406100 132 3 41 1827
0.9703573 -1.8359003 0.56096137 324 16406100 150 4 65 2151
0.99512202 -1.7245402 0.51666516 336 16406100 142 5 18 2057
0.98394579 -1.566023 0.46071583 310 16406100 113 6 93 1906
1.0168415 -1.4926757 0.431743 374 16406100 129 7 48 1857
1.0208216 -1.9304807 0.5032388 366 16406100 184 8 99 2241
0.990089 -1.7142971 0.43547586 341 16406100 140 9 34 2027
1.0451103 -1.6653706 0.41275445 342 16406100 138 10 67 2009
1.0861394 -1.597396 0.38668823 366 16406100 142 11 30 1970
0.98962384 -1.8707714 0.40606022 378 16406100 176 12 110 2155
1.0646514 -1.845034 0.38677222 448 16406100 210 13 79 2165
1.0992993 -1.7524673 0.355248 371 16406100 163 14 108 2099
1.1456884 -1.685861 0.33090177 381 16406100 162 15 56 2065
0.99450028 -1.8800691 0.32774079 446 16406100 207 16 73 2152
1.0947769 -1.8982362 0.31616291 371 16406100 182 17 115 2214
1.1502407 -1.8358822 0.29168388 459 16406100 219 18 83 2186
1.1941479 -1.7594794 0.26588008 362 16406100 166 19 76 2143
0.99708259 -1.8850305 0.24918947 452 16406100 208 20 108 2147
1.0925692 -1.8950961 0.23431547 439 16406100 213 21 104 2200
1.1643046 -1.8602773 0.21398295 538 16406100 262 22 70 2205
1.2324945 -1.8180962 0.19367357 453 16406100 220 23 140 2205
0.99890333 -1.8893502 0.1711259 397 16406100 183 24 78 2144
1.0921146 -1.8954542 0.15423593 418 16406100 201 25 87 2193
1.174479 -1.8766792 0.13490336 389 16406100 191 26 131 2218
1.2446363 -1.8383546 0.11428927 389 16406100 192 27 128 2223
0.98809987 -1.8711287 0.091979623 466 16406100 209 28 49 2118
1.1094913 -1.9271677 0.075361557 359 16406100 178 29 61 2225
1.1909435 -1.9069817 0.055458099 372 16406100 188 30 45 2249
1.2247409 -1.8103976 0.032657668 402 16406100 192 31 76 2186
0.99731517 -1.8888189 0.014911973 343 16406100 156 32 114 2136
1.0819941 -1.8809994 -0.005491673 377 16406100 178 33 99 2170
1.1539184 -1.8481984 -0.0260124 345 16406100 164 34 108 2179
1.2379779 -1.8325132 -0.047443978 378 16406100 185 35 91 2212
0.96846658 -1.8363553 -0.061653029 340 16406100 147 36 136 2077
1.0539174 -1.8353008 -0.082782917 390 16406100 175 37 82 2118
1.1513337 -1.8457791 -0.10590123 381 16406100 180 38 172 2178
1.2389994 -1.8339562 -0.1287397 384 16406100 189 39 101 2217
0.96811539 -1.8391887 -0.13793972 441 16406100 191 40 107 2083
1.0469083 -1.8250123 -0.15941694 390 16406100 174 41 109 2110
1.1385167 -1.8263669 -0.18374932 388 16406100 181 42 147 2160
1.2490314 -1.8509637 -0.21190339 223 16406100 112 43 51 2243
0.97188431 -1.8479134 -0.21554291 426 16406100 188 44 114 2099
1.0514724 -1.8346748 -0.23823932 371 16406100 168 45 68 2128
1.1626499 -1.8672575 -0.26879561 224 16406100 110 46 106 2216
1.2057005 -1.7876928 -0.28472248 85 16406100 40 47 138 2175
0.96464461 -1.8378838 -0.29130834 430 16406100 189 48 85 2096
