# .PCD v0.7 - Point Cloud Data file format
VERSION 0.7
FIELDS x y z intensity t reflectivity ring noise range
SIZE 4 4 4 4 4 2 1 2 4
TYPE F F F F U U U U U
COUNT 1 1 1 1 1 1 1 1 1
WIDTH 772
HEIGHT 1
VIEWPOINT 0 0 0 1 0 0 0
POINTS 772
DATA ascii
0.73274779 -1.8656054 0.10318425 323 19925080 130 27 85 2007
0.38459069 -1.4173619 0.063838549 132 19925080 28 28 23 1470
0.42525527 -1.367586 0.04853623 353 19925080 72 29 1 1433
0.66476911 -1.8951805 0.049539939 299 19925080 121 30 62 2009
0.73258632 -1.8672053 0.029968563 352 19925080 142 31 88 2006
0.36444852 -1.3434087 0.0097179152 382 19925080 74 32 37 1392
0.57951367 -1.8660804 -0.0049450365 370 19925080 141 33 47 1954
0.66535407 -1.8975904 -0.024006855 325 19925080 132 34 79 2011
0.74077213 -1.891661 -0.043583255 341 19925080 141 35 58 2032
0.52064335 -1.9228833 -0.059159599 363 19925080 144 36 107 1993
0.59071445 -1.9070822 -0.078092672 348 19925080 139 37 31 1998
0.6634903 -1.8948164 -0.097732522 380 19925080 153 38 130 2010
0.73280853 -1.8712287 -0.11689355 331 19925080 134 39 63 2013
0.51666164 -1.9141359 -0.13158244 392 19925080 155 40 55 1987
0.58625603 -1.8957318 -0.15035059 367 19925080 146 41 62 1990
0.65541774 -1.8734397 -0.16945772 373 19925080 148 42 144 1992
0.73917991 -1.8905098 -0.19263086 369 19925080 153 43 57 2039
0.52164346 -1.9352775 -0.20691708 410 19925080 167 44 82 2015
0.59931505 -1.9407196 -0.22883515 378 19925080 158 45 46 2044
0.66244125 -1.8967011 -0.24550648 386 19925080 158 46 105 2024
0.73709446 -1.8865352 -0.26744273 357 19925080 149 47 118 2043
0.51385796 -1.912769 -0.27796596 415 19925080 166 48 49 2000
0.59150839 -1.9184086 -0.30120945 360 19925080 148 49 50 2030
0.66939491 -1.9198395 -0.32497326 384 19925080 163 50 53 2059
0.75399947 -1.9313933 -0.35187274 364 19925080 161 51 76 2103
0.50787759 -1.897246 -0.35006231 419 19925080 167 52 68 1995
0.58774197 -1.9096253 -0.37547269 411 19925080 170 53 83 2033
0.66247344 -1.9019103 -0.39834136 392 19925080 165 54 76 2053
0.74982959 -1.9206131 -0.42922941 400 19925080 178 55 68 2106
0.5154596 -1.929884 -0.43334258 406 19925080 170 56 89 2044
0.58624345 -1.9083098 -0.4526388 394 19925080 165 57 48 2047
0.66122955 -1.8995131 -0.47656602 382 19925080 163 58 72 2067
0.73519361 -1.8836095 -0.50039506 435 19925080 189 59 72 2083
0.51363468 -1.9321113 -0.51305169 438 19925080 187 60 24 2064
0.58490044 -1.9096358 -0.53260905 413 19925080 176 61 33 2067
0.65795738 -1.8912826 -0.55518156 412 19925080 178 62 54 2078
0.73617512 -1.8837943 -0.58342963 406 19925080 180 63 42 2105
0.32599697 -1.2319607 0.39777401 446 20023170 79 0 9 1335
0.37699965 -1.2328265 0.3869448 434 20023170 79 1 17 1346
0.6284858 -1.8092697 0.55460364 354 20023170 141 2 49 1994
0.69839448 -1.7900256 0.53672981 413 20023170 164 3 42 1995
0.34813648 -1.3129396 0.3669329 182 20023170 36 4 37 1407
0.37790906 -1.2377313 0.33581978 429 20023170 77 5 2 1337
0.44209477 -1.2742699 0.33598897 416 20023170 80 6 73 1390
0.66323376 -1.7050017 0.43732285 435 20023170 154 7 75 1881
0.34716105 -1.308247 0.3119137 168 20023170 32 8 36 1389
0.40748838 -1.3327773 0.30657327 151 20023170 31 9 14 1427
0.44743225 -1.2919112 0.28701741 409 20023170 80 10 34 1397
0.49442443 -1.274327 0.27362609 389 20023170 76 11 19 1394
0.3616792 -1.3620944 0.27039275 160 20023170 33 12 53 1435
0.38759246 -1.2694465 0.24099572 305 20023170 56 13 6 1349
0.44066924 -1.2731742 0.23135971 380 20023170 71 14 91 1367
0.49276567 -1.2709726 0.22129557 380 20023170 73 15 62 1381
0.3631953 -1.3679003 0.21808772 176 20023170 36 16 12 1432
0.39335707 -1.2893742 0.1944959 293 20023170 54 17 48 1362
0.44728327 -1.294549 0.184404 396 20023170 76 18 71 1382
0.50962055 -1.3168318 0.17655033 392 20023170 79 19 52 1423
0.36064166 -1.3583782 0.1642306 134 20023170 27 20 66 1415
0.40134588 -1.3163013 0.14740574 341 20023170 65 21 58 1384
0.45474321 -1.3181521 0.13595922 431 20023170 85 22 91 1401
0.50298995 -1.301791 0.12305517 353 20023170 69 23 113 1401
0.37931189 -1.4298073 0.11844722 142 20023170 31 24 30 1484
0.40374994 -1.3254297 0.097689785 297 20023170 57 25 33 1389
0.46023905 -1.3342338 0.086002409 387 20023170 77 26 103 1414
0.7169742 -1.858885 0.1025673 297 20023170 118 27 107 1995
0.3728182 -1.4081057 0.063317418 192 20023170 41 28 19 1458
0.4063836 -1.335748 0.047316898 396 20023170 77 29 1 1397
0.65312797 -1.8992238 0.049539939 322 20023170 130 30 37 2009
0.72542936 -1.8828616 0.030147837 348 20023170 142 31 67 2018
0.35926932 -1.3572198 0.0098016895 405 20023170 80 32 22 1404
0.57502979 -1.8925643 -0.0050057736 364 20023170 142 33 37 1978
0.65759885 -1.9129845 -0.024150105 329 20023170 135 34 79 2023
0.71623313 -1.8625771 -0.042811111 344 20023170 137 35 65 1996
0.50883496 -1.9260417 -0.059159599 362 20023170 144 36 101 1993
0.5720467 -1.8877199 -0.077154614 346 20023170 135 37 21 1974
0.65185142 -1.8988518 -0.097732522 370 20023170 149 38 124 2010
0.729913 -1.8980529 -0.11828723 342 20023170 142 39 68 2037
0.50795627 -1.9288489 -0.13237709 421 20023170 168 40 45 1999
0.58154303 -1.9221994 -0.15216386 379 20023170 154 41 54 2014
0.64778918 -1.8887358 -0.17047855 376 20023170 151 42 131 2004
0.72328418 -1.8838574 -0.19149719 350 20023170 144 43 64 2027
0.4976159 -1.8922656 -0.20198804 415 20023170 161 44 76 1967
0.57705021 -1.9101152 -0.22480479 371 20023170 150 45 61 2008
0.6546492 -1.911999 -0.24696203 363 20023170 151 46 103 2036
0.73402786 -1.9132372 -0.27058452 364 20023170 155 47 116 2067
0.50211173 -1.9158859 -0.27796596 407 20023170 163 48 55 2000
0.57972616 -1.922002 -0.30120945 368 20023170 152 49 25 2030
0.64993733 -1.9014854 -0.32118532 367 20023170 152 50 56 2035
0.72096086 -1.8807483 -0.34183353 368 20023170 153 51 53 2043
0.49025705 -1.8774654 -0.34585103 429 20023170 167 52 74 1971
0.57601362 -1.9131956 -0.37547269 369 20023170 153 53 85 2033
0.65459496 -1.9170797 -0.40066969 412 20023170 176 54 96 2065
0.72962016 -1.9032383 -0.42433789 426 20023170 185 55 60 2082
0.50656492 -1.9443587 -0.43588662 406 20023170 172 56 77 2056
0.57789117 -1.9230788 -0.45529222 399 20023170 169 57 60 2059
0.65333289 -1.9145854 -0.47933272 421 20023170 182 58 63 2079
0.72779083 -1.8989621 -0.50327778 425 20023170 187 59 74 2095
0.493018 -1.9014726 -0.50410312 463 20023170 190 60 18 2028
0.57982719 -1.9354028 -0.53879315 428 20023170 187 61 24 2091
0.65007281 -1.906229 -0.55838764 412 20023170 180 62 52 2090
0.7287333 -1.8990406 -0.58675563 382 20023170 171 63 72 2117
0.32129398 -1.2450293 0.40134951 439 20122200 80 0 12 1347
0.36613452 -1.2241051 0.38349506 439 20122200 78 1 17 1334
0.59879559 -1.7585355 0.53791547 331 20122200 124 2 42 1934
0.69153273 -1.8050699 0.5399583 418 20122200 168 3 35 2007
0.33717349 -1.3038353 0.36380342 185 20122200 36 4 27 1395
0.37695464 -1.2622862 0.34184796 456 20122200 84 5 1 1361
0.4267695 -1.2549103 0.33018771 424 20122200 79 6 98 1366
0.56947285 -1.4909799 0.38152409 316 20122200 85 7 87 1641
0.35963604 -1.3895962 0.33077675 160 20122200 35 8 42 1473
0.40601864 -1.3577094 0.31172937 137 20122200 29 9 19 1451
0.43949679 -1.2946323 0.28701741 405 20122200 79 10 38 1397
0.48659599 -1.2773368 0.27362609 396 20122200 77 11 23 1394
0.35036021 -1.3528793 0.26813164 117 20122200 24 12 76 1423
0.40006679 -1.3396806 0.25385836 123 20122200 25 13 38 1421
0.4328489 -1.2758541 0.23135971 295 20122200 55 14 87 1367
0.47652993 -1.2518324 0.21744974 397 20122200 73 15 28 1357
0.36371461 -1.404547 0.22357036 107 20122200 23 16 26 1468
0.39902192 -1.3372883 0.20135038 186 20122200 37 17 40 1410
0.43933165 -1.2972691 0.184404 354 20122200 68 18 69 1382
0.49730164 -1.3088031 0.17506148 391 20122200 78 19 64 1411
0.36126313 -1.3951805 0.1684089 116 20122200 24 20 47 1451
0.40008125 -1.3416076 0.14996192 269 20122200 53 21 48 1408
0.44282097 -1.3096035 0.1347947 402 20122200 78 22 73 1389
0.49499285 -1.3048527 0.12305517 388 20122200 76 23 125 1401
0.36453918 -1.408947 0.11653163 156 20122200 33 24 42 1460
0.39219189 -1.3164102 0.096845821 342 20122200 65 25 43 1377
0.45588002 -1.3483795 0.086732276 410 20122200 83 26 118 1426
0.70131081 -1.8520417 0.10195035 288 20122200 113 27 89 1983
0.35218206 -1.363935 0.061232895 206 20122200 41 28 10 1410
0.40160024 -1.3497114 0.047723342 331 20122200 66 29 3 1409
0.62996769 -1.8690915 0.048652213 304 20122200 118 30 44 1973
0.70961767 -1.8760546 0.029968563 348 20122200 140 31 72 2006
0.35093483 -1.3593987 0.0098016895 382 20122200 75 32 32 1404
0.54973429 -1.8500456 -0.0048842989 366 20122200 136 33 28 1930
0.63818657 -1.8942412 -0.023863601 311 20122200 124 34 106 1999
0.71326554 -1.8893849 -0.043325871 342 20122200 140 35 72 2020
0.49401489 -1.9175121 -0.058803391 361 20122200 142 36 92 1981
0.56386012 -1.9026909 -0.077623643 356 20122200 140 37 45 1986
0.63636601 -1.8914558 -0.097149052 366 20122200 146 38 136 1998
0.70979047 -1.8800805 -0.11689355 353 20122200 143 39 36 2013
0.4841989 -1.8855399 -0.12919846 401 20122200 152 40 51 1951
0.55955362 -1.8913091 -0.14944394 388 20122200 152 41 57 1978
0.63618791 -1.892675 -0.17047855 382 20122200 153 42 129 2004
0.70749801 -1.8770812 -0.19036351 398 20122200 161 43 57 2015
0.49489045 -1.9299705 -0.20568481 407 20122200 164 44 65 2003
0.56194067 -1.902184 -0.22346132 366 20122200 146 45 45 1996
0.63532668 -1.8933947 -0.24405089 393 20122200 159 46 102 2012
0.70969516 -1.8843054 -0.26587188 351 20122200 145 47 132 2031
0.49328876 -1.9304444 -0.27963376 415 20122200 168 48 66 2012
0.57127917 -1.9369051 -0.30298996 355 20122200 148 49 39 2042
0.63449407 -1.8942015 -0.31929135 372 20122200 152 50 46 2023
0.72190779 -1.9183549 -0.34785703 391 20122200 169 51 67 2079
0.48164254 -1.8918868 -0.34795666 445 20122200 175 52 54 1983
0.56426364 -1.9166939 -0.37547269 411 20122200 170 53 77 2033
0.64281964 -1.9210601 -0.40066969 392 20122200 167 54 85 2065
0.71379054 -1.8966842 -0.42189217 426 20122200 182 55 51 2070
0.48596424 -1.9133314 -0.42825437 416 20122200 170 56 77 2020
0.56608051 -1.9265884 -0.45529222 365 20122200 155 57 47 2059
0.63786978 -1.9074844 -0.47656602 396 20122200 169 58 59 2067
0.71612531 -1.9033921 -0.50327778 444 20122200 195 59 73 2095
0.48988605 -1.9382689 -0.51305169 453 20122200 193 60 28 2064
0.55816287 -1.9055423 -0.52951694 427 20122200 180 61 44 2055
0.63469887 -1.8992143 -0.55518156 412 20122200 178 62 63 2078
0.70893806 -1.881897 -0.58010375 413 20122200 181 63 53 2093
0.30247176 -1.2025415 0.3870475 411 20218490 69 0 24 1299
0.35861665 -1.2263286 0.38349506 440 20218490 78 1 9 1334
0.47854334 -1.4341602 0.43778646 278 20218490 69 2 61 1574
0.6682387 -1.7768255 0.5302729 385 20218490 149 3 35 1971
0.32067233 -1.2721795 0.35441494 172 20218490 32 4 41 1359
0.36269173 -1.2422757 0.33581978 448 20218490 80 5 1 1337
0.41169876 -1.2354115 0.32438645 396 20218490 71 6 91 1342
0.46607444 -1.243095 0.31735551 388 20218490 72 7 47 1365
0.33966163 -1.3464236 0.31999788 150 20218490 30 8 52 1425
0.39768025 -1.3601751 0.31172937 147 20218490 31 9 11 1451
0.42413101 -1.2750173 0.28208655 409 20218490 77 10 35 1373
0.47462803 -1.2692772 0.27127063 425 20218490 81 11 14 1382
0.34782147 -1.3778567 0.27265388 129 20218490 27 12 66 1447
0.41169304 -1.4101127 0.26672098 115 20218490 26 13 33 1493
0.44366676 -1.3346009 0.24151447 197 20218490 40 14 92 1427
0.48127773 -1.2880195 0.22321847 380 20218490 74 15 39 1393
0.34638169 -1.3722543 0.21808772 116 20218490 24 16 1 1432
0.4140912 -1.419524 0.21334572 106 20218490 24 17 53 1494
0.43885458 -1.3225152 0.18760636 224 20218490 44 18 67 1406
0.48093969 -1.2895167 0.17208384 334 20218490 64 19 53 1387
0.35852936 -1.4204838 0.17119443 104 20218490 23 20 56 1475
0.41187909 -1.4127662 0.15763041 123 20218490 27 21 40 1480
0.43102092 -1.3009586 0.13363017 333 20218490 63 22 71 1377
0.47863492 -1.2854608 0.12094717 355 20218490 67 23 96 1377
0.36758757 -1.4575515 0.1203628 114 20218490 26 24 36 1508
0.39414918 -1.3532701 0.099377736 202 20218490 40 25 46 1413
0.44383129 -1.3397812 0.086002409 340 20218490 68 26 113 1414
0.68993372 -1.85631 0.10195035 290 20218490 114 27 94 1983
0.34088048 -1.3544441 0.060711768 171 20218490 33 28 33 1398
0.40001044 -1.3751819 0.04853623 243 20218490 50 29 3 1433
0.62601072 -1.8957044 0.049244031 331 20218490 132 30 39 1997
0.69809306 -1.8803734 0.029968563 338 20218490 136 31 70 2006
0.3484433 -1.3848004 0.0099692401 372 20218490 76 32 32 1428
0.54171968 -1.8649075 -0.0049146679 332 20218490 125 33 34 1942
0.61902934 -1.8753326 -0.023577094 345 20218490 135 34 81 1975
0.70165902 -1.8937258 -0.043325871 370 20218490 151 35 62 2020
0.47931877 -1.9088737 -0.05844719 355 20218490 138 36 72 1969
0.54883838 -1.8945975 -0.077154614 334 20218490 130 37 25 1974
0.62474829 -1.8953248 -0.097149052 385 20218490 154 38 136 1998
0.6940788 -1.873167 -0.11619673 350 20218490 140 39 64 2001
0.47843421 -1.9117062 -0.13078777 432 20218490 168 40 51 1975
0.54793823 -1.894707 -0.14944394 358 20218490 140 41 52 1978
0.62082279 -1.8851863 -0.16945772 394 20218490 156 42 117 1992
0.69596714 -1.881387 -0.19036351 367 20218490 149 43 71 2015
0.47435743 -1.8982295 -0.20198804 424 20218490 164 44 55 1967
0.55356669 -1.9170527 -0.22480479 369 20218490 149 45 42 2008
0.63485664 -1.9312043 -0.24841762 391 20218490 164 46 90 2048
0.70636946 -1.910942 -0.26901361 351 20218490 148 47 120 2055
0.48143449 -1.9334348 -0.27963376 413 20218490 167 48 54 2012
0.5528093 -1.9175684 -0.29942888 357 20218490 145 49 47 2018
0.62655425 -1.909318 -0.32118532 401 20218490 166 50 50 2035
0.69372809 -1.878356 -0.33982572 376 20218490 155 51 80 2031
0.47571376 -1.9177393 -0.35216796 423 20218490 170 52 35 2007
0.54923129 -1.9087865 -0.37325647 363 20218490 148 53 73 2021
0.63102013 -1.9249682 -0.40066969 380 20218490 162 54 96 2065
0.69806886 -1.8900076 -0.41944641 394 20218490 167 55 74 2058
0.47421512 -1.9162772 -0.42825437 415 20218490 169 56 85 2020
0.55424851 -1.9300256 -0.45529222 404 20218490 171 57 60 2059
0.63342392 -1.9335551 -0.48209944 402 20218490 176 58 76 2091
0.69636297 -1.8858954 -0.49751231 439 20218490 188 59 80 2071
0.47242588 -1.9186658 -0.50708604 436 20218490 181 60 30 2040
0.54646015 -1.9089313 -0.52951694 415 20218490 175 61 29 2055
0.6266315 -1.9140629 -0.55838764 395 20218490 173 62 62 2090
0.69737762 -1.8862115 -0.58010375 417 20218490 182 63 52 2093
0.30326536 -1.2377524 0.39777401 399 20316230 71 0 19 1335
0.35424349 -1.239557 0.3869448 478 20316230 87 1 13 1346
0.41959763 -1.2836846 0.39105952 373 20316230 74 2 45 1406
0.66932964 -1.8134202 0.5399583 394 20316230 159 3 26 2007
0.32114804 -1.3078747 0.36380342 238 20316230 46 4 41 1395
0.36143607 -1.266817 0.34184796 405 20316230 75 5 1 1361
0.4077242 -1.2489837 0.32728711 420 20316230 77 6 61 1354
0.44634753 -1.2130717 0.30898571 412 20316230 73 7 52 1329
0.33418441 -1.359838 0.32269257 172 20316230 35 8 48 1437
0.38932687 -1.3625897 0.31172937 246 20316230 52 9 1 1451
0.41266122 -1.2664295 0.27962112 427 20316230 79 10 41 1361
0.45872387 -1.250073 0.26655969 377 20316230 69 11 17 1358
0.33373192 -1.3570769 0.26813164 139 20316230 28 12 76 1423
0.39655426 -1.3899046 0.26243344 176 20316230 38 13 38 1469
0.43546945 -1.3372982 0.24151447 239 20316230 49 14 110 1427
0.46520993 -1.2687067 0.21937266 393 20316230 74 15 27 1369
0.33512318 -1.3628368 0.21626016 87 20316230 18 16 23 1420
0.38583732 -1.3535061 0.20306399 139 20316230 28 17 70 1422
0.44911268 -1.3817344 0.19561234 187 20316230 40 18 76 1466
0.47301829 -1.2924434 0.17208384 341 20316230 66 19 64 1387
0.35549846 -1.4458053 0.17397998 74 20316230 17 20 59 1499
0.39666438 -1.3923166 0.15507425 112 20316230 24 21 65 1456
0.44146293 -1.3603796 0.13945283 232 20316230 48 22 92 1437
0.47484073 -1.2996012 0.12200117 358 20316230 69 23 106 1389
0.34722176 -1.4133143 0.11653163 101 20316230 21 24 42 1460
0.39894527 -1.4017153 0.10275362 118 20316230 25 25 50 1461
0.43190545 -1.3310862 0.085272543 233 20316230 46 26 126 1402
0.68263674 -1.8717672 0.1025673 309 20316230 123 27 86 1995
0.35254568 -1.4380172 0.06435968 127 20316230 28 28 24 1482
0.40140191 -1.4122189 0.049755566 120 20316230 26 29 10 1469
0.61436713 -1.8995098 0.049244031 317 20316230 126 30 34 1997
0.68243527 -1.8733475 0.029789289 360 20316230 143 31 72 1994
0.33136985 -1.3519481 0.0097179152 405 20316230 78 32 33 1392
0.52043676 -1.8335645 -0.0048235618 368 20316230 134 33 42 1906
0.62227565 -1.9247646 -0.024150105 326 20316230 134 34 85 2023
0.68182784 -1.8754451 -0.042811111 365 20316230 145 35 79 1996
0.4447991 -1.8185687 -0.055597555 389 20316230 137 36 80 1873
0.53720301 -1.8979295 -0.077154614 356 20316230 139 37 33 1974
0.62047166 -1.9219347 -0.098316006 374 20316230 153 38 144 2022
0.68257219 -1.8773905 -0.11619673 349 20316230 140 39 68 2001
0.47236642 -1.9378719 -0.13237709 397 20316230 158 40 47 1999
0.53955585 -1.9095483 -0.15035059 378 20316230 150 41 71 1990
0.61658412 -1.9117186 -0.17149937 374 20316230 152 42 143 2016
0.6844101 -1.8856219 -0.19036351 381 20316230 155 43 79 2015
0.46552393 -1.9127023 -0.20322029 409 20316230 160 44 51 1979
0.53531784 -1.8974601 -0.22211787 379 20316230 149 45 40 1984
0.61569434 -1.9123869 -0.24550648 381 20316230 156 46 104 2024
0.69057459 -1.9040562 -0.26744273 365 20316230 152 47 118 2043
0.46116036 -1.901706 -0.27463037 406 20316230 158 48 53 1976
0.55068463 -1.9551926 -0.30477053 354 20316230 149 49 34 2054
0.61120152 -1.9018451 -0.31929135 410 20316230 168 50 40 2023
0.69428164 -1.9159465 -0.34584925 403 20316230 172 51 78 2067
0.46393779 -1.9206221 -0.35216796 414 20316230 167 52 63 2007
0.54070038 -1.9234741 -0.37547269 416 20316230 172 53 64 2033
0.61559868 -1.9175954 -0.39834136 398 20316230 168 54 101 2053
0.68645883 -1.8942554 -0.41944641 383 20316230 162 55 46 2058
0.45970097 -1.90775 -0.42571029 412 20316230 166 56 65 2008
0.53607345 -1.9108542 -0.4499853 386 20316230 160 57 57 2035
0.61798096 -1.9262868 -0.47933272 407 20316230 176 58 57 2079
0.68081039 -1.8791807 -0.49462953 446 20316230 189 59 62 2059
0.46606362 -1.9441346 -0.51305169 452 20316230 193 60 26 2064
0.53473687 -1.9122483 -0.52951694 428 20316230 181 61 23 2055
0.61134481 -1.90686 -0.55518156 400 20316230 173 62 68 2078
0.69758666 -1.9229712 -0.59008163 418 20316230 189 63 56 2129
0.29566494 -1.2395899 0.39777401 358 20413860 64 0 17 1335
0.34045038 -1.2195668 0.38004532 460 20413860 80 1 33 1322
0.40819928 -1.2752573 0.3877219 356 20413860 69 2 28 1394
0.646384 -1.7848921 0.5302729 392 20413860 152 3 39 1971
0.30503657 -1.2760189 0.35441494 306 20413860 56 4 32 1359
0.35053802 -1.2578219 0.33883387 392 20413860 71 5 1 1349
0.4035984 -1.2625532 0.33018771 445 20413860 83 6 74 1366
0.45078465 -1.2487209 0.31735551 410 20413860 76 7 44 1365
0.30950859 -1.2936276 0.30652428 169 20413860 31 8 55 1365
0.35260352 -1.2633575 0.28852692 341 20413860 62 9 10 1343
0.41202253 -1.2913144 0.28455198 411 20413860 79 10 25 1385
0.46300197 -1.286077 0.27362609 416 20413860 81 11 11 1394
0.33088684 -1.3820213 0.27265388 174 20413860 36 12 56 1447
0.37217021 -1.3354439 0.25171456 247 20413860 49 13 35 1409
0.41288415 -1.2948732 0.23339066 363 20413860 69 14 99 1379
0.44939753 -1.2492458 0.21552682 371 20413860 67 15 35 1345
0.32123202 -1.3417993 0.21260506 133 20413860 26 16 22 1396
0.37752509 -1.3558481 0.20306399 205 20413860 42 17 61 1422
0.42980579 -1.3504663 0.19080876 344 20413860 70 18 65 1430
0.46910286 -1.3065283 0.17357266 389 20413860 76 19 57 1399
0.33274639 -1.3900024 0.16701613 105 20413860 22 20 58 1439
0.38491508 -1.3832294 0.15379617 154 20413860 32 21 74 1444
0.42949075 -1.3516802 0.1382883 275 20413860 56 22 77 1425
0.46685761 -1.3024902 0.12200117 381 20413860 74 23 92 1389
0.3385433 -1.4154183 0.11653163 96 20413860 20 24 28 1460
0.39354303 -1.4156697 0.1035976 175 20413860 38 25 51 1473
0.4382371 -1.3793732 0.088192001 248 20413860 52 26 77 1450
0.67113894 -1.8759205 0.1025673 325 20413860 129 27 99 1995
0.31866744 -1.3352029 0.059669502 121 20413860 23 28 46 1374
0.40235353 -1.4493235 0.050974898 141 20413860 32 29 17 1505
0.58097059 -1.8346241 0.04746858 342 20413860 127 30 47 1925
0.66285241 -1.8549019 0.029430743 366 20413860 142 31 62 1970
0.32028314 -1.342284 0.0096341399 408 20413860 78 32 23 1380
0.47070768 -1.6979572 -0.0044591371 376 20413860 117 33 50 1762
0.60683274 -1.917107 -0.024006855 339 20413860 137 34 92 2011
0.68239719 -1.9134939 -0.043583255 366 20413860 151 35 87 2032
0.35584232 -1.4945447 -0.045623831 284 20413860 67 36 87 1537
0.52874225 -1.9127474 -0.077623643 365 20413860 144 37 30 1986
0.60505491 -1.9142771 -0.097732522 339 20413860 137 38 140 2010
0.67506409 -1.8928268 -0.11689355 363 20413860 147 39 73 2013
0.45770279 -1.9290836 -0.13158244 394 20413860 156 40 70 1987
0.53101182 -1.9243575 -0.15125722 334 20413860 134 41 70 2002
0.59764194 -1.8926629 -0.16945772 371 20413860 147 42 139 1992
0.67282724 -1.8897859 -0.19036351 387 20413860 157 43 88 2015
0.45377904 -1.9155228 -0.20322029 419 20413860 164 44 40 1979
0.52683252 -1.9122052 -0.22346132 363 20413860 144 45 53 1996
0.60752922 -1.927489 -0.24696203 366 20413860 152 46 112 2036
0.66691595 -1.8746322 -0.26273012 352 20413860 142 47 129 2007
0.45494235 -1.9276313 -0.27796596 419 20413860 167 48 51 2000
0.53238326 -1.9356502 -0.30120945 343 20413860 141 49 28 2030
0.59952056 -1.9055595 -0.31929135 386 20413860 158 50 43 2023
0.68251252 -1.9201704 -0.34584925 384 20413860 164 51 68 2067
0.45214432 -1.9234326 -0.35216796 411 20413860 166 52 70 2007
0.52576619 -1.9153827 -0.37325647 406 20413860 166 53 63 2021
0.60029155 -1.9101061 -0.39601299 383 20413860 160 54 93 2041
0.67482299 -1.8984318 -0.41944641 431 20413860 183 55 58 2058
0.45066375 -1.9219522 -0.42825437 414 20413860 169 56 86 2020
0.53052241 -1.9366817 -0.45529222 401 20413860 170 57 46 2059
0.60265118 -1.9189023 -0.47656602 405 20413860 173 58 76 2067
0.67706823 -1.9052751 -0.50039506 467 20413860 203 59 68 2083
0.45148557 -1.9356381 -0.51006883 453 20413860 191 60 36 2052
0.52299345 -1.9154934 -0.52951694 447 20413860 189 61 51 2055
0.59963304 -1.9105753 -0.55518156 408 20413860 176 62 67 2078
0.68190902 -1.9163526 -0.58675563 395 20413860 177 63 74 2117
0.30876738 -1.3306487 0.42637801 200 20511230 41 0 34 1431
0.33598319 -1.2327218 0.38349506 443 20511230 79 1 2 1334
0.39002731 -1.2447404 0.377709 372 20511230 69 2 48 1358
0.61607689 -1.7343704 0.51413065 383 20511230 140 3 38 1911
0.30507421 -1.3117173 0.36380342 196 20511230 38 4 32 1395
0.34281358 -1.2599491 0.33883387 327 20511230 59 5 12 1349
0.39932132 -1.2761186 0.33308834 445 20511230 84 6 55 1378
0.44311416 -1.2514633 0.31735551 428 20511230 80 7 54 1365
0.30421636 -1.3068914 0.309219 240 20511230 45 8 22 1377
0.34176382 -1.2541897 0.28594887 359 20511230 64 9 4 1331
0.39358795 -1.2601882 0.2771557 423 20511230 77 10 30 1349
0.44334903 -1.2556081 0.26655969 394 20511230 73 11 8 1358
0.30101129 -1.2922035 0.25456488 242 20511230 44 12 71 1351
0.35466963 -1.3035239 0.24528325 386 20511230 73 13 13 1373
0.3978838 -1.2748027 0.22932874 393 20511230 72 14 95 1355
0.44172385 -1.2519797 0.21552682 388 20511230 70 15 41 1345
0.32644528 -1.4014992 0.22174282 160 20511230 34 16 32 1456
0.35673624 -1.3122946 0.19620952 364 20511230 69 17 40 1374
0.41443706 -1.3303691 0.18760636 377 20511230 75 18 69 1406
0.46503222 -1.3206133 0.17506148 402 20511230 80 19 47 1411
0.32421124 -1.3920178 0.16701613 158 20511230 33 20 36 1439
0.37329233 -1.3740506 0.15251808 288 20511230 59 21 38 1432
0.41409516 -1.3314809 0.13595922 370 20511230 73 22 62 1401
0.45885688 -1.3053303 0.12200117 406 20511230 78 23 109 1389
0.32442987 -1.3941681 0.11461604 153 20511230 31 24 36 1436
0.37857881 -1.394953 0.10190965 272 20511230 57 25 37 1449
0.41909513 -1.3477236 0.086002409 368 20511230 73 26 137 1414
0.59613407 -1.6990706 0.09269616 357 20511230 116 27 107 1803
0.31046879 -1.337133 0.059669502 142 20511230 27 28 52 1374
0.37776724 -1.3938873 0.048942674 222 20511230 46 29 7 1445
0.49157196 -1.5860646 0.040958606 319 20511230 88 30 54 1661
0.65542674 -1.8702576 0.029610017 366 20511230 144 31 63 1982
0.31204101 -1.3442239 0.0096341399 431 20511230 82 32 29 1380
0.3756431 -1.3880646 -0.0036391823 364 20511230 75 33 43 1438
0.59860897 -1.932256 -0.024150105 337 20511230 138 34 84 2023
0.67064339 -1.917645 -0.043583255 352 20511230 145 35 59 2032
0.31418654 -1.3564756 -0.041349381 386 20511230 75 36 85 1393
0.52324355 -1.9391091 -0.078561686 341 20511230 138 37 33 2010
0.59683985 -1.9294041 -0.098316006 346 20511230 141 38 142 2022
0.65552741 -1.8743172 -0.11549989 346 20511230 137 39 63 1989
0.44585755 -1.9318557 -0.13158244 417 20511230 164 40 50 1987
0.51608217 -1.9160256 -0.15035059 326 20511230 129 41 64 1990
0.58248729 -1.8848709 -0.16843688 375 20511230 147 42 166 1980
0.65728128 -1.8825999 -0.18922982 382 20511230 153 43 67 2003
0.44469732 -1.9299028 -0.20445256 400 20511230 158 44 50 1991
0.51818627 -1.9269173 -0.22480479 378 20511230 152 45 49 2008
0.59569097 -1.9311805 -0.24696203 374 20511230 155 46 124 2036
0.67107558 -1.9236201 -0.26901361 378 20511230 160 47 124 2055
0.44310606 -1.9303864 -0.27796596 411 20511230 164 48 48 2000
0.51741946 -1.9274189 -0.29942888 377 20511230 153 49 45 2018
0.58781695 -1.9092022 -0.31929135 386 20511230 158 50 54 2023
0.66682386 -1.9131503 -0.34384137 386 20511230 163 51 70 2055
0.43770105 -1.9146539 -0.35006231 430 20511230 171 52 62 1995
0.51400375 -1.9185728 -0.37325647 397 20511230 162 53 60 2021
0.58856004 -1.9137535 -0.39601299 374 20511230 156 54 82 2041
0.6631617 -1.9025366 -0.41944641 406 20511230 172 55 52 2058
0.43886238 -1.9246813 -0.42825437 446 20511230 182 56 48 2020
0.51258397 -1.9172888 -0.4499853 405 20511230 168 57 41 2035
0.59772623 -1.9448868 -0.48209944 399 20511230 175 58 65 2091
0.66536498 -1.9093937 -0.50039506 445 20511230 193 59 90 2083
0.44217101 -1.9497075 -0.51305169 446 20511230 190 60 25 2064
0.51720095 -1.941074 -0.5357011 451 20511230 195 61 19 2079
0.58789867 -1.9142185 -0.55518156 430 20511230 185 62 45 2078
0.66633904 -1.9096144 -0.58342963 425 20511230 188 63 53 2105
0.2905139 -1.2878214 0.412076 166 20609270 32 0 40 1383
0.3343215 -1.2569747 0.39039451 440 20609270 81 1 9 1358
0.3958981 -1.2911906 0.39105952 380 20609270 75 2 28 1406
0.59021646 -1.6944602 0.50121683 372 20609270 129 3 42 1863
0.29957494 -1.3248639 0.3669329 170 20609270 34 4 56 1407
0.3529602 -1.3293869 0.35691842 175 20609270 35 5 1 1421
0.3846654 -1.256277 0.32728711 409 20609270 75 6 48 1354
0.43925494 -1.2651843 0.32014546 442 20609270 84 7 41 1377
0.30909762 -1.3657589 0.32269257 146 20609270 30 8 55 1437
0.33707365 -1.2675893 0.28852692 308 20609270 56 9 1 1343
0.39957738 -1.3075045 0.28701741 356 20609270 69 10 32 1397
0.4356364 -1.2583048 0.26655969 363 20609270 67 11 35 1358
0.29568002 -1.3055202 0.25682601 204 20609270 38 12 64 1363
0.33151549 -1.2486178 0.23456439 342 20609270 59 13 27 1313
0.40041733 -1.3111535 0.2354216 384 20609270 74 14 68 1391
0.43403354 -1.2546666 0.21552682 386 20609270 70 15 44 1345
0.29426366 -1.2993718 0.20529486 262 20609270 48 16 14 1348
0.34563226 -1.3029789 0.1944959 370 20609270 69 17 28 1362
0.39933145 -1.310135 0.184404 415 20609270 79 18 68 1382
0.46080628 -1.3346972 0.17655033 385 20609270 78 19 46 1423
0.29723734 -1.312609 0.15726675 217 20609270 40 20 44 1355
0.35873944 -1.3532486 0.14996192 373 20609270 74 21 26 1408
0.40244076 -1.3225706 0.1347947 388 20609270 75 22 84 1389
0.45473382 -1.3194225 0.12305517 383 20609270 75 23 118 1401
0.32114846 -1.4194661 0.11653163 198 20609270 42 24 46 1460
0.35775524 -1.3509638 0.098533757 421 20609270 83 25 23 1401
0.41081777 -1.3502698 0.086002409 423 20609270 85 26 117 1414
0.49603999 -1.4420507 0.078506395 338 20609270 79 27 110 1527
0.31545749 -1.397485 0.062275156 232 20609270 48 28 14 1434
0.36307523 -1.3729899 0.04812979 377 20609270 76 29 1 1421
0.42613453 -1.4053677 0.036224078 360 20609270 78 30 48 1469
0.64003998 -1.8628964 0.029430743 367 20609270 143 31 67 1970
0.30642876 -1.3578185 0.0097179152 411 20609270 80 32 24 1392
0.35486472 -1.3439342 -0.0035177076 400 20609270 77 33 10 1390
0.57630038 -1.9014428 -0.023720348 353 20609270 140 34 82 1987
0.65108246 -1.8990264 -0.043068495 361 20609270 146 35 72 2008
0.30849227 -1.3700798 -0.041705586 358 20609270 71 36 76 1405
0.49912462 -1.8959005 -0.076685593 372 20609270 143 37 39 1962
0.58151823 -1.9215579 -0.097732522 364 20609270 147 38 125 2010
0.65178537 -1.9009684 -0.11689355 363 20609270 147 39 67 2013
0.43399552 -1.9345551 -0.13158244 407 20609270 161 40 47 1987
0.507357 -1.930729 -0.15125722 346 20609270 139 41 80 2002
0.57437104 -1.8998543 -0.16945772 377 20609270 150 42 116 1992
0.6457175 -1.8865975 -0.18922982 388 20609270 156 43 58 2003
0.43284729 -1.932595 -0.20445256 396 20609270 157 44 93 1991
0.50030112 -1.9069921 -0.22211787 368 20609270 145 45 52 1984
0.58038926 -1.9233959 -0.24550648 384 20609270 157 46 99 2024
0.65925986 -1.9277016 -0.26901361 371 20609270 157 47 113 2055
0.42866558 -1.9214706 -0.27629817 396 20609270 156 48 42 1988
0.50257683 -1.9190774 -0.29764831 367 20609270 148 49 35 2006
0.57950854 -1.9241194 -0.32118532 370 20609270 153 50 62 2035
0.65507245 -1.9172059 -0.34384137 399 20609270 169 51 68 2055
0.42338264 -1.9057708 -0.34795666 407 20609270 160 52 66 1983
0.49625787 -1.8988698 -0.36882392 393 20609270 157 53 58 1997
0.58019775 -1.9286017 -0.39834136 385 20609270 162 54 116 2053
0.64767677 -1.8954527 -0.41700062 407 20609270 171 55 67 2046
0.42197073 -1.9044389 -0.42316622 422 20609270 168 56 86 1996
0.50671643 -1.9430462 -0.45529222 415 20609270 176 57 52 2059
0.57569617 -1.9149709 -0.47379929 402 20609270 170 58 70 2055
0.64987105 -1.9024171 -0.49751231 443 20609270 190 59 89 2071
0.43270066 -1.963735 -0.5160346 419 20609270 181 60 17 2076
0.50528097 -1.944211 -0.5357011 447 20609270 193 61 44 2079
0.57614219 -1.9177898 -0.55518156 371 20609270 160 62 59 2078
0.65087765 -1.9027579 -0.58010375 388 20609270 170 63 53 2093
0.29977137 -1.3679057 0.43710449 173 20705220 37 0 12 1467
0.31217241 -1.2033764 0.37314588 438 20705220 74 1 47 1298
0.38465682 -1.2825549 0.3877219 374 20705220 73 2 42 1394
0.43415603 -1.2714866 0.37530732 324 20705220 63 3 56 1395
0.30386823 -1.3832519 0.38258037 156 20705220 33 4 37 1467
0.3447966 -1.3315277 0.35691842 185 20705220 37 5 5 1421
0.3869721 -1.2920775 0.33598897 408 20705220 79 6 73 1390
0.42772341 -1.2568067 0.31735551 429 20705220 80 7 45 1365
0.30322284 -1.3790505 0.32538733 132 20705220 28 8 47 1449
0.34988543 -1.3490449 0.30657327 176 20705220 36 9 11 1427
0.38145718 -1.2761754 0.27962112 367 20705220 68 10 49 1361
0.42790741 -1.2609541 0.26655969 332 20705220 61 11 7 1358
0.30285969 -1.376368 0.27039275 128 20705220 26 12 71 1435
0.33568692 -1.2963482 0.24313948 204 20705220 38 13 12 1361
0.38897982 -1.3022537 0.23339066 352 20705220 67 14 76 1379
0.43773785 -1.2909589 0.22129557 349 20705220 66 15 41 1381
0.29647946 -1.3474847 0.21260506 152 20705220 30 16 2 1396
0.34655496 -1.3395705 0.19963677 294 20705220 57 17 29 1398
0.39808017 -1.3353547 0.18760636 393 20705220 78 18 44 1406
0.44497445 -1.3149416 0.17357266 354 20705220 69 19 68 1399
0.28661677 -1.3027675 0.15587398 168 20705220 30 20 58 1343
0.34744266 -1.3438723 0.14868382 319 20705220 62 21 40 1396
0.40113133 -1.3479095 0.13712376 430 20705220 86 22 88 1413
0.4542805 -1.3448378 0.12516318 375 20705220 76 23 120 1425
0.28932127 -1.3162646 0.10791149 288 20705220 53 24 21 1352
0.34047946 -1.3183635 0.096001841 407 20705220 76 25 38 1365
0.39569286 -1.3298045 0.084542684 453 20705220 87 26 116 1390
0.45272547 -1.342862 0.07295388 385 20705220 77 27 102 1419
0.29660472 -1.3525527 0.060190633 421 20705220 81 28 11 1386
0.33966947 -1.3171259 0.046097565 417 20705220 77 29 1 1361
0.4072718 -1.3734519 0.035336353 361 20705220 74 30 38 1433
0.62859744 -1.8667886 0.029430743 367 20705220 143 31 72 1970
0.29552183 -1.3479519 0.0096341399 463 20705220 88 32 23 1380
0.34661183 -1.3460863 -0.0035177076 417 20705220 81 33 8 1390
0.5612126 -1.8934387 -0.023577094 342 20705220 133 34 103 1975
0.63177556 -1.8802407 -0.04255373 371 20705220 146 35 83 1984
0.29751682 -1.360229 -0.041349381 311 20705220 60 36 65 1393
0.48748219 -1.8989273 -0.076685593 380 20705220 146 37 14 1962
0.56291425 -1.9021038 -0.096565574 352 20705220 139 38 136 1986
0.63629317 -1.8935763 -0.11619673 336 20705220 134 39 52 2001
0.41956785 -1.9254825 -0.13078777 405 20705220 158 40 62 1975
0.48956063 -1.9106232 -0.14944394 345 20705220 135 41 63 1978
0.55931318 -1.8918769 -0.16843688 406 20705220 159 42 146 1980
0.63033032 -1.879198 -0.18809615 369 20705220 146 43 82 1991
0.42351827 -1.9468783 -0.20568481 428 20705220 172 44 69 2003
0.50041133 -1.9562362 -0.22749169 363 20705220 150 45 43 2032
0.57194752 -1.9383451 -0.24696203 393 20705220 163 46 102 2036
0.63985819 -1.9091504 -0.26587188 362 20705220 149 47 96 2031
0.41686758 -1.9240646 -0.27629817 393 20705220 155 48 30 1988
0.4937281 -1.9336234 -0.29942888 367 20705220 149 49 31 2018
0.57103902 -1.9390059 -0.32307932 401 20705220 168 50 54 2047
0.63578343 -1.8987521 -0.33982572 371 20705220 153 51 56 2031
0.41666362 -1.9314293 -0.35216796 399 20705220 161 52 73 2007
0.48750925 -1.9133074 -0.37104017 383 20705220 155 53 59 2009
0.56503105 -1.9208319 -0.39601299 395 20705220 165 54 89 2041
0.6472255 -1.9328116 -0.42433789 399 20705220 173 55 63 2082
0.41521055 -1.9299219 -0.42825437 399 20705220 163 56 101 2020
0.49478456 -1.9461188 -0.45529222 376 20705220 160 57 66 2059
0.56722838 -1.92967 -0.47656602 397 20705220 169 58 53 2067
0.63448793 -1.8953226 -0.49462953 450 20705220 191 59 70 2059
0.4109174 -1.9208882 -0.50410312 434 20705220 178 60 36 2028
0.49049449 -1.9360353 -0.53260905 430 20705220 184 61 29 2067
0.56110489 -1.9101938 -0.55197549 395 20705220 169 62 58 2066
0.63552552 -1.8957838 -0.57677776 395 20705220 171 63 43 2081
0.29137242 -1.3697194 0.43710449 186 20805560 40 0 22 1467
0.3160536 -1.24984 0.3869448 437 20805560 79 1 12 1346
0.38651028 -1.3180733 0.39773482 398 20805560 81 2 31 1430
0.4116762 -1.2302858 0.36239353 411 20805560 75 3 46 1347
0.28571039 -1.3397703 0.37006238 174 20805560 35 4 45 1419
0.33662 -1.3336182 0.35691842 250 20805560 50 5 1 1421
0.37249225 -1.2720777 0.33018771 402 20805560 75 6 64 1366
0.40892676 -1.2261925 0.30898571 419 20805560 74 7 46 1329
0.28987336 -1.3580133 0.31999788 139 20805560 28 8 52 1425
0.35309169 -1.3966155 0.31688547 171 20805560 37 9 14 1475
0.39338487 -1.3461272 0.29441372 281 20805560 58 10 43 1433
0.43872616 -1.3193833 0.278337 296 20805560 59 11 19 1418
0.2919468 -1.3666755 0.26813164 144 20805560 29 12 95 1423
0.35373259 -1.4014148 0.26243344 136 20805560 29 13 6 1469
0.39092791 -1.3386741 0.23948352 270 20805560 54 14 80 1415
0.44474748 -1.3385835 0.22898722 279 20805560 57 15 34 1429
0.29563811 -1.3840737 0.21808772 117 20805560 24 16 17 1432
0.34413719 -1.3647046 0.20306399 148 20805560 30 17 48 1422
0.39320669 -1.3491899 0.18920757 354 20805560 71 18 61 1418
0.43315026 -1.306345 0.17208384 327 20805560 63 19 73 1387
0.28359675 -1.3278137 0.15865953 107 20805560 20 20 57 1367
0.34210598 -1.357549 0.14996192 222 20805560 44 21 41 1408
0.3895168 -1.3388774 0.13595922 395 20805560 78 22 79 1401
0.42724034 -1.2908587 0.11989316 337 20805560 63 23 118 1365
0.29871285 -1.3999037 0.11461604 159 20805560 33 24 42 1436
0.33238372 -1.3204279 0.096001841 322 20805560 60 25 28 1365
0.39421692 -1.3552095 0.086002409 428 20805560 86 26 123 1414
0.43695974 -1.3228559 0.071719989 364 20805560 71 27 97 1395
0.28580394 -1.3426212 0.059669502 523 20805560 99 28 2 1374
0.3257342 -1.2959226 0.045284674 360 20805560 64 29 2 1337
0.3954969 -1.364403 0.035040446 386 20805560 78 30 37 1421
0.61337203 -1.8592159 0.029251469 373 20805560 143 31 41 1958
0.29224095 -1.3732135 0.0098016895 515 20805560 101 32 3 1404
0.33834586 -1.3481877 -0.0035177076 465 20805560 90 33 10 1390
0.54290563 -1.8737962 -0.023290588 342 20805560 130 34 78 1951
0.61272395 -1.8612905 -0.042038966 339 20805560 130 35 75 1960
0.29414704 -1.3854954 -0.042061791 348 20805560 70 36 69 1417
0.4641805 -1.8553534 -0.074809492 364 20805560 133 37 52 1914
0.55789399 -1.9285494 -0.097732522 352 20805560 142 38 133 2010
0.61342412 -1.8633078 -0.11410623 368 20805560 142 39 78 1965
0.40279055 -1.9045916 -0.12919846 421 20805560 160 40 51 1951
0.47492921 -1.9019819 -0.14853731 337 20805560 130 41 73 1966
0.54769433 -1.8952732 -0.16843688 364 20805560 143 42 136 1980
0.62624693 -1.9057287 -0.19036351 385 20805560 156 43 79 2015
0.40416741 -1.9144031 -0.20198804 405 20805560 157 44 49 1967
0.47686172 -1.9129879 -0.22211787 354 20805560 139 45 46 1984
0.5501408 -1.9074833 -0.24259531 400 20805560 160 46 112 2000
0.62442052 -1.9017375 -0.26430097 375 20805560 153 47 107 2019
0.41238889 -1.9614743 -0.28130159 402 20805560 165 48 61 2024
0.48471969 -1.9481326 -0.30120945 368 20805560 151 49 45 2030
0.55585301 -1.9310859 -0.32118532 414 20805560 172 50 58 2035
0.62412095 -1.9026175 -0.33982572 395 20805560 163 51 72 2031
0.4023844 -1.9223862 -0.35006231 441 20805560 175 52 53 1995
0.48144376 -1.9391547 -0.37547269 390 20805560 161 53 71 2033
0.5532344 -1.9242626 -0.39601299 375 20805560 156 54 101 2041
0.62436789 -1.9032581 -0.41700062 425 20805560 178 55 60 2046
0.40336093 -1.9324332 -0.42825437 404 20805560 165 56 75 2020
0.47720611 -1.926399 -0.4499853 390 20805560 161 57 50 2035
0.55537742 -1.9331142 -0.47656602 381 20805560 163 58 81 2067
0.61921656 -1.8881116 -0.49174684 444 20805560 186 59 89 2047
0.39912331 -1.9233733 -0.50410312 401 20805560 165 60 16 2028
0.4758274 -1.9277514 -0.52951694 422 20805560 178 61 24 2055
0.54937363 -1.9136007 -0.55197549 402 20805560 171 62 52 2066
0.63467401 -1.9325104 -0.58675563 412 20805560 185 63 61 2117
0.27138937 -1.3153881 0.419227 289 20902470 57 0 9 1407
0.30562949 -1.2405961 0.38349506 406 20902470 72 1 21 1334
0.36571342 -1.2760983 0.38438427 417 20902470 80 2 40 1382
0.40771973 -1.2437711 0.36562198 395 20902470 73 3 22 1359
0.27279118 -1.318809 0.36380342 224 20902470 44 4 42 1395
0.32565719 -1.3243792 0.35390431 301 20902470 60 5 1 1409
0.37108719 -1.296729 0.33598897 403 20902470 78 6 46 1390
0.41226825 -1.261961 0.31735551 444 20902470 83 7 55 1365
0.2815353 -1.3597664 0.31999788 172 20902470 35 8 42 1425
0.33330423 -1.3532369 0.30657327 233 20902470 47 9 33 1427
0.3754428 -1.3146379 0.28701741 404 20902470 79 10 37 1397
0.41240132 -1.2661103 0.26655969 371 20902470 68 11 32 1358
0.29072911 -1.4030608 0.27491501 132 20902470 28 12 62 1459
0.33384991 -1.3576971 0.25385836 215 20902470 43 13 30 1421
0.37621543 -1.3183018 0.2354216 326 20902470 63 14 84 1391
0.44019145 -1.3525506 0.23091015 328 20902470 68 15 51 1441
0.28714004 -1.3858616 0.21808772 141 20902470 29 16 20 1432
0.34992403 -1.4244611 0.2116321 155 20902470 34 17 54 1482
0.39143565 -1.3744528 0.19240995 268 20902470 56 18 66 1442
0.45455128 -1.3995779 0.18399446 240 20902470 53 19 50 1483
0.29962355 -1.4462395 0.17258722 120 20902470 26 20 51 1487
0.3479929 -1.4175609 0.15635233 177 20902470 38 21 48 1468
0.38782609 -1.3642186 0.1382883 317 20902470 64 22 70 1425
0.44880182 -1.3844243 0.12832521 265 20902470 57 23 88 1461
0.28526878 -1.3782831 0.11270045 128 20902470 25 24 41 1412
0.33852938 -1.3805718 0.10022171 166 20902470 34 25 54 1425
0.3826192 -1.3460815 0.085272543 402 20902470 79 26 116 1402
0.42883462 -1.3255122 0.071719989 348 20902470 68 27 79 1395
0.26786396 -1.2973855 0.057584979 538 20902470 95 28 16 1326
0.34629789 -1.4143873 0.049349118 179 20902470 38 29 7 1457
0.38711765 -1.3668041 0.035040446 374 20902470 75 30 50 1421
0.59826332 -1.851527 0.029072195 376 20902470 143 31 61 1946
0.28138384 -1.3632288 0.0097179152 479 20902470 93 32 24 1392
0.33576617 -1.3735517 -0.0035784449 447 20902470 89 33 4 1414
0.531398 -1.8770922 -0.023290588 326 20902470 124 34 84 1951
0.61601728 -1.910689 -0.043068495 356 20902470 144 35 82 2008
0.28564027 -1.3872741 -0.042061791 357 20902470 72 36 80 1417
0.45846513 -1.8814665 -0.075747542 369 20902470 138 37 46 1938
0.53627014 -1.8973345 -0.095982097 362 20902470 141 38 144 1974
0.60565573 -1.8784384 -0.11480306 344 20902470 134 39 55 1977
0.36704144 -1.7897317 -0.12125186 398 20902470 134 40 72 1831
0.46607751 -1.916487 -0.14944394 357 20902470 140 41 65 1978
0.53605479 -1.8985981 -0.16843688 360 20902470 141 42 145 1980
0.61088198 -1.8981634 -0.18922982 412 20902470 165 43 79 2003
0.39480722 -1.9285409 -0.20322029 429 20902470 168 44 51 1979
0.46792805 -1.9274658 -0.22346132 378 20902470 150 45 36 1996
0.54165691 -1.9222881 -0.24405089 395 20902470 160 46 100 2012
0.62002361 -1.9281842 -0.26744273 381 20902470 159 47 136 2043
0.39559853 -1.9406794 -0.27796596 387 20902470 155 48 59 2000
0.47275704 -1.9510701 -0.30120945 356 20902470 147 49 27 2030
0.54078573 -1.923053 -0.31929135 395 20902470 162 50 58 2023
0.6160534 -1.9176749 -0.34183353 384 20902470 160 51 70 2043
0.39293066 -1.936397 -0.35216796 411 20902470 165 52 56 2007
0.46399331 -1.9191458 -0.37104017 386 20902470 156 53 50 2009
0.53186721 -1.8936208 -0.38902795 372 20902470 150 54 110 2005
0.61627138 -1.9182384 -0.41944641 425 20902470 180 55 61 2058
0.39149618 -1.9348718 -0.42825437 400 20902470 163 56 83 2020
0.47086543 -1.952044 -0.45529222 405 20902470 171 57 52 2059
0.53403962 -1.9027586 -0.46826589 408 20902470 168 58 72 2031
0.61830568 -1.9251474 -0.50039506 438 20902470 190 59 54 2083
0.38502237 -1.9143909 -0.50112027 412 20902470 167 60 9 2016
0.46128052 -1.9193609 -0.52642488 418 20902470 174 61 38 2043
0.53762162 -1.9169356 -0.55197549 404 20902470 172 62 55 2066
0.61221349 -1.9034399 -0.57677776 417 20902470 180 63 47 2081
0.25208449 -1.2608653 0.40134951 424 20999280 77 0 1 1347
0.29265004 -1.220095 0.37659559 369 20999280 63 1 34 1310
0.35787654 -1.2783182 0.38438427 416 20999280 79 2 45 1382
0.3965477 -1.235245 0.36239353 423 20999280 77 3 33 1347
0.26469398 -1.3204581 0.36380342 219 20999280 43 4 51 1395
0.30129927 -1.2585757 0.33581978 417 20999280 74 5 1 1337
0.35685384 -1.276553 0.33018771 378 20999280 71 6 77 1366
0.40451723 -1.2644668 0.31735551 430 20999280 80 7 58 1365
0.27548712 -1.3729331 0.32269257 207 20999280 43 8 46 1437
0.30859688 -1.2868764 0.29110494 382 20999280 70 9 29 1355
0.3547467 -1.2716684 0.2771557 430 20999280 78 10 33 1349
0.40462485 -1.2686169 0.26655969 418 20999280 77 11 17 1358
0.27747393 -1.3817095 0.27039275 217 20999280 45 12 48 1435
0.31451741 -1.31379 0.24528325 358 20999280 67 13 27 1373
0.36176798 -1.2978004 0.23135971 367 20999280 69 14 96 1367
0.4067083 -1.2762262 0.21744974 383 20999280 70 15 37 1357
0.27396137 -1.3643416 0.21443263 192 20999280 38 16 25 1408
0.32736427 -1.368825 0.20306399 269 20999280 55 17 58 1422
0.37662044 -1.3539135 0.18920757 366 20999280 74 18 76 1418
0.4206953 -1.3229094 0.17357266 343 20999280 67 19 89 1399
0.27431995 -1.366251 0.16283783 163 20999280 32 20 46 1403
0.32819447 -1.3732498 0.15123999 204 20999280 41 21 33 1420
0.36986205 -1.3320487 0.1347947 389 20999280 75 22 92 1389
0.44029871 -1.3871521 0.12832521 286 20999280 61 23 141 1461
0.28621629 -1.4269201 0.11653163 139 20999280 30 24 37 1460
0.34116951 -1.4291956 0.1035976 253 20999280 55 25 20 1473
0.37755674 -1.3599451 0.086002409 354 20999280 71 26 113 1414
0.41707447 -1.3166937 0.071103044 417 20999280 80 27 116 1383
0.26695439 -1.3342718 0.059148371 545 20999280 101 28 1 1362
0.32927102 -1.3814867 0.04812979 186 20999280 38 29 23 1421
0.3787238 -1.3691536 0.035040446 348 20999280 70 30 27 1421
0.58327228 -1.8437232 0.028892923 393 20999280 147 31 57 1934
0.27301395 -1.3649297 0.0097179152 464 20999280 90 32 28 1392
0.32455397 -1.3639121 -0.0035480761 479 20999280 94 33 22 1402
0.5262655 -1.903448 -0.023577094 339 20999280 132 34 89 1975
0.59344822 -1.8801103 -0.04229635 369 20999280 144 35 65 1972
0.27477592 -1.3772378 -0.041705586 387 20999280 76 36 80 1405
0.43861026 -1.8492428 -0.074340463 362 20999280 131 37 44 1902
0.52780741 -1.912143 -0.096565574 365 20999280 144 38 111 1986
0.59772462 -1.8935434 -0.11549989 342 20999280 135 39 71 1989
0.26971352 -1.3574195 -0.091849439 366 20999280 70 40 77 1387
0.45430937 -1.9193107 -0.14944394 348 20999280 136 41 56 1978
0.52757329 -1.9133779 -0.16945772 391 20999280 155 42 159 1992
0.59922355 -1.901876 -0.18922982 387 20999280 155 43 58 2003
0.38528866 -1.9426355 -0.20445256 412 20999280 164 44 65 1991
0.46431866 -1.9651158 -0.22749169 350 20999280 144 45 46 2032
0.53301191 -1.93706 -0.24550648 379 20999280 155 46 96 2024
0.6046086 -1.9206046 -0.26587188 373 20999280 154 47 129 2031
0.38138121 -1.9314119 -0.27629817 417 20999280 165 48 52 1988
0.46622419 -1.9770348 -0.30477053 344 20999280 145 49 40 2054
0.52897596 -1.926335 -0.31929135 402 20999280 164 50 57 2023
0.60072589 -1.9101331 -0.33982572 389 20999280 161 51 90 2031
0.38332 -1.9503634 -0.35427359 425 20999280 173 52 57 2019
0.45220891 -1.9219567 -0.37104017 390 20999280 157 53 53 2009
0.53269273 -1.9422597 -0.39834136 375 20999280 158 54 97 2053
0.61506385 -1.9556044 -0.42678365 420 20999280 184 55 49 2094
0.37961665 -1.9372375 -0.42825437 391 20999280 160 56 89 2020
0.45887905 -1.9548965 -0.45529222 387 20999280 164 57 53 2059
0.52852702 -1.9285223 -0.47379929 395 20999280 167 58 53 2055
0.59949374 -1.9066803 -0.49462953 470 20999280 199 59 78 2059
0.38215601 -1.9623535 -0.51305169 416 20999280 177 60 17 2064
0.45213509 -1.9334453 -0.52951694 440 20999280 186 61 41 2055
0.52279514 -1.9090452 -0.54876947 396 20999280 167 62 61 2054
0.61091137 -1.9401532 -0.58675563 403 20999280 180 63 52 2117
0.23781289 -1.2286496 0.39062303 415 21097270 71 0 5 1311
0.30344313 -1.3002164 0.40074369 255 21097270 50 1 40 1394
0.35002619 -1.28049 0.38438427 423 21097270 81 2 39 1382
0.39242604 -1.2486807 0.36562198 433 21097270 80 3 3 1359
0.25217241 -1.2993122 0.35754442 190 21097270 36 4 50 1371
0.29620606 -1.2717134 0.33883387 377 21097270 69 5 1 1349
0.34288231 -1.2562521 0.32438645 421 21097270 76 6 67 1342
0.38628727 -1.2335118 0.30898571 425 21097270 75 7 52 1329
0.2447565 -1.2598087 0.2957454 321 21097270 56 8 48 1317
0.29803199 -1.2773325 0.28852692 391 21097270 71 9 4 1343
0.34693721 -1.2738212 0.2771557 441 21097270 80 10 44 1349
0.39683315 -1.2710757 0.26655969 405 21097270 75 11 10 1358
0.25099552 -1.290839 0.25230378 316 21097270 57 12 63 1339
0.30377185 -1.3041959 0.24313948 412 21097270 76 13 1 1361
0.34758648 -1.2771721 0.22729778 376 21097270 68 14 114 1343
0.39534262 -1.26739 0.21552682 376 21097270 68 15 74 1345
0.26332125 -1.3543549 0.21260506 330 21097270 64 16 1 1396
0.30550098 -1.3129679 0.1944959 419 21097270 78 17 16 1362
0.3620722 -1.3332449 0.18600519 399 21097270 77 18 57 1394
0.41257018 -1.3254658 0.17357266 373 21097270 73 19 61 1399
0.26593164 -1.3679085 0.16283783 222 21097270 44 20 31 1403
0.32246438 -1.3868594 0.15251808 397 21097270 81 21 21 1432
0.35543242 -1.3112382 0.13246563 454 21097270 85 22 90 1365
0.42113969 -1.3555813 0.12516318 391 21097270 79 23 129 1425
0.27745548 -1.4286493 0.11653163 216 21097270 46 24 44 1460
0.32427001 -1.3962821 0.10106567 380 21097270 78 25 20 1437
0.37233847 -1.3737969 0.086732276 445 21097270 90 26 106 1426
0.41253626 -1.3306748 0.071719989 405 21097270 79 27 100 1395
0.25192288 -1.3005749 0.057584979 545 21097270 96 28 1 1326
0.32620612 -1.4068474 0.048942674 344 21097270 72 29 1 1445
0.36406124 -1.3482885 0.034448627 424 21097270 83 30 43 1397
