# .PCD v0.7 - Point Cloud Data file format
VERSION 0.7
FIELDS x y z intensity t reflectivity ring noise range
SIZE 4 4 4 4 4 2 1 2 4
TYPE F F F F U U U U U
COUNT 1 1 1 1 1 1 1 1 1
WIDTH 770
HEIGHT 1
VIEWPOINT 0 0 0 1 0 0 0
POINTS 770
DATA ascii
0.95321506 -2.0447354 -0.06699609 358 17185730 182 36 147 2257
1.0225856 -2.00227 -0.08794219 392 17185730 199 37 79 2250
1.1294203 -2.025672 -0.11290295 445 17185730 240 38 152 2322
1.2220534 -2.0154676 -0.13710168 172 17185730 96 39 65 2361
0.93226141 -2.003896 -0.14668098 422 17185730 207 40 111 2215
1.0213484 -2.0020897 -0.17029659 386 17185730 196 41 115 2254
1.1173651 -2.0053668 -0.19599928 285 17185730 151 42 161 2304
1.2309645 -2.032644 -0.22550754 40 17185730 23 43 68 2387
0.92029035 -1.9799712 -0.225401 441 17185730 213 44 112 2195
1.0359865 -2.0327997 -0.25704768 373 17185730 197 45 64 2296
1.1391338 -2.0469558 -0.28626248 43 17185730 24 46 107 2360
1.1904521 -1.966832 -0.30357304 307 17185730 165 47 132 2319
0.9083007 -1.9584666 -0.3029829 447 17185730 212 48 99 2180
1.0130687 -1.989976 -0.33503985 210 17185730 107 49 82 2258
1.0683535 -1.9221356 -0.3514888 335 17185730 166 50 62 2227
1.1833112 -1.9562671 -0.38801369 390 17185730 210 51 81 2319
0.8942104 -1.9325904 -0.37954125 274 17185730 128 52 119 2163
0.96435916 -1.8966696 -0.39985168 34 17185730 16 53 110 2165
1.0750427 -1.9356023 -0.43792325 281 17185730 143 54 93 2257
1.1644312 -1.9249784 -0.46836144 433 17185730 229 55 62 2298
0.8919124 -1.9304522 -0.46132749 43 17185730 20 56 135 2176
0.97274315 -1.9156411 -0.48713395 250 17185730 122 57 71 2203
1.06692 -1.9218469 -0.52083337 409 17185730 209 58 87 2259
1.1428465 -1.8896679 -0.5465188 456 17185730 236 59 68 2275
0.88501745 -1.9214269 -0.5428803 202 17185730 96 60 44 2184
0.97089732 -1.9159805 -0.57280594 423 17185730 209 61 64 2223
1.0557704 -1.9026234 -0.60327238 410 17185730 209 62 59 2258
1.15487 -1.9077436 -0.64329708 401 17185730 216 63 39 2321
0.98595071 -2.1470213 0.73744619 294 17283150 180 0 89 2475
1.0857068 -2.1449196 0.7215687 304 17283150 192 1 112 2510
1.2079521 -2.1792538 0.72148538 295 17283150 199 2 63 2594
1.0240375 -1.6937251 0.55287206 89 17283150 37 3 51 2055
0.83366615 -1.8129838 0.53905493 490 17283150 209 4 78 2067
1.0661352 -2.1085367 0.61311603 331 17283150 197 5 65 2441
0.89600879 -1.617945 0.46071583 356 17283150 129 6 75 1906
1.0715572 -1.7763802 0.4959116 113 17283150 52 7 60 2133
0.87850058 -1.9095199 0.48437572 347 17283150 162 8 98 2157
0.89395863 -1.7663319 0.43547586 330 17283150 135 9 49 2027
0.9402287 -1.6999633 0.40782359 355 17283150 140 10 64 1985
0.97203934 -1.6145878 0.37726638 381 17283150 141 11 28 1922
0.88978475 -1.9332476 0.40832132 364 17283150 171 12 96 2167
0.93455309 -1.8483018 0.37605333 360 17283150 159 13 52 2105
0.97228497 -1.7587193 0.34509319 339 17283150 141 14 105 2039
1.026463 -1.7059305 0.32321012 337 17283150 137 15 73 2017
0.91400552 -1.9859636 0.33687851 352 17283150 172 16 72 2212
0.97762072 -1.9345683 0.31273568 370 17283150 178 17 111 2190
1.0356586 -1.875749 0.2884815 349 17283150 163 18 94 2162
1.0829473 -1.8022956 0.26290241 364 17283150 163 19 110 2119
0.94134665 -2.0454648 0.26311716 411 17283150 211 20 116 2267
1.0293421 -2.0377123 0.24454014 412 17283150 217 21 92 2296
1.0886908 -1.9739968 0.21980561 392 17283150 201 22 90 2265
1.1241143 -1.8731028 0.19261955 370 17283150 178 23 161 2193
0.95308161 -2.0720112 0.18261944 418 17283150 219 24 97 2288
1.0343795 -2.0490172 0.16183168 436 17283150 231 25 95 2301
1.1211623 -2.0330415 0.14147215 394 17283150 213 26 125 2326
1.172074 -1.9556469 0.117374 429 17283150 223 27 129 2283
0.92835784 -2.0208619 0.096669801 447 17283150 222 28 87 2226
1.0338353 -2.0497174 0.077800229 405 17283150 213 29 46 2297
1.141704 -2.0749123 0.058417182 382 17283150 215 30 58 2369
1.2154145 -2.029649 0.035346773 408 17283150 229 31 90 2366
0.93661898 -2.0391264 0.01566595 385 17283150 194 32 103 2244
1.0197234 -2.0235829 -0.0057346225 386 17283150 198 33 73 2266
1.1079804 -2.0142064 -0.027444931 364 17283150 193 34 100 2299
1.1965148 -2.0010183 -0.050017789 396 17283150 215 35 92 2332
0.92564714 -2.0178387 -0.065927483 387 17283150 191 36 159 2221
1.0048926 -1.9977947 -0.087473169 373 17283150 187 37 71 2238
1.0996523 -2.0010512 -0.11115251 487 17283150 255 38 186 2286
1.2035155 -2.0126464 -0.13640486 396 17283150 219 39 89 2349
0.90998036 -1.9878043 -0.14509167 425 17283150 204 40 129 2191
0.99830049 -1.9869348 -0.1684833 367 17283150 183 41 102 2230
1.0820177 -1.9702646 -0.19191596 433 17283150 220 42 146 2256
1.273599 -2.1324661 -0.23571065 39 17283150 25 43 66 2495
0.89819473 -1.9638703 -0.22293645 408 17283150 192 44 115 2171
1.002097 -1.9964886 -0.25167388 388 17283150 196 45 90 2248
1.1150961 -2.0330198 -0.28335136 189 17283150 103 46 110 2336
1.1478735 -1.9230232 -0.29571864 395 17283150 201 47 148 2259
0.88639951 -1.942381 -0.29964733 435 17283150 202 48 116 2156
1.0008394 -1.9961547 -0.33503985 235 17283150 120 49 77 2258
1.0793117 -1.9702244 -0.35906467 75 17283150 39 50 76 2275
1.1894685 -1.9939721 -0.39403719 250 17283150 139 51 75 2355
0.89702058 -1.9702967 -0.38585815 289 17283150 140 52 106 2199
0.91045862 -1.8181884 -0.3821215 28 17283150 12 53 92 2069
1.0744509 -1.9628143 -0.44257993 208 17283150 108 54 92 2281
1.1646354 -1.9522654 -0.47325292 456 17283150 246 55 52 2322
0.90916991 -1.9999437 -0.476592 209 17283150 106 56 132 2248
0.95573622 -1.9111067 -0.4844805 276 17283150 133 57 85 2191
1.0438982 -1.9078701 -0.51529998 404 17283150 202 58 75 2235
1.1431639 -1.9166532 -0.5522843 459 17283150 243 59 95 2299
0.83962613 -1.8527126 -0.52200031 62 17283150 27 60 45 2100
0.94876796 -1.9011525 -0.56662184 415 17283150 200 61 53 2199
1.0440762 -1.9090657 -0.60327238 416 17283150 212 62 58 2258
1.1313221 -1.8949941 -0.63664514 433 17283150 228 63 47 2297
0.9633255 -2.1321526 0.73029524 316 17381440 190 0 93 2451
0.98022836 -1.9663885 0.65947354 485 17381440 255 1 126 2294
1.1669273 -2.1360474 0.70479721 288 17381440 185 2 55 2534
1.0846535 -1.8190992 0.59161347 64 17381440 31 3 45 2199
0.82252616 -1.8180649 0.53905493 477 17381440 204 4 50 2067
1.0479999 -2.104641 0.61010194 351 17381440 207 5 71 2429
0.88048577 -1.6131914 0.45781517 250 17381440 90 6 96 1894
1.0129013 -1.7026777 0.4735921 177 17381440 74 7 62 2037
0.88605577 -1.9574864 0.49515462 341 17381440 166 8 122 2205
0.91447204 -1.8347186 0.45094419 376 17381440 166 9 63 2099
0.9466427 -1.7366351 0.4152199 350 17381440 143 10 66 2021
0.97412807 -1.6407572 0.38197732 386 17381440 146 11 14 1946
0.9119364 -2.0138202 0.42414922 406 17381440 206 12 144 2251
0.92845744 -1.8645705 0.37819713 362 17381440 162 13 69 2117
0.98410946 -1.8061937 0.35321704 341 17381440 148 14 109 2087
1.0341097 -1.7427564 0.32897887 377 17381440 159 15 63 2053
0.91647941 -2.0239463 0.34236118 394 17381440 199 16 88 2248
0.97102374 -1.9511635 0.31444931 382 17381440 185 17 98 2202
1.0184454 -1.8716221 0.28688031 367 17381440 170 18 87 2150
1.1022183 -1.8601261 0.27034655 343 17381440 163 19 109 2179
0.94352722 -2.0837753 0.26729548 407 17381440 216 20 106 2303
1.0221339 -2.0546727 0.24581824 380 17381440 202 21 111 2308
1.0765581 -1.9806397 0.21980561 426 17381440 219 22 84 2265
1.1308643 -1.9108262 0.19578157 377 17381440 188 23 173 2229
0.93048626 -2.0560248 0.18070385 402 17381440 206 24 83 2264
1.01113 -2.0338879 0.16014375 429 17381440 223 25 85 2277
1.1086667 -2.0398824 0.14147215 367 17381440 198 26 131 2326
1.1661499 -1.9731189 0.11799095 449 17381440 236 27 109 2295
0.91594058 -2.0265203 0.096669801 441 17381440 219 28 102 2226
1.0159038 -2.0452812 0.077393778 428 17381440 223 29 47 2285
1.1060765 -2.0396962 0.057233546 401 17381440 216 30 48 2321
1.1907357 -2.0164049 0.034988221 586 17381440 322 31 93 2342
0.91914779 -2.0339 0.015582174 350 17381440 174 32 115 2232
1.012622 -2.0405509 -0.005764991 369 17381440 192 33 104 2278
1.1013193 -2.0315158 -0.027588185 383 17381440 205 34 110 2311
1.1781206 -1.9979881 -0.049760412 400 17381440 215 35 86 2320
0.91324848 -2.0234804 -0.065927483 386 17381440 190 36 165 2221
0.98729306 -1.9931781 -0.08700414 388 17381440 192 37 84 2226
1.0987693 -2.0288398 -0.11231948 417 17381440 222 38 157 2310
1.1789734 -1.9993546 -0.13501118 400 17381440 216 39 95 2325
0.89776629 -1.9933505 -0.14509167 412 17381440 198 40 103 2191
0.98078382 -1.9822981 -0.16757669 371 17381440 182 41 123 2218
1.075599 -1.9873819 -0.19293679 419 17381440 215 42 149 2268
1.1756158 -1.9961282 -0.21983916 38 17381440 21 43 64 2327
0.88612777 -1.9693445 -0.22293645 408 17381440 192 44 137 2171
0.97926044 -1.9812196 -0.24898697 360 17381440 178 45 76 2224
1.0856086 -2.008388 -0.27898464 238 17381440 126 46 126 2300
1.1722612 -1.9915452 -0.30514392 217 17381440 118 47 139 2331
0.86959743 -1.9369421 -0.2979795 397 17381440 183 48 96 2144
0.9885723 -2.0022581 -0.33503985 226 17381440 115 49 61 2258
1.0221688 -1.8933929 -0.34391293 43 17381440 20 50 52 2179
1.1412202 -1.9400487 -0.38199019 251 17381440 131 51 78 2283
0.88491422 -1.9757636 -0.38585815 274 17381440 133 52 117 2199
0.96187454 -1.950671 -0.40871674 28 17381440 14 53 91 2213
1.051209 -1.948649 -0.43792325 236 17381440 120 54 90 2257
1.1407211 -1.9391228 -0.46836144 436 17381440 230 55 91 2298
0.87294328 -1.9519575 -0.4638716 340 17381440 163 56 140 2188
0.9595024 -1.9484317 -0.49244088 265 17381440 132 57 73 2227
1.0432557 -1.9347949 -0.52083337 408 17381440 208 58 67 2259
1.1195712 -1.90355 -0.5465188 464 17381440 240 59 81 2275
0.81404388 -1.8259811 -0.51305169 46 17381440 19 60 40 2064
0.94219857 -1.9173445 -0.56971389 415 17381440 203 61 54 2211
1.0213702 -1.8950772 -0.59686029 423 17381440 211 62 83 2234
1.1255227 -1.911836 -0.63997108 424 17381440 226 63 59 2309
0.95952922 -2.1589587 0.73744619 315 17479540 193 0 91 2475
0.99346638 -2.0239537 0.67672217 149 17479540 83 1 105 2354
1.1483349 -2.133018 0.70145959 286 17479540 182 2 71 2522
1.1437669 -1.9452763 0.63035488 46 17479540 26 3 60 2343
0.83019656 -1.8654131 0.55157286 356 17479540 159 4 88 2115
0.92768186 -1.8920197 0.54680604 379 17479540 180 5 68 2177
0.97537035 -1.8134066 0.51292706 72 17479540 32 6 112 2122
0.9374758 -1.5981244 0.44290274 407 17479540 148 7 60 1905
0.88354141 -1.9842509 0.50054401 351 17479540 174 8 103 2229
0.91868788 -1.8718579 0.45867828 383 17479540 175 9 106 2135
0.93596911 -1.7424109 0.4152199 370 17479540 151 10 45 2021
0.98782122 -1.6873211 0.39139915 376 17479540 149 11 52 1994
0.9091537 -2.0409081 0.42867145 442 17479540 229 12 112 2275
0.91180122 -1.8596311 0.37605333 347 17479540 154 13 73 2105
0.9674136 -1.8017781 0.35118607 352 17479540 151 14 120 2075
1.017415 -1.7388452 0.32705593 380 17479540 158 15 62 2041
0.90404344 -2.0295317 0.34236118 397 17479540 200 16 51 2248
0.969486 -1.9784155 0.31787655 410 17479540 203 17 96 2226
1.0181824 -1.8987978 0.29008269 385 17479540 182 18 90 2174
1.0787699 -1.8462923 0.26736891 388 17479540 180 19 90 2155
0.92102432 -2.06775 0.26450992 446 17479540 232 20 113 2279
1.0095074 -2.0609057 0.24581824 375 17479540 200 21 124 2308
1.0643848 -1.9872081 0.21980561 422 17479540 217 22 99 2265
1.1191183 -1.9177291 0.19578157 392 17479540 195 23 164 2229
0.91785324 -2.0616956 0.18070385 407 17479540 209 24 81 2264
1.0196826 -2.0830588 0.16351962 438 17479540 237 25 98 2325
1.0961293 -2.0466468 0.14147215 524 17479540 283 26 129 2326
1.1721233 -2.0112996 0.11984179 426 17479540 231 27 107 2331
0.90835941 -2.043057 0.097190939 447 17479540 224 28 81 2238
1.0086043 -2.0622499 0.077800229 388 17479540 205 29 59 2297
1.0935403 -2.0464447 0.057233546 359 17479540 194 30 63 2321
1.1723033 -2.0133042 0.034808949 441 17479540 240 31 82 2330
0.90665072 -2.0395014 0.015582174 353 17479540 176 32 117 2232
0.9948141 -2.035944 -0.0057346225 375 17479540 193 33 101 2266
1.0831795 -2.0276513 -0.027444931 354 17479540 187 34 97 2299
1.1658391 -2.0051794 -0.049760412 384 17479540 207 35 87 2320
0.90081543 -2.0290458 -0.065927483 375 17479540 185 36 154 2221
0.9803009 -2.0099759 -0.087473169 377 17479540 189 37 81 2238
1.0637274 -1.9932466 -0.10998556 390 17479540 199 38 155 2262
1.1486187 -1.9754819 -0.13292068 386 17479540 203 39 67 2289
0.87581849 -1.9769264 -0.14350232 396 17479540 186 40 124 2167
0.9581213 -1.9667643 -0.16576339 335 17479540 161 41 123 2194
1.0521317 -1.9728444 -0.19089514 407 17479540 205 42 150 2244
1.175344 -2.0239656 -0.2221065 189 17479540 104 43 56 2351
0.87885851 -1.98566 -0.22416872 435 17479540 207 44 115 2183
0.96708548 -1.987191 -0.24898697 382 17479540 189 45 91 2224
1.0788645 -2.0255244 -0.28044018 229 17479540 122 46 125 2312
1.1719629 -2.019279 -0.30828568 127 17479540 70 47 133 2355
0.85769624 -1.9422414 -0.2979795 420 17479540 193 48 89 2144
0.97626805 -2.0082862 -0.33503985 213 17479540 109 49 77 2258
1.0383574 -1.9519365 -0.35338277 50 17479540 25 50 60 2239
1.1352307 -1.9572487 -0.38399804 267 17479540 141 51 62 2295
0.85848624 -1.9487225 -0.37954125 262 17479540 123 52 113 2163
0.97049046 -1.9989736 -0.41758183 119 17479540 61 53 82 2261
1.0447577 -1.965457 -0.44025159 212 17479540 109 54 80 2269
1.1288013 -1.9460857 -0.46836144 447 17479540 236 55 56 2298
0.80428767 -1.8284616 -0.43334258 378 17479540 158 56 106 2044
0.93221205 -1.9226911 -0.4844805 179 17479540 86 57 74 2191
1.0149283 -1.9102249 -0.51253325 412 17479540 204 58 76 2223
1.113714 -1.9204606 -0.54940158 453 17479540 237 59 89 2287
0.81215966 -1.8522316 -0.5190174 45 17479540 19 60 34 2088
0.9203167 -1.9022146 -0.56352973 378 17479540 181 61 50 2187
1.0151466 -1.9115214 -0.6000663 412 17479540 208 62 76 2246
1.1137707 -1.9187061 -0.63997108 420 17479540 224 63 52 2309
0.91414839 -2.0913334 0.71241772 287 17577010 164 0 80 2391
1.0410409 -2.1541922 0.71811891 234 17577010 146 1 89 2498
1.1514299 -2.1705716 0.71147245 295 17577010 193 2 65 2558
1.1144192 -1.9222614 0.62066954 66 17577010 35 3 45 2307
0.81408972 -1.8598595 0.54844344 317 17577010 140 4 63 2103
0.87565953 -1.8139938 0.52269334 475 17577010 205 5 37 2081
1.0514688 -1.9839737 0.55933702 115 17577010 62 6 102 2314
0.92180878 -1.5937437 0.44011283 421 17577010 151 7 64 1893
0.88073158 -2.0110576 0.50593346 328 17577010 167 8 104 2253
0.91228408 -1.8880121 0.46125636 366 17577010 169 9 104 2147
0.91427249 -1.7273616 0.41028902 374 17577010 149 10 58 1997
0.96568477 -1.6729691 0.38668823 383 17577010 148 11 43 1970
0.90134323 -2.0572426 0.43093258 433 17577010 226 12 128 2287
0.93117023 -1.9289882 0.38891599 346 17577010 164 13 78 2177
0.96740127 -1.8285884 0.355248 349 17577010 154 14 115 2099
1.0067265 -1.7450552 0.32705593 343 17577010 143 15 75 2041
0.89157349 -2.0350406 0.34236118 403 17577010 203 16 55 2248
0.96765 -2.0057211 0.32130378 464 17577010 235 17 114 2250
1.017624 -1.9260401 0.2932851 374 17577010 181 18 116 2198
1.067421 -1.8528768 0.26736891 374 17577010 174 19 115 2155
0.89875406 -2.051528 0.26172438 475 17577010 242 20 99 2255
0.99684298 -2.0670612 0.24581824 513 17577010 273 21 92 2308
1.0577459 -2.0042644 0.22097015 444 17577010 230 22 96 2277
1.1192532 -1.9452817 0.19788958 379 17577010 193 23 181 2253
0.90518564 -2.0672886 0.18070385 405 17577010 208 24 86 2264
0.98609489 -2.0461428 0.16014375 446 17577010 231 25 104 2277
1.0723704 -2.0321472 0.1400124 414 17577010 219 26 127 2302
1.1537896 -2.0080626 0.11922484 405 17577010 218 27 113 2319
0.90541285 -2.0705609 0.098233193 442 17577010 226 28 103 2262
0.99072856 -2.0575938 0.077393778 340 17577010 178 29 73 2285
1.0753741 -2.0425007 0.056937639 364 17577010 194 30 41 2309
1.1539539 -2.0100536 0.034629676 440 17577010 237 31 92 2318
0.8941195 -2.0450261 0.015582174 353 17577010 176 32 115 2232
0.98230308 -2.0420098 -0.0057346225 401 17577010 206 33 94 2266
1.0707177 -2.0342596 -0.027444931 351 17577010 186 34 109 2299
1.1594799 -2.0227034 -0.050017789 407 17577010 221 35 94 2332
0.87874895 -2.0125496 -0.065215066 361 17577010 174 36 169 2197
0.96794945 -2.0159531 -0.087473169 351 17577010 176 37 83 2238
1.0570552 -2.0103447 -0.11056904 391 17577010 202 38 168 2274
1.1603075 -2.024065 -0.13570802 402 17577010 220 39 112 2337
0.87323719 -2.0042174 -0.14509167 397 17577010 191 40 103 2191
0.95120978 -1.9833955 -0.16667004 364 17577010 177 41 117 2206
1.0455682 -1.9898471 -0.19191596 391 17577010 199 42 150 2256
1.1450959 -2.0000372 -0.21870546 256 17577010 137 43 72 2315
0.86189413 -1.9800705 -0.22293645 444 17577010 209 44 111 2171
0.94456959 -1.9715792 -0.24630006 362 17577010 175 45 79 2200
1.0719509 -2.0426533 -0.28189576 208 17577010 112 46 96 2324
1.1359167 -1.9851291 -0.30200216 42 17577010 22 47 136 2307
0.85049647 -1.9583676 -0.29964733 409 17577010 190 48 101 2156
0.97417247 -2.0356476 -0.33860093 201 17577010 105 49 74 2282
0.99885696 -1.9057939 -0.34391293 36 17577010 17 50 63 2179
1.1349456 -1.9847178 -0.38801369 238 17577010 128 51 77 2319
0.85590553 -1.9756337 -0.3837525 291 17577010 139 52 114 2187
0.95312107 -1.9942499 -0.41536555 238 17577010 120 53 89 2249
1.0326782 -1.9718305 -0.44025159 230 17577010 118 54 102 2269
1.0993429 -1.9223803 -0.46102417 489 17577010 250 55 62 2262
0.80236506 -1.854889 -0.43843073 252 17577010 108 56 125 2068
0.9103151 -1.9072515 -0.47917351 50 17577010 24 57 85 2167
1.0086037 -1.9267616 -0.51529998 404 17577010 202 58 79 2235
1.0903456 -1.9070331 -0.54363608 433 17577010 222 59 99 2263
0.80077928 -1.85718 -0.5190174 71 17577010 31 60 36 2088
0.89865637 -1.8868896 -0.55734563 245 17577010 114 61 46 2163
0.9980377 -1.9074683 -0.59686029 406 17577010 203 62 76 2234
1.0905228 -1.90549 -0.63331914 420 17577010 220 63 58 2285
0.83344716 -1.9390435 0.65878528 325 17675150 159 0 94 2211
1.0031164 -2.108645 0.70087028 336 17675150 200 1 101 2438
1.1327509 -2.1673801 0.70813483 270 17675150 175 2 53 2546
1.1312797 -1.9792337 0.63681179 70 17675150 39 3 65 2367
0.82098287 -1.9073832 0.56096137 319 17675150 148 4 91 2151
0.86949784 -1.8298237 0.52570742 488 17675150 214 5 35 2093
1.0554441 -2.0213535 0.56803894 173 17675150 96 6 114 2350
0.9235751 -1.6196469 0.44569269 394 17675150 145 7 79 1917
0.85912508 -1.9949439 0.50054401 350 17675150 174 8 90 2229
0.90571636 -1.9041579 0.4638344 347 17675150 162 9 88 2159
0.91451657 -1.7537655 0.4152199 354 17675150 144 10 50 2021
0.96704084 -1.699316 0.39139915 368 17675150 146 11 39 1994
0.89336628 -2.0735576 0.43319368 611 17675150 323 12 118 2299
0.90918177 -1.9133371 0.38462844 348 17675150 161 13 87 2153
0.96709579 -1.8554654 0.35930991 359 17675150 162 14 103 2123
1.007712 -1.7717917 0.33090177 356 17675150 152 15 85 2065
0.88376242 -2.0513649 0.34418869 473 17675150 242 16 71 2260
0.96042001 -2.0223496 0.32301742 496 17675150 254 17 95 2262
1.0167691 -1.953346 0.29648745 384 17675150 190 18 96 2222
1.0560318 -1.8593915 0.26736891 375 17675150 174 19 105 2155
0.89086491 -2.0679505 0.26311716 434 17675150 223 20 102 2267
0.97902405 -2.0623598 0.24454014 458 17675150 242 21 85 2296
1.0509375 -2.0213134 0.22213466 440 17675150 231 22 85 2289
1.1190915 -1.9729078 0.1999976 399 17675150 207 23 170 2277
0.8830229 -2.0508304 0.17878824 403 17675150 202 24 96 2240
0.97352147 -2.052155 0.16014375 415 17675150 215 25 95 2277
1.0654062 -2.0493164 0.14074227 417 17675150 223 26 146 2314
1.1414467 -2.0151045 0.11922484 385 17675150 207 27 116 2319
0.87848377 -2.0430365 0.096669801 453 17675150 225 28 85 2226
0.9678117 -2.0419593 0.07658089 346 17675150 177 29 63 2261
1.0738685 -2.070359 0.057529457 375 17675150 204 30 55 2333
1.1534185 -2.0379808 0.034988221 453 17675150 249 31 97 2342
0.87681502 -2.0394497 0.015498398 323 17675150 159 32 113 2220
0.96975505 -2.0479987 -0.0057346225 374 17675150 192 33 106 2266
1.0471685 -2.0194864 -0.027158424 354 17675150 183 34 87 2275
1.1411446 -2.019335 -0.049760412 401 17675150 216 35 89 2320
0.87584811 -2.0399475 -0.065927483 334 17675150 165 36 157 2221
0.9504379 -2.0110133 -0.08700414 372 17675150 185 37 79 2226
1.0502129 -2.0274353 -0.11115251 360 17675150 188 38 154 2286
1.1360781 -2.0102875 -0.13431436 400 17675150 214 39 86 2313
0.84677744 -1.9765192 -0.14270768 402 17675150 187 40 105 2155
0.94413006 -2.0000153 -0.16757669 375 17675150 184 41 128 2218
1.0278426 -1.985607 -0.19089514 377 17675150 190 42 168 2244
1.1269305 -1.9966222 -0.21757179 226 17675150 120 43 79 2303
0.84972841 -1.9853216 -0.22293645 404 17675150 190 44 118 2171
0.92228228 -1.955767 -0.24361315 372 17675150 176 45 90 2176
1.0320462 -1.9962872 -0.27461791 228 17675150 117 46 142 2264
1.1295598 -2.0024233 -0.30357304 45 17675150 24 47 128 2319
0.83846414 -1.9635494 -0.29964733 401 17675150 186 48 108 2156
0.93637896 -1.987908 -0.3296982 207 17675150 102 49 67 2222
1.0523802 -2.0382347 -0.36664057 58 17675150 31 50 53 2323
1.1053169 -1.9607261 -0.38199019 239 17675150 125 51 93 2283
0.83913749 -1.9699796 -0.3816469 271 17675150 128 52 84 2175
0.92078596 -1.9573739 -0.40650049 271 17675150 131 53 94 2201
1.0151626 -1.9676682 -0.43792325 215 17675150 110 54 94 2257
1.0990655 -1.9495573 -0.46591565 443 17675150 232 55 80 2286
0.82768661 -1.9461112 -0.45878339 218 17675150 102 56 128 2164
0.87371492 -1.8598396 -0.46590617 36 17675150 16 57 73 2107
0.99676228 -1.932914 -0.51529998 385 17675150 192 58 95 2235
1.0843434 -1.9238353 -0.5465188 446 17675150 231 59 88 2275
0.77575898 -1.8299541 -0.51006883 174 17675150 73 60 34 2052
0.86737657 -1.8503736 -0.54497731 81 17675150 36 61 51 2115
0.96512282 -1.8724413 -0.58403605 389 17675150 186 62 77 2186
1.0844759 -1.9221874 -0.63664514 399 17675150 211 63 80 2297
0.89733332 -2.123497 0.71956873 344 17772530 201 0 68 2415
0.98528546 -2.104351 0.69742054 346 17772530 204 1 118 2426
1.1088784 -2.1537938 0.70145959 290 17772530 185 2 67 2522
1.079399 -1.9156538 0.61421257 101 17772530 52 3 43 2283
0.80474925 -1.9017161 0.55783188 328 17772530 150 4 89 2139
0.85333312 -1.8246028 0.52269334 480 17772530 208 5 44 2081
1.0483476 -2.0381463 0.57093954 122 17772530 68 6 95 2362
0.90790069 -1.6151096 0.44290274 395 17772530 143 7 78 1905
0.85142732 -2.010946 0.5032388 342 17772530 172 8 113 2241
0.89898461 -1.9202935 0.46641243 354 17772530 167 9 100 2171
0.90910447 -1.7697901 0.4176853 350 17772530 145 10 70 2033
0.95083898 -1.6949557 0.38904369 367 17772530 144 11 46 1982
0.8714332 -2.0572968 0.42867145 454 17772530 235 12 135 2275
0.90742844 -1.9402698 0.38891599 367 17772530 174 13 69 2177
0.95029068 -1.8508432 0.35727894 378 17772530 168 14 108 2111
1.0141995 -1.8089372 0.33667052 396 17772530 175 15 71 2101
0.87115884 -2.0567491 0.34418869 535 17772530 274 16 70 2260
0.94799304 -2.0282044 0.32301742 467 17772530 239 17 102 2262
1.0047643 -1.959548 0.29648745 387 17772530 191 18 109 2222
1.0562365 -1.8866156 0.27034655 367 17772530 174 19 107 2179
0.87351102 -2.0624025 0.26172438 436 17772530 222 20 88 2255
0.96635121 -2.0683281 0.24454014 434 17772530 229 21 106 2296
1.049404 -2.0489843 0.22446375 392 17772530 210 22 83 2313
1.1069649 -1.9797372 0.1999976 407 17772530 211 23 171 2277
0.8704226 -2.05621 0.17878824 405 17772530 203 24 101 2240
0.97103947 -2.0797822 0.16183168 439 17772530 232 25 96 2301
1.0473521 -2.0451539 0.1400124 412 17772530 218 26 121 2302
1.1465883 -2.0534608 0.12107567 397 17772530 220 27 112 2355
0.85659522 -2.0263033 0.095627546 447 17772530 217 28 85 2202
0.96540409 -2.0695968 0.077393778 334 17772530 174 29 51 2285
1.0556867 -2.0662262 0.057233546 363 17772530 196 30 59 2321
1.140892 -2.0450196 0.034988221 420 17772530 231 31 72 2342
0.87362838 -2.0668974 0.01566595 349 17772530 176 32 100 2244
0.94703281 -2.0321567 -0.0056738849 347 17772530 175 33 88 2242
1.0511317 -2.0579317 -0.027588185 351 17772530 188 34 107 2311
1.1228944 -2.0158179 -0.049503028 399 17772530 213 35 103 2308
0.84465683 -2.0010805 -0.064502664 375 17772530 177 36 167 2173
0.92796665 -1.9950627 -0.086066097 380 17772530 184 37 82 2202
1.0432006 -2.0445175 -0.11173599 356 17772530 188 38 161 2298
1.1178919 -2.0067551 -0.13361752 384 17772530 204 39 72 2301
0.82533848 -1.959608 -0.14111835 422 17772530 192 40 114 2131
0.92679882 -1.9949189 -0.16667004 341 17772530 166 41 110 2206
1.0102086 -1.9812245 -0.18987431 389 17772530 193 42 170 2232
1.1146582 -2.0034993 -0.21757179 221 17772530 117 43 67 2303
0.82827199 -1.9684936 -0.22047193 427 17772530 197 44 129 2147
0.91026455 -1.9613892 -0.24361315 352 17772530 167 45 79 2176
1.0197778 -2.0025821 -0.27461791 194 17772530 99 46 116 2264
1.0536567 -1.8949441 -0.28629333 36 17772530 17 47 138 2187
0.82180059 -1.9576998 -0.2979795 406 17772530 187 48 113 2144
0.93414569 -2.0151491 -0.33325928 144 17772530 73 49 61 2246
1.0022527 -1.9707185 -0.35338277 262 17772530 131 50 57 2239
1.0875189 -1.95713 -0.37998238 271 17772530 140 51 86 2271
0.84528589 -2.0186794 -0.39006943 172 17772530 85 52 104 2223
0.89884913 -1.9415821 -0.40206793 264 17772530 125 53 98 2177
0.97640443 -1.921387 -0.42628148 72 17772530 35 54 100 2197
1.0813762 -1.9459953 -0.46346995 431 17772530 223 55 86 2274
0.80668306 -1.9295138 -0.45369524 393 17772530 180 56 124 2140
0.82299888 -1.7801841 -0.44467837 43 17772530 18 57 67 2011
0.97959542 -1.9285828 -0.51253325 405 17772530 200 58 84 2223
1.0668613 -1.9202697 -0.54363608 442 17772530 227 59 72 2263
0.76004517 -1.8239506 -0.50708604 285 17772530 119 60 19 2040
0.87057686 -1.8872467 -0.55425352 88 17772530 41 61 53 2151
0.96408522 -1.89895 -0.59044814 383 17772530 187 62 81 2210
1.0670574 -1.9187289 -0.63331914 403 17772530 211 63 62 2285
0.87989289 -2.1183841 0.71599323 356 17870370 206 0 102 2403
0.9915936 -2.152112 0.71121949 318 17870370 195 1 95 2474
1.0122309 -1.996074 0.64805746 457 17870370 248 2 79 2330
1.1349647 -2.0434861 0.65295398 193 17870370 114 3 62 2427
0.7975145 -1.9173143 0.56096137 369 17870370 171 4 98 2151
0.84212148 -1.8298045 0.52269334 419 17870370 181 5 50 2081
1.0410844 -2.0549276 0.57384014 288 17870370 162 6 123 2374
0.90928656 -1.6410676 0.44848263 399 17870370 149 7 67 1929
0.86153746 -2.0701118 0.51671237 388 17870370 205 8 123 2301
0.90680039 -1.9683516 0.47672465 358 17870370 176 9 103 2219
0.91943568 -1.8172514 0.42754707 369 17870370 160 10 73 2081
0.95180857 -1.7213523 0.3937546 369 17870370 148 11 27 2006
0.85426354 -2.0517254 0.42641032 459 17870370 235 12 126 2263
0.89550608 -1.9458013 0.38891599 360 17870370 171 13 81 2177
0.9495908 -1.8777473 0.36134085 369 17870370 168 14 100 2135
0.99162269 -1.7943918 0.33282471 392 17870370 169 15 73 2077
0.85396397 -2.0511067 0.34236118 433 17870370 219 16 48 2248
0.9404934 -2.0447736 0.32473105 428 17870370 221 17 87 2274
0.99272192 -1.9656762 0.29648745 443 17870370 219 18 87 2222
1.0561465 -1.9139116 0.27332422 374 17870370 182 19 90 2203
0.85625893 -2.05672 0.2603316 453 17870370 228 20 106 2243
0.94367367 -2.052537 0.24198398 405 17870370 209 21 92 2272
1.0314329 -2.0447214 0.22329921 380 17870370 201 22 104 2301
1.1005663 -1.996961 0.20105159 424 17870370 222 23 151 2289
0.85778958 -2.061512 0.17878824 419 17870370 210 24 117 2240
0.93327272 -2.0313153 0.15761182 382 17870370 192 25 97 2241
1.0347836 -2.0515418 0.1400124 417 17870370 221 26 133 2302
1.1224105 -2.0394592 0.11984179 428 17870370 232 27 125 2331
0.84414595 -2.0315211 0.095627546 431 17870370 209 28 95 2202
0.93767762 -2.0427823 0.076174445 350 17870370 177 29 74 2249
1.0214189 -2.0298007 0.056049913 368 17870370 190 30 52 2273
1.0994159 -1.9994116 0.034091856 372 17870370 194 31 86 2282
0.83791012 -2.0168118 0.015247073 349 17870370 167 32 99 2184
0.92954385 -2.0270216 -0.0056435163 340 17870370 169 33 93 2230
1.0276999 -2.0429041 -0.027301678 339 17870370 177 34 110 2287
1.1105044 -2.02267 -0.049503028 385 17870370 205 35 90 2308
0.82776594 -1.9951466 -0.064146452 358 17870370 167 36 144 2161
0.92568809 -2.0225251 -0.08700414 348 17870370 173 37 93 2226
1.025254 -2.0401704 -0.11115251 346 17870370 181 38 152 2286
1.0940264 -1.9925745 -0.13222386 373 17870370 194 39 74 2277
0.82703847 -1.9978248 -0.14350232 397 17870370 186 40 115 2167
0.90956593 -1.9896855 -0.16576339 355 17870370 171 41 130 2194
0.98730147 -1.9660162 -0.18783265 378 17870370 184 42 172 2208
1.1138318 -2.0312507 -0.21983916 163 17870370 88 43 71 2327
0.82073975 -1.9845693 -0.22170421 415 17870370 194 44 104 2159
0.90316594 -1.9777848 -0.24495661 364 17870370 174 45 74 2188
1.0128108 -2.0194488 -0.27607349 198 17870370 103 46 114 2276
1.0991845 -2.0057013 -0.30200216 55 17870370 29 47 136 2307
0.80524063 -1.9517202 -0.29631174 383 17870370 174 48 123 2132
0.92176336 -2.020843 -0.33325928 235 17870370 119 49 74 2246
0.99014175 -1.9768311 -0.35338277 288 17870370 145 50 71 2239
1.0754896 -1.963766 -0.37998238 207 17870370 107 51 87 2271
0.81489962 -1.9801288 -0.3816469 389 17870370 184 52 103 2175
0.87714124 -1.9255958 -0.3976354 404 17870370 187 53 114 2153
0.91191047 -1.8220706 -0.40299803 25 17870370 11 54 65 2077
1.0750587 -1.9628978 -0.46591565 394 17870370 206 55 79 2286
0.79482859 -1.9344271 -0.45369524 426 17870370 195 56 133 2140
0.85567182 -1.881074 -0.46855965 43 17870370 20 57 61 2119
0.95729548 -1.9136714 -0.50699985 302 17870370 146 58 80 2199
1.0550587 -1.9267797 -0.54363608 458 17870370 235 59 94 2263
0.75324422 -1.839336 -0.51006883 302 17870370 127 60 35 2052
0.83502018 -1.8397621 -0.53879315 103 17870370 45 61 33 2091
0.95241535 -1.9048297 -0.59044814 375 17870370 183 62 69 2210
1.0552641 -1.9252402 -0.63331914 421 17870370 220 63 58 2285
0.86254913 -2.1131377 0.71241772 357 17968400 204 0 111 2391
0.93566006 -2.0639436 0.68017191 335 17968400 188 1 113 2366
1.0617645 -2.1259913 0.6881091 294 17968400 180 2 62 2474
1.161252 -2.1213777 0.6755532 331 17968400 208 3 53 2511
0.79888546 -1.9543419 0.57034981 335 17968400 160 4 87 2187
0.85004312 -1.8772616 0.53474969 315 17968400 143 5 48 2129
0.90888822 -1.8216338 0.50712579 462 17968400 203 6 102 2098
0.89920002 -1.646616 0.44848263 418 17968400 156 7 93 1929
0.8443926 -2.0645359 0.51401764 381 17968400 200 8 94 2289
0.90922099 -2.0059018 0.48445883 401 17968400 204 9 99 2255
0.89779299 -1.801836 0.42261621 377 17968400 160 10 81 2057
0.94685912 -1.7374922 0.39611009 369 17968400 150 11 44 2018
0.85504752 -2.0896502 0.43319368 435 17968400 230 12 124 2299
0.89329064 -1.9727708 0.39320356 370 17968400 179 13 84 2201
0.93805128 -1.8835386 0.36134085 347 17968400 158 14 116 2135
0.98625922 -1.8108445 0.33474758 421 17968400 184 15 66 2089
0.84136254 -2.056308 0.34236118 417 17968400 211 16 61 2248
0.93772262 -2.0721469 0.32815829 421 17968400 222 17 114 2298
0.98593807 -1.982379 0.29808867 437 17968400 218 18 98 2234
1.050072 -1.9308165 0.27481306 362 17968400 178 19 98 2215
0.84813637 -2.0729666 0.26172438 429 17968400 218 20 95 2255
0.93106174 -2.0582886 0.24198398 508 17968400 262 21 106 2272
1.0188673 -2.0510116 0.22329921 389 17968400 206 22 89 2301
1.0939978 -2.0141807 0.20210561 454 17968400 240 23 169 2301
0.83606935 -2.0445931 0.17687267 398 17968400 196 24 84 2216
0.93558306 -2.0697267 0.16014375 428 17968400 222 25 89 2277
1.0168476 -2.0471253 0.13928255 436 17968400 229 26 124 2290
1.0927346 -2.0147045 0.11799095 473 17968400 249 27 104 2295
0.83619708 -2.0477612 0.09614867 421 17968400 207 28 81 2214
0.93006194 -2.0594275 0.07658089 341 17968400 174 29 52 2261
1.0249248 -2.0682766 0.056937639 359 17968400 191 30 47 2309
1.1099939 -2.048317 0.034808949 368 17968400 200 31 99 2330
0.82551944 -2.0219152 0.015247073 344 17968400 164 32 119 2184
0.91215384 -2.021749 -0.0056131477 306 17968400 151 33 94 2218
0.99916601 -2.0169153 -0.02687192 340 17968400 172 34 116 2251
1.0980726 -2.0294459 -0.049503028 393 17968400 209 35 104 2308
0.82456541 -2.0224023 -0.064858869 379 17968400 181 36 155 2185
0.9132607 -2.028167 -0.08700414 353 17968400 175 37 88 2226
1.0020844 -2.0249381 -0.10998556 354 17968400 181 38 171 2262
1.0817796 -1.9992498 -0.13222386 364 17968400 189 39 107 2277
0.80574083 -1.9806796 -0.14191301 414 17968400 190 40 122 2143
0.90224832 -2.0061419 -0.16667004 358 17968400 174 41 115 2206
0.98051971 -1.9827546 -0.18885347 393 17968400 193 42 148 2220
1.0729499 -1.9854972 -0.21417077 364 17968400 187 43 67 2267
0.80405319 -1.9785095 -0.22047193 411 17968400 189 44 129 2147
0.89590013 -1.9941664 -0.24630006 345 17968400 167 45 70 2200
0.98457712 -1.9935856 -0.27170676 407 17968400 204 46 107 2240
1.0755502 -1.9914726 -0.29886037 256 17968400 133 47 137 2283
0.79771471 -1.9676371 -0.2979795 402 17968400 185 48 113 2144
0.88505393 -1.9723257 -0.32435656 400 17968400 191 49 62 2186
0.94654393 -1.9191058 -0.34201896 393 17968400 185 50 61 2167
1.0521817 -1.9495057 -0.37596673 91 17968400 46 51 69 2247
0.77616119 -1.9193783 -0.36901307 424 17968400 188 52 115 2103
0.86048651 -1.9201791 -0.39541912 345 17968400 158 53 91 2141
0.95275253 -1.9332242 -0.42628148 23 17968400 11 54 98 2197
1.0629944 -1.9694573 -0.46591565 271 17968400 142 55 72 2286
0.77855384 -1.9283932 -0.45115113 422 17968400 191 56 138 2128
0.83933336 -1.8756067 -0.46590617 171 17968400 76 57 68 2107
0.95585495 -1.9404588 -0.51253325 214 17968400 106 58 90 2223
1.0432163 -1.9332172 -0.54363608 412 17968400 211 59 91 2263
0.72892749 -1.8115737 -0.50112027 256 17968400 104 60 36 2016
0.84735191 -1.8977879 -0.55425352 93 17968400 43 61 37 2151
0.94581753 -1.9210123 -0.59365422 293 17968400 145 62 98 2222
1.0324718 -1.9113901 -0.62666726 405 17968400 207 63 56 2261
0.84956694 -2.1183906 0.71241772 373 18065890 213 0 95 2391
0.82935417 -1.8597071 0.61117727 455 18065890 206 1 76 2126
1.043613 -2.1221228 0.68477142 160 18065890 97 2 65 2462
1.1372391 -2.1081195 0.66909629 379 18065890 235 3 68 2487
0.80846673 -2.0129576 0.58599734 327 18065890 165 4 111 2247
0.84796083 -1.9036626 0.54077786 321 18065890 149 5 55 2153
0.88229007 -1.7958235 0.4984239 484 18065890 206 6 114 2062
0.9001413 -1.6726573 0.45406249 392 18065890 150 7 77 1953
0.83170891 -2.0696781 0.51401764 375 18065890 197 8 106 2289
0.90166879 -2.0221469 0.48703688 529 18065890 272 9 114 2267
0.90223891 -1.838941 0.43001249 389 18065890 170 10 55 2093
0.94174731 -1.7536356 0.39846554 347 18065890 143 11 35 2030
0.84660566 -2.1057918 0.43545482 433 18065890 231 12 146 2311
0.91479844 -2.0537121 0.40820992 394 18065890 206 13 72 2285
0.9368912 -1.9104966 0.36540279 369 18065890 172 14 131 2159
0.9863326 -1.8377355 0.33859345 390 18065890 174 15 80 2113
0.83315319 -2.0724356 0.34418869 439 18065890 225 16 67 2260
0.91533011 -2.0561609 0.32473105 395 18065890 204 17 80 2274
0.98421693 -2.0097525 0.30129105 472 18065890 241 18 80 2258
1.0438294 -1.9477183 0.27630186 406 18065890 201 19 97 2227
0.83095533 -2.0670729 0.2603316 417 18065890 210 20 111 2243
0.91841483 -2.0639627 0.24198398 433 18065890 224 21 104 2272
1.0167589 -2.0786819 0.22562827 548 18065890 296 22 82 2325
1.0759776 -2.0103164 0.20105159 440 18065890 231 23 136 2289
0.81458938 -2.0274858 0.17495708 391 18065890 188 24 97 2192
0.91313857 -2.0535526 0.15845579 420 18065890 213 25 116 2253
1.0095301 -2.0640857 0.1400124 417 18065890 221 26 129 2302
1.0916498 -2.04251 0.11922484 396 18065890 213 27 99 2319
0.81468844 -2.0306003 0.095106408 422 18065890 203 28 83 2190
0.91253895 -2.0541353 0.076174445 330 18065890 167 29 56 2249
1.0122148 -2.0745265 0.056937639 330 18065890 176 30 63 2309
1.0747973 -2.0127525 0.034091856 381 18065890 199 31 98 2282
0.82203287 -2.0492167 0.015414624 352 18065890 172 32 99 2208
0.8997314 -2.0273077 -0.0056131477 329 18065890 162 33 106 2218
0.98677164 -2.0230081 -0.02687192 345 18065890 175 34 120 2251
1.0743109 -2.0149722 -0.048988268 389 18065890 203 35 98 2284
0.80322009 -2.0051544 -0.064146452 375 18065890 175 36 150 2161
0.89108682 -2.0118055 -0.086066097 338 18065890 164 37 110 2202
0.98439056 -2.0202739 -0.10940208 359 18065890 182 38 173 2250
1.0638558 -1.9952787 -0.13152702 365 18065890 187 39 87 2265
0.79801619 -1.9967049 -0.14270768 414 18065890 192 40 127 2155
0.8899219 -2.0116403 -0.16667004 333 18065890 162 41 133 2206
0.96833527 -1.9887335 -0.18885347 397 18065890 195 42 153 2220
1.0551319 -1.9814987 -0.21303707 405 18065890 206 43 80 2255
0.79189813 -1.9834058 -0.22047193 434 18065890 200 44 127 2147
0.87882745 -1.988719 -0.24495661 365 18065890 175 45 78 2188
0.95669949 -1.967453 -0.26734003 392 18065890 190 46 122 2204
1.0241874 -1.9245197 -0.28786421 431 18065890 208 47 153 2199
0.77243501 -1.9393744 -0.29297614 398 18065890 177 48 99 2108
0.8921032 -2.0211458 -0.33147874 367 18065890 183 49 74 2234
0.98133731 -2.0208106 -0.35906467 227 18065890 118 50 83 2275
1.0179794 -1.9141428 -0.36793539 40 18065890 19 51 79 2199
0.77745426 -1.9570422 -0.37532997 418 18065890 191 52 109 2139
0.88198584 -2.0009649 -0.41093302 254 18065890 126 53 111 2225
0.9460116 -1.9496249 -0.42860985 34 18065890 17 54 76 2209
1.0233076 -1.9240806 -0.45368692 289 18065890 143 55 74 2226
0.75805974 -1.9113319 -0.44606298 419 18065890 185 56 112 2104
0.8325237 -1.8914328 -0.46855965 173 18065890 78 57 71 2119
0.93883514 -1.9357811 -0.50976658 278 18065890 136 58 80 2211
1.0258659 -1.929297 -0.54075336 435 18065890 221 59 78 2251
0.76479685 -1.9349178 -0.53393167 118 18065890 54 60 48 2148
0.8496778 -1.9348 -0.56352973 204 18065890 97 61 52 2187
0.93401265 -1.9267796 -0.59365422 96 18065890 47 62 57 2222
1.0153068 -1.9075112 -0.62334126 381 18065890 193 63 64 2249
0.83655274 -2.1235635 0.71241772 384 18163370 220 0 92 2391
0.79484397 -1.8121336 0.59392858 446 18163370 191 1 85 2066
0.97531813 -2.0143676 0.64805746 56 18163370 30 2 47 2330
1.1188576 -2.1048522 0.66586781 331 18163370 203 3 64 2475
0.79610026 -2.0178804 0.58599734 401 18163370 202 4 115 2247
0.84558624 -1.9301078 0.54680604 358 18163370 169 5 44 2177
0.87632489 -1.8116857 0.50132453 477 18163370 205 6 106 2074
0.89532882 -1.6884602 0.45685247 306 18163370 118 7 82 1965
0.82758111 -2.0964961 0.51940709 456 18163370 244 8 109 2313
0.88924414 -2.0276415 0.48703688 585 18163370 301 9 119 2267
0.92669511 -1.9184667 0.44727051 432 18163370 205 10 89 2177
0.94747913 -1.7905818 0.40553188 391 18163370 167 11 55 2066
0.83366883 -2.1109469 0.43545482 414 18163370 221 12 136 2311
0.90691781 -2.0701013 0.41035372 511 18163370 270 13 60 2297
0.93543518 -1.9375104 0.36946467 381 18163370 182 14 103 2183
1.0027248 -1.8961076 0.34820801 412 18163370 195 15 72 2173
0.80735272 -2.044416 0.33870608 420 18163370 208 16 68 2224
0.90746003 -2.0726182 0.32644466 531 18163370 278 17 109 2286
0.98219663 -2.037179 0.30449343 466 18163370 243 18 92 2282
1.0429791 -1.9751453 0.27927953 402 18163370 204 19 116 2251
0.81387877 -2.0610468 0.25893885 396 18163370 197 20 93 2231
0.91051716 -2.0804901 0.24326208 405 18163370 211 21 121 2284
0.98325783 -2.0418389 0.22097015 420 18163370 218 22 81 2277
1.0691984 -2.0274541 0.20210561 403 18163370 213 23 125 2301
0.80652481 -2.0435722 0.17591487 414 18163370 201 24 89 2204
0.90531749 -2.0700843 0.15929976 418 18163370 214 25 97 2265
0.98645324 -2.0486574 0.13855268 395 18163370 205 26 134 2278
1.0735128 -2.0385661 0.1186079 375 18163370 200 27 104 2307
0.79781795 -2.0244074 0.094585285 449 18163370 213 28 64 2178
0.89511609 -2.0487058 0.075768001 342 18163370 171 29 56 2237
0.99946672 -2.0806983 0.056937639 329 18163370 175 30 42 2309
1.0680139 -2.0299282 0.034271128 370 18163370 195 31 78 2294
0.79624617 -2.0207293 0.015163299 339 18163370 160 32 91 2172
0.88247472 -2.0217922 -0.0055827787 332 18163370 162 33 91 2206
0.97953421 -2.0398412 -0.02701517 331 18163370 170 34 114 2263
1.0507684 -2.000284 -0.0484735 376 18163370 192 35 93 2260
0.80846906 -2.054692 -0.065571271 340 18163370 166 36 153 2209
0.86914849 -1.9952492 -0.085128047 352 18163370 167 37 77 2178
0.96679205 -2.0154693 -0.10881861 368 18163370 184 38 155 2238
1.0515928 -2.0017688 -0.13152702 369 18163370 189 39 97 2265
0.77262336 -1.9681271 -0.1403237 406 18163370 182 40 112 2119
0.86801463 -1.9951184 -0.16485678 345 18163370 164 41 119 2182
0.94577807 -1.9730742 -0.18681182 377 18163370 182 42 157 2196
1.059604 -2.0196722 -0.21643811 396 18163370 208 43 83 2291
0.77971327 -1.9882275 -0.22047193 430 18163370 198 44 125 2147
0.86660838 -1.994074 -0.24495661 345 18163370 165 45 84 2188
0.94975251 -1.9840301 -0.26879561 378 18163370 186 46 111 2216
1.0455065 -1.9939852 -0.29728952 203 18163370 105 47 128 2271
0.7691794 -1.9662114 -0.29631174 383 18163370 174 48 105 2132
0.86078382 -1.9830382 -0.32435656 361 18163370 173 49 89 2186
0.94336545 -1.97334 -0.34959486 209 18163370 102 50 49 2215
0.9787606 -1.867956 -0.35789624 41 18163370 19 51 76 2139
0.75254899 -1.9287584 -0.36901307 383 18163370 169 52 96 2103
0.86031061 -1.9846977 -0.40650049 240 18163370 116 53 121 2201
0.94925302 -1.9872597 -0.43559489 101 18163370 51 54 77 2245
1.000577 -1.9095112 -0.44879544 249 18163370 121 55 70 2202
0.74631774 -1.9159473 -0.44606298 413 18163370 183 56 126 2104
0.83949763 -1.9394653 -0.47917351 233 18163370 110 57 78 2167
0.92190886 -1.9309678 -0.50699985 206 18163370 100 58 90 2199
1.008603 -1.9252368 -0.53787059 423 18163370 212 59 95 2239
0.7739411 -1.9937522 -0.54884601 120 18163370 58 60 43 2208
0.82399929 -1.9080433 -0.55425352 153 18163370 71 61 45 2151
0.88233072 -1.8489832 -0.5680058 64 18163370 29 62 62 2126
1.0035836 -1.9137051 -0.62334126 392 18163370 198 63 72 2249
0.81524104 -2.1072898 0.70526671 384 18260480 215 0 89 2367
0.78370994 -1.8169764 0.59392858 443 18260480 189 1 77 2066
0.98277718 -2.0619342 0.66140795 46 18260480 26 2 44 2378
1.0630251 -2.0297704 0.64004022 433 18260480 245 3 77 2379
0.80463046 -2.0767386 0.60164475 410 18260480 218 4 96 2307
0.84751433 -1.9672624 0.5558483 382 18260480 187 5 82 2213
0.87019807 -1.8275418 0.50422519 485 18260480 211 6 113 2086
1.0308673 -1.9732251 0.53218079 209 18260480 110 7 77 2289
0.80624819 -2.0797286 0.51401764 564 18260480 296 8 87 2289
0.88606828 -2.0545828 0.49219298 520 18260480 273 9 101 2291
0.93507868 -1.9665411 0.45713225 400 18260480 198 10 93 2225
0.9364745 -1.7963617 0.40553188 400 18260480 171 11 52 2066
0.82070059 -2.1160226 0.43545482 422 18260480 225 12 143 2311
0.89419883 -2.0756271 0.41035372 444 18260480 234 13 87 2297
0.92352921 -1.9432136 0.36946467 369 18260480 176 14 120 2183
0.98012555 -1.8812151 0.3443622 385 18260480 178 15 81 2149
0.79050475 -2.0382738 0.33687851 412 18260480 202 16 85 2212
0.88063538 -2.0454206 0.32130378 437 18260480 221 17 82 2250
0.96967828 -2.0431671 0.30449343 431 18260480 225 18 78 2282
1.0308402 -1.9815078 0.27927953 397 18260480 201 19 90 2251
0.80121708 -2.0660019 0.25893885 401 18260480 200 20 92 2231
0.88830101 -2.0641177 0.24070589 470 18260480 240 21 103 2260
0.98094225 -2.0694182 0.22329921 395 18260480 209 22 83 2301
1.056738 -2.0339763 0.20210561 388 18260480 205 23 144 2301
0.7896477 -2.0373294 0.17495708 390 18260480 188 24 91 2192
0.8878696 -2.0646038 0.15845579 400 18260480 203 25 97 2253
0.97386438 -2.0546718 0.13855268 383 18260480 199 26 136 2278
1.0554653 -2.034477 0.11799095 380 18260480 200 27 128 2295
0.78538138 -2.0292645 0.094585285 409 18260480 194 28 97 2178
0.89199704 -2.0761981 0.07658089 339 18260480 174 29 65 2261
0.97642535 -2.0651014 0.056345824 312 18260480 163 30 53 2285
1.0389737 -2.0044851 0.033733308 373 18260480 190 31 87 2258
0.80115443 -2.0703409 0.015498398 353 18260480 174 32 103 2220
0.860587 -2.0051146 -0.0055220416 358 18260480 171 33 101 2182
0.96699953 -2.0458131 -0.02701517 346 18260480 177 34 93 2263
1.0439891 -2.0173488 -0.048730884 377 18260480 195 35 81 2272
0.78287661 -2.0260487 -0.064502664 340 18260480 160 36 151 2173
0.86161059 -2.0115666 -0.085597068 357 18260480 171 37 76 2190
0.95952457 -2.0322018 -0.10940208 364 18260480 184 38 147 2250
1.0392904 -2.0081837 -0.13152702 370 18260480 190 39 99 2265
0.76053262 -1.9728308 -0.1403237 416 18260480 187 40 106 2119
0.85575646 -2.000407 -0.16485678 363 18260480 173 41 110 2182
0.93365371 -1.9788402 -0.18681182 376 18260480 181 42 164 2196
1.0252514 -1.9836849 -0.21190339 395 18260480 199 43 85 2243
0.76320934 -1.9818351 -0.21923967 430 18260480 196 44 122 2135
0.84029961 -1.9664577 -0.24092625 340 18260480 158 45 80 2152
0.93756086 -1.9898204 -0.26879561 373 18260480 183 46 115 2216
1.0332519 -2.0003626 -0.29728952 193 18260480 99 47 140 2271
0.75710052 -1.970894 -0.29631174 410 18260480 186 48 81 2132
0.83928323 -1.9664533 -0.32079548 366 18260480 171 49 65 2162
0.92114937 -1.9576474 -0.34580693 211 18260480 101 50 66 2191
0.95642745 -1.8529005 -0.35388055 30 18260480 13 51 56 2115
0.74070019 -1.9333397 -0.36901307 400 18260480 177 52 108 2103
0.83424455 -1.9573913 -0.39985168 247 18260480 116 53 87 2165
0.91700679 -1.9504337 -0.42628148 264 18260480 128 54 76 2197
1.0050079 -1.9469327 -0.45613268 252 18260480 126 55 77 2238
0.72616881 -1.8985839 -0.44097483 391 18260480 169 56 102 2080
0.83216435 -1.9553483 -0.48182702 426 18260480 202 57 66 2179
0.90011108 -1.9154522 -0.50146645 57 18260480 27 58 64 2175
0.99677092 -1.9313892 -0.53787059 432 18260480 217 59 86 2239
0.75341374 -1.976741 -0.5428803 325 18260480 155 60 55 2184
0.80321324 -1.8917183 -0.54806936 159 18260480 72 61 44 2127
0.85622066 -1.8229619 -0.55838764 70 18260480 31 62 62 2090
0.97065413 -1.8788525 -0.61003745 408 18260480 198 63 60 2201
0.79822814 -2.1015439 0.70169121 367 18357330 204 0 78 2355
0.79049528 -1.8640764 0.60772753 390 18357330 174 1 90 2114
1.0092702 -2.151408 0.6881091 175 18357330 107 2 41 2474
1.0293542 -1.9951701 0.6271264 411 18357330 224 3 83 2331
0.7959916 -2.0924642 0.60477424 409 18357330 220 4 93 2319
0.84448767 -1.9938165 0.56187648 365 18357330 183 5 70 2237
0.86390936 -1.8433905 0.50712579 363 18357330 160 6 112 2098
0.96533346 -1.875738 0.5042814 368 18357330 173 7 103 2169
0.7893123 -2.0737081 0.51132292 412 18357330 214 8 96 2277
0.87801993 -2.070771 0.49477103 419 18357330 222 9 96 2303
0.9329505 -1.9935151 0.4620631 414 18357330 210 10 80 2249
0.91468418 -1.78114 0.400821 380 18357330 158 11 48 2042
0.80770147 -2.1210184 0.43545482 426 18357330 228 12 116 2311
0.87223643 -2.0593307 0.40606615 447 18357330 231 13 69 2273
0.92662156 -1.9809822 0.37555754 368 18357330 181 14 121 2219
0.97397256 -1.8977315 0.34628507 419 18357330 196 15 98 2161
0.79064482 -2.0763366 0.34236118 425 18357330 215 16 66 2248
0.87269807 -2.061723 0.32301742 417 18357330 213 17 99 2262
0.97222263 -2.081404 0.309297 435 18357330 234 18 99 2318
1.0186625 -1.9877956 0.27927953 402 18357330 204 19 124 2251
0.79276645 -2.0820177 0.2603316 389 18357330 196 20 106 2243
0.88491774 -2.0915067 0.24326208 434 18357330 226 21 114 2284
0.95812726 -2.0537512 0.22097015 446 18357330 231 22 90 2277
1.0605754 -2.0723453 0.20526762 410 18357330 224 23 115 2337
0.76011449 -1.9974178 0.1711259 363 18357330 167 24 73 2144
0.87052333 -2.0589874 0.15761182 418 18357330 210 25 95 2241
0.9612388 -2.0606086 0.13855268 388 18357330 201 26 134 2278
1.0429622 -2.0409148 0.11799095 396 18357330 208 27 131 2295
0.76865673 -2.0228384 0.094064154 441 18357330 207 28 79 2166
0.87924093 -2.0816321 0.07658089 327 18357330 167 29 59 2261
0.95867449 -2.0601773 0.056049913 325 18357330 168 30 55 2273
1.0321109 -2.0215089 0.033912584 378 18357330 195 31 93 2270
0.7756505 -2.0415657 0.015247073 349 18357330 167 32 91 2184
0.85293263 -2.0214131 -0.0055524101 350 18357330 169 33 83 2194
0.94430637 -2.0299489 -0.026728665 326 18357330 164 34 111 2239
1.0261426 -2.0130279 -0.0484735 349 18357330 178 35 86 2260
0.77043027 -2.0308142 -0.064502664 382 18357330 180 36 135 2173
0.85390508 -2.0278666 -0.086066097 350 18357330 170 37 72 2202
