# .PCD v0.7 - Point Cloud Data file format
VERSION 0.7
FIELDS x y z intensity t reflectivity ring noise range
SIZE 4 4 4 4 4 2 1 2 4
TYPE F F F F U U U U U
COUNT 1 1 1 1 1 1 1 1 1
WIDTH 791
HEIGHT 1
VIEWPOINT 0 0 0 1 0 0 0
POINTS 791
DATA ascii
5.0563183 4.8998384 -1.8776594 539 87343750 2861 61 23 7287
4.3032551 4.4956412 -1.725391 693 87343750 2889 62 42 6458
3.9672575 4.4708748 -1.7242357 484 87343750 1872 63 43 6221
4.7261553 4.2393456 1.9817191 829 87440920 3665 0 51 6651
4.4933891 4.3504448 1.8772284 853 87440920 3640 1 63 6530
4.3153782 4.5041242 1.8062167 757 87440920 3191 2 44 6494
4.0931087 4.6075869 1.721571 862 87440920 3528 3 45 6399
4.7947764 4.3052797 1.7407798 855 87440920 3811 4 70 6675
4.5700788 4.4208331 1.6499627 835 87440920 3602 5 28 6569
4.3746057 4.5624337 1.5745555 812 87440920 3444 6 57 6514
4.1652136 4.6792068 1.4974996 840 87440920 3483 7 56 6441
4.9129081 4.4130559 1.5218425 712 87440920 3271 8 79 6777
4.6726327 4.5235124 1.4306036 786 87440920 3486 9 92 6659
4.443748 4.6295285 1.3471533 799 87440920 3434 10 34 6557
4.237957 4.7525687 1.2746972 822 87440920 3465 11 41 6494
4.966733 4.4628143 1.2811152 794 87440920 3672 12 77 6799
4.772779 4.6169138 1.2056932 733 87440920 3341 13 77 6749
4.5292487 4.7167912 1.1229492 757 87440920 3330 14 52 6635
4.3140106 4.8354783 1.0519953 794 87440920 3420 15 50 6565
5.0667791 4.5525498 1.0496233 776 87440920 3685 16 37 6892
4.8284793 4.6686749 0.96905226 777 87440920 3576 17 47 6786
4.6167698 4.8027315 0.89693457 727 87440920 3283 18 46 6722
4.3991809 4.9248848 0.82567984 761 87440920 3373 19 60 6655
5.1326499 4.6115732 0.80629683 713 87440920 3443 20 72 6947
4.9186673 4.7543836 0.73276836 741 87440920 3509 21 68 6880
4.701508 4.8862724 0.66116363 768 87440920 3563 22 46 6813
4.4999843 5.0322514 0.59524977 795 87440920 3653 23 91 6777
5.247643 4.7130718 0.56477934 736 87440920 3687 24 68 7076
5.0168719 4.8467679 0.49182484 770 87440920 3767 25 63 6993
4.7740574 4.9613266 0.41955063 765 87440920 3641 26 77 6898
4.5584278 5.0915241 0.35181355 815 87440920 3818 27 68 6843
5.358449 4.8078613 0.31293917 793 87440920 4120 28 68 7206
5.1115417 4.9347792 0.24078441 748 87440920 3779 29 36 7109
4.8909097 5.0731835 0.17382132 814 87440920 4043 30 32 7049
4.6532297 5.1935811 0.10418782 863 87440920 4199 31 76 6974
5.4484839 4.8881302 0.051102828 734 87440920 3935 32 67 7320
5.1975942 5.0141768 -0.018276894 797 87440920 4155 33 55 7222
4.9856772 5.1702189 -0.085749 777 87440920 4007 34 53 7183
4.7454929 5.289681 -0.1524556 888 87440920 4484 35 50 7108
5.565465 4.9881735 -0.22194496 792 87440920 4428 36 99 7477
5.3066974 5.1119251 -0.28821588 809 87440920 4397 37 41 7374
5.0731626 5.2565336 -0.35562971 816 87440920 4364 38 128 7314
4.8378124 5.392777 -0.42140913 906 87440920 4773 39 79 7257
5.6711397 5.0748606 -0.50507259 858 87440920 4993 40 78 7627
5.4128432 5.2094417 -0.56921673 860 87440920 4884 41 64 7534
5.1660419 5.3497796 -0.634956 870 87440920 4847 42 104 7464
4.9323235 5.4921484 -0.70051879 929 87440920 5110 43 75 7415
5.8006673 5.1871238 -0.8033312 881 87440920 5394 44 88 7823
5.538136 5.3257451 -0.86563271 874 87440920 5223 45 38 7732
5.2707634 5.4525094 -0.92671412 905 87440920 5285 46 83 7640
5.0430536 5.6126876 -0.99633229 924 87440920 5353 47 101 7611
5.9188461 5.283886 -1.1135317 902 87440920 5792 48 73 8012
5.6578417 5.4361105 -1.1772392 823 87440920 5178 49 52 7934
5.3938932 5.5740418 -1.2397596 896 87440920 5526 50 49 7855
4.6053758 5.1226935 -1.1690607 113 87440920 550 51 36 6987
6.0703392 5.4094253 -1.4492054 899 87440920 6134 52 85 8259
5.7807631 5.5485907 -1.5057695 894 87440920 5945 53 68 8153
4.5782533 4.7281871 -1.3017399 580 87440920 2609 54 49 6709
4.0488229 4.5037823 -1.260785 82 87440920 313 55 21 6186
6.2135215 5.5307956 -1.8046045 904 87440920 6551 56 86 8512
4.7776465 4.5809584 -1.5007617 82 87440920 376 57 49 6787
4.4134765 4.5562634 -1.503016 28 87440920 118 58 25 6519
4.2492151 4.725862 -1.5727731 650 87440920 2784 59 55 6547
4.9017916 4.3529325 -1.6823323 58 87440920 265 60 22 6768
5.1281672 4.9088092 -1.8931197 307 87440920 1656 61 29 7347
4.4595146 4.6020226 -1.7766879 120 87440920 530 62 22 6650
4.0485535 4.5064869 -1.7475175 428 87440920 1700 63 45 6305
4.7520785 4.2102666 1.9817191 799 87538500 3532 0 55 6651
4.5366111 4.3386798 1.8841279 860 87538500 3693 1 46 6554
4.3589835 4.4941082 1.812892 720 87538500 3060 2 71 6518
4.1367607 4.5995722 1.7280279 838 87538500 3456 3 33 6423
4.8471041 4.2988391 1.7501682 846 87538500 3811 4 85 6711
4.6223121 4.4167819 1.659005 817 87538500 3563 5 34 6605
4.4106278 4.5438614 1.5774561 805 87538500 3430 6 65 6526
4.1938462 4.6535616 1.4974996 851 87538500 3532 7 65 6441
4.9311466 4.3750672 1.5191478 794 87538500 3636 8 70 6765
4.7087708 4.5028563 1.4331818 761 87538500 3388 9 82 6671
4.4884396 4.61902 1.3520842 776 87538500 3360 10 39 6581
4.2670383 4.7264757 1.2746972 814 87538500 3431 11 54 6494
5.0116515 4.4479008 1.2856375 769 87538500 3582 12 78 6823
4.8010178 4.5875416 1.2056932 779 87538500 3550 13 79 6749
4.5745931 4.7058721 1.1270112 729 87538500 3234 14 64 6659
4.359478 4.8264971 1.0558411 809 87538500 3510 15 41 6589
5.103488 4.5292473 1.0514508 781 87538500 3722 16 37 6904
4.8742127 4.6553669 0.97247952 790 87538500 3662 17 50 6810
4.6544461 4.7828364 0.89853579 724 87538500 3281 18 45 6734
4.4373031 4.9066305 0.82716864 763 87538500 3389 19 54 6667
5.1965079 4.6116385 0.81186789 709 87538500 3471 20 83 6995
4.9477472 4.7241135 0.73276836 726 87538500 3439 21 59 6880
4.7480683 4.8744435 0.66349268 783 87538500 3659 22 48 6837
4.5387998 5.0134068 0.59630376 748 87538500 3448 23 105 6789
5.276463 4.6807842 0.56477934 718 87538500 3593 24 55 7076
5.0465169 4.8158937 0.49182484 757 87538500 3704 25 65 6993
4.8211255 4.9490995 0.42101038 757 87538500 3627 26 94 6922
4.6056795 5.0812168 0.35304743 796 87538500 3754 27 80 6867
5.3878489 4.7748923 0.31293917 810 87538500 4209 28 64 7206
5.1590834 4.9198766 0.24159729 745 87538500 3789 29 34 7133
4.930325 5.0516634 0.17411722 779 87538500 3883 30 24 7061
4.7011318 5.1827054 0.10454636 841 87538500 4120 31 78 6998
5.4873552 4.862565 0.051186603 755 87538500 4060 32 76 7332
5.2456374 4.9987473 -0.018337632 793 87538500 4162 33 46 7246
5.034071 5.156702 -0.086035497 785 87538500 4080 34 65 7207
4.7939925 5.2782254 -0.15297037 874 87538500 4447 35 71 7132
5.5959668 4.9539304 -0.22194496 777 87538500 4345 36 80 7477
5.3466501 5.087533 -0.2886849 784 87538500 4275 37 57 7386
5.1220732 5.2424531 -0.35679665 806 87538500 4339 38 132 7338
4.8949733 5.389595 -0.42349961 902 87538500 4796 39 53 7293
5.7201152 5.0558267 -0.50666189 854 87538500 5001 40 71 7651
5.4707227 5.2008638 -0.57193661 859 87538500 4920 41 56 7570
5.223845 5.3436303 -0.63801849 900 87538500 5063 42 96 7500
4.9739661 5.4706197 -0.70165253 933 87538500 5149 43 59 7427
5.8592253 5.1751399 -0.80702794 781 87538500 4827 44 68 7859
5.5793557 5.2998762 -0.8669762 885 87538500 5305 45 41 7744
5.3291135 5.4456058 -0.93108088 884 87538500 5210 46 94 7676
5.0854025 5.5904384 -0.99790311 929 87538500 5399 47 106 7623
5.9778967 5.2710476 -1.118535 876 87538500 5677 48 59 8048
5.7255211 5.4339695 -1.1843613 807 87538500 5139 49 43 7982
5.4445777 5.5577698 -1.2435474 908 87538500 5634 50 44 7879
5.2100897 5.7242956 -1.3136247 729 87538500 4495 51 97 7851
6.1211519 5.3876867 -1.4534166 894 87538500 6137 52 62 8283
5.8318162 5.5292439 -1.5102018 891 87538500 5960 53 77 8177
4.640141 4.7336335 -1.3110534 492 87538500 2248 54 65 6757
4.0684738 4.4701657 -1.2583392 64 87538500 243 55 27 6174
6.2825704 5.5235391 -1.814781 887 87538500 6500 56 103 8560
5.1455383 4.8734589 -1.6069008 74 87538500 389 57 35 7267
4.44135 4.5290971 -1.503016 31 87538500 130 58 35 6519
4.2859735 4.7083144 -1.5756558 364 87538500 1568 59 65 6559
4.8934555 4.2921157 -1.6704009 34 87538500 153 60 13 6720
5.200316 4.9170818 -1.9085802 434 87538500 2380 61 21 7407
4.422884 4.5085344 -1.7510395 53 87538500 227 62 23 6554
4.0838866 4.4900904 -1.7508434 523 87538500 2085 63 45 6317
4.8036838 4.20366 1.9924456 772 87636180 3454 0 61 6687
4.5715022 4.318655 1.8875777 880 87636180 3796 1 65 6566
4.3784013 4.4590535 1.8095545 682 87636180 2885 2 47 6506
4.157124 4.565557 1.7247994 843 87636180 3464 3 39 6411
4.8733902 4.2690167 1.7501682 835 87636180 3762 4 67 6711
4.6662197 4.4042821 1.6650331 837 87636180 3676 5 37 6629
4.4547482 4.5333233 1.5832573 813 87636180 3490 6 70 6550
4.222321 4.6277409 1.4974996 792 87636180 3288 7 63 6441
4.9754877 4.3601413 1.5245373 799 87636180 3684 8 71 6789
4.736311 4.4738789 1.4331818 760 87636180 3384 9 71 6671
4.5166965 4.5913925 1.3520842 817 87636180 3537 10 41 6581
4.3356504 4.7436314 1.2864745 804 87636180 3452 11 42 6554
5.0477114 4.4248347 1.2878987 785 87636180 3669 12 75 6835
4.8290763 4.5579967 1.2056932 797 87636180 3633 13 58 6749
4.6116772 4.6861439 1.1290421 746 87636180 3321 14 73 6671
4.3890109 4.7996569 1.0558411 784 87636180 3402 15 34 6589
5.1490202 4.5134835 1.0551059 760 87636180 3647 16 40 6928
4.911325 4.633522 0.97419316 757 87636180 3521 17 54 6822
4.6920519 4.7626591 0.90013701 736 87636180 3351 18 67 6746
4.4673262 4.8793116 0.82716864 788 87636180 3504 19 70 6667
5.2515955 4.6032357 0.81604618 657 87636180 3246 20 46 7031
5.0113616 4.7264128 0.73788077 743 87636180 3568 21 72 6928
4.7946601 4.8622265 0.66582179 787 87636180 3703 22 51 6861
4.5694757 4.9854631 0.59630376 796 87636180 3670 23 92 6789
5.3320751 4.6719694 0.5676527 735 87636180 3720 24 62 7112
5.1195235 4.825892 0.4960447 696 87636180 3460 25 49 7053
4.8682227 4.936481 0.42247009 756 87636180 3648 26 80 6946
4.6448736 5.0616908 0.35366437 802 87636180 3797 27 61 6879
5.4441085 4.7654324 0.31450257 765 87636180 4010 28 53 7242
5.206634 4.9045753 0.2424102 711 87636180 3640 29 36 7157
4.9949546 5.0554509 0.17530085 738 87636180 3729 30 21 7109
4.7409596 5.1626 0.10472564 849 87636180 4174 31 79 7010
5.5622363 4.8683195 0.051605478 705 87636180 3849 32 55 7392
5.3111615 4.9993658 -0.018459106 774 87636180 4116 33 55 7294
5.0740519 5.1342511 -0.086178757 747 87636180 3895 34 68 7219
4.8506503 5.2752042 -0.15374251 814 87636180 4179 35 55 7168
5.6533475 4.9431872 -0.22301358 784 87636180 4427 36 81 7513
5.4127154 5.0874801 -0.29056102 768 87636180 4247 37 58 7434
5.1625724 5.2194471 -0.35738015 858 87636180 4634 38 136 7350
4.9198427 5.3506403 -0.42280278 866 87636180 4589 39 54 7281
5.7871094 5.0521317 -0.50984055 845 87636180 5010 40 81 7699
5.5286994 5.1917715 -0.57465655 760 87636180 4398 41 78 7606
5.273355 5.3284736 -0.64006013 862 87636180 4881 42 84 7524
5.0074396 5.4399972 -0.70165253 905 87636180 4994 43 76 7427
5.9088588 5.1547847 -0.80949247 846 87636180 5259 44 96 7883
5.6291618 5.2818608 -0.86966312 868 87636180 5235 45 50 7768
5.3708096 5.4212661 -0.93253642 910 87636180 5381 46 84 7688
5.1357279 5.576632 -1.0010449 867 87636180 5072 47 79 7647
6.0280495 5.2498779 -1.1218706 888 87636180 5788 48 78 8072
5.7674131 5.4068527 -1.186142 886 87636180 5660 49 34 7994
5.4785771 5.5242581 -1.2435474 899 87636180 5578 50 47 7879
5.2370982 5.6835189 -1.3116169 941 87636180 5785 51 62 7839
6.1986737 5.3887811 -1.4639448 774 87636180 5390 52 77 8343
5.9086733 5.5336652 -1.5212833 885 87636180 6008 53 61 8237
4.7520189 4.7886319 -1.3343368 321 87636180 1520 54 63 6877
4.1674728 4.5228748 -1.2803509 43 87636180 169 55 30 6282
6.3163438 5.4848862 -1.814781 886 87636180 6493 56 91 8560
5.0813379 4.7538466 -1.5777125 218 87636180 1108 57 45 7135
4.3950176 4.4271798 -1.4781154 26 87636180 106 58 19 6411
4.4647703 4.8446779 -1.6304277 368 87636180 1697 59 75 6787
4.9987659 4.3305058 -1.6972467 71 87636180 330 60 21 6828
5.2981782 4.9483948 -1.9333167 221 87636180 1242 61 39 7503
4.4097219 4.4402862 -1.7350092 64 87636180 269 62 33 6494
4.1660309 4.5243201 -1.7741252 526 87636180 2154 63 44 6401
4.8380527 4.1815963 1.996021 766 87733250 3439 0 71 6699
4.5979147 4.2905235 1.8875777 847 87733250 3650 1 52 6566
4.4544358 4.481153 1.8295802 714 87733250 3087 2 54 6578
4.192893 4.5484614 1.7280279 839 87733250 3460 3 55 6423
4.9257751 4.2617736 1.7595567 836 87733250 3807 4 79 6747
4.7101474 4.3914094 1.6710614 808 87733250 3574 5 38 6653
4.4906926 4.5141592 1.586158 781 87733250 3364 6 78 6562
4.2743945 4.6274657 1.5058694 794 87733250 3333 7 58 6477
5.0198307 4.3448358 1.5299267 793 87733250 3683 8 66 6813
4.7808108 4.4607239 1.4383378 741 87733250 3323 9 81 6695
4.5696449 4.5885563 1.3594804 794 87733250 3476 10 34 6617
4.3486924 4.699666 1.2817636 792 87733250 3376 11 34 6530
5.0925856 4.4092069 1.2924209 793 87733250 3733 12 76 6859
4.8828602 4.5524344 1.2121245 777 87733250 3576 13 47 6785
4.6319966 4.6493802 1.1270112 767 87733250 3403 14 58 6659
4.4344721 4.7900205 1.0596869 809 87733250 3535 15 56 6613
5.1855841 4.4895678 1.0569335 763 87733250 3673 16 54 6940
4.9570408 4.6194935 0.9776203 764 87733250 3579 17 53 6846
4.7295847 4.7422004 0.90173823 772 87733250 3523 18 57 6758
4.5295591 4.8867397 0.83312392 814 87733250 3673 19 65 6715
5.2797413 4.5709257 0.81604618 712 87733250 3518 20 57 7031
5.0577283 4.7118406 0.74043691 764 87733250 3694 21 71 6952
4.8412795 4.8496203 0.66815084 769 87733250 3644 22 30 6885
4.5918493 4.9485688 0.59524977 780 87733250 3583 23 99 6777
5.3787308 4.6548195 0.56956828 726 87733250 3699 24 70 7136
5.1577988 4.802546 0.49688867 752 87733250 3751 25 50 7065
4.9068832 4.9149938 0.42319995 747 87733250 3617 26 103 6958
4.6921573 5.0506554 0.35489827 822 87733250 3918 27 69 6903
5.491384 4.7476196 0.31554484 809 87733250 4270 28 42 7266
5.26297 4.8970447 0.24362952 707 87733250 3656 29 51 7193
5.0173965 5.0162253 0.17500494 763 87733250 3842 30 29 7097
4.7807174 5.1422005 0.10490491 852 87733250 4204 31 58 7022
5.6010809 4.8419461 0.051689252 743 87733250 4071 32 51 7404
5.3329492 4.9585123 -0.018428739 763 87733250 4044 33 55 7282
5.1224332 5.1199861 -0.086465262 768 87733250 4027 34 56 7243
4.8829269 5.2453423 -0.15374251 887 87733250 4559 35 75 7168
5.7198839 4.9397655 -0.22443838 797 87733250 4557 36 99 7561
5.4438295 5.0541725 -0.29056102 761 87733250 4208 37 63 7434
5.2029819 5.1961417 -0.35796362 829 87733250 4492 38 130 7362
4.9770684 5.3466578 -0.42489329 879 87733250 4709 39 60 7317
5.8270679 5.0243464 -0.5106352 860 87733250 5115 40 82 7711
5.5604515 5.1577506 -0.57465655 848 87733250 4907 41 90 7606
5.3144131 5.3044629 -0.64108098 892 87733250 5066 42 94 7536
5.0651579 5.4353886 -0.70505351 909 87733250 5065 43 74 7463
5.9584622 5.1340151 -0.811957 844 87733250 5279 44 91 7907
5.6877022 5.2715392 -0.87369347 855 87733250 5206 45 32 7804
5.4208426 5.4050303 -0.93544757 904 87733250 5379 46 81 7712
5.1860743 5.5624175 -1.0041866 922 87733250 5426 47 93 7671
6.0871763 5.2360401 -1.1268741 873 87733250 5741 48 78 8108
5.8178949 5.3874888 -1.1897031 867 87733250 5571 49 43 8018
5.5375571 5.515625 -1.2492294 893 87733250 5591 50 56 7915
5.2799435 5.6599288 -1.3136247 951 87733250 5865 51 61 7851
6.2495484 5.3660374 -1.4681561 835 87733250 5849 52 65 8367
5.9425163 5.4973063 -1.5212833 854 87733250 5797 53 67 8237
4.9064589 4.8839569 -1.369262 156 87733250 775 54 55 7057
4.2031598 4.5058093 -1.2827967 71 87733250 281 55 18 6294
6.3854866 5.4765654 -1.8249574 882 87733250 6537 56 93 8608
5.0502462 4.6669798 -1.5591382 567 87733250 2816 57 55 7051
4.4634857 4.4413095 -1.4919491 34 87733250 142 58 14 6471
4.5738778 4.9023638 -1.6592553 608 87733250 2903 59 67 6907
5.1047287 4.3677626 -1.7240924 18 87733250 86 60 25 6936
5.3199191 4.9079304 -1.9302245 276 87733250 1548 61 22 7491
4.3712935 4.3479056 -1.7093607 55 87733250 224 62 18 6398
4.2094369 4.5155396 -1.780777 538 87733250 2220 63 34 6425
4.8897562 4.1741438 2.0067475 727 87830580 3299 0 77 6735
4.6410565 4.2778096 1.894477 833 87830580 3620 1 71 6590
4.4654956 4.4374866 1.8229049 784 87830580 3366 2 34 6554
4.2443795 4.5479975 1.7377132 806 87830580 3365 3 58 6459
4.9694467 4.2465215 1.7658157 836 87830580 3834 4 86 6771
4.7540922 4.3781629 1.6770896 777 87830580 3462 5 38 6677
4.5265689 4.4947243 1.5890586 733 87830580 3170 6 63 6574
4.3027077 4.6011515 1.5058694 849 87830580 3564 7 63 6477
5.0463953 4.3139529 1.5299267 791 87830580 3673 8 70 6813
4.8339458 4.4551334 1.446072 642 87830580 2910 9 88 6731
4.6060519 4.5687013 1.3619459 788 87830580 3461 10 48 6629
4.4015803 4.6986566 1.2888299 840 87830580 3620 11 27 6566
5.1464143 4.4008541 1.2992042 689 87830580 3277 12 89 6895
4.9280715 4.5383849 1.2164121 786 87830580 3647 13 62 6809
4.6856327 4.6458526 1.133104 739 87830580 3310 14 51 6695
4.4880795 4.7886481 1.0654556 730 87830580 3226 15 34 6649
5.2310615 4.4730802 1.0605886 733 87830580 3557 16 62 6964
4.9852924 4.5889907 0.9776203 765 87830580 3583 17 53 6846
4.7923923 4.7465663 0.90814292 734 87830580 3397 18 55 6806
4.5431623 4.8414893 0.83014631 770 87830580 3449 19 66 6691
5.343924 4.5694275 0.82161725 743 87830580 3721 20 55 7079
5.0953245 4.688798 0.74171501 709 87830580 3440 21 71 6964
4.8624554 4.8114228 0.66698629 763 87830580 3603 22 46 6873
4.638495 4.9377251 0.59735775 783 87830580 3623 23 94 6801
5.4344697 4.6450448 0.5724417 744 87830580 3830 24 58 7172
5.1959796 4.7789106 0.49773261 754 87830580 3774 25 50 7077
4.9539776 4.9016423 0.4246597 755 87830580 3681 26 92 6982
4.7230592 5.0217695 0.35489827 825 87830580 3932 27 76 6903
5.5386462 4.7294059 0.31658709 785 87830580 4170 28 52 7290
5.3017488 4.8727751 0.24403597 708 87830580 3674 29 39 7205
5.0651522 5.0022039 0.17559676 787 87830580 3990 30 32 7121
4.8204031 5.1215072 0.10508419 835 87830580 4134 31 59 7034
5.6489367 4.823071 0.051856805 713 87830580 3936 32 67 7428
5.3986263 4.9581647 -0.018550213 745 87830580 4001 33 55 7330
5.179368 5.1137505 -0.086895019 747 87830580 3960 34 69 7279
4.9314766 5.2327442 -0.15425727 857 87830580 4430 35 57 7192
5.7683382 4.9201441 -0.22515081 804 87830580 4626 36 108 7585
5.4835763 5.028779 -0.29103005 776 87830580 4305 37 62 7446
5.260365 5.1893716 -0.35971406 811 87830580 4437 38 139 7398
5.0179973 5.3247366 -0.42559013 881 87830580 4735 39 65 7329
5.876019 5.004024 -0.5122245 860 87830580 5147 40 78 7735
5.6008167 5.1316185 -0.57556319 834 87830580 4841 41 83 7618
5.3553748 5.280149 -0.64210182 888 87830580 5059 42 118 7548
5.1066113 5.4128966 -0.70618719 917 87830580 5126 43 62 7475
6.0262136 5.1283016 -0.81688601 772 87830580 4887 44 88 7955
5.7375317 5.252645 -0.87638038 877 87830580 5372 45 39 7828
5.4539051 5.3716669 -0.93544757 890 87830580 5296 46 70 7712
5.2201071 5.5304918 -1.0041866 891 87830580 5243 47 118 7671
6.1373019 5.2139788 -1.1302096 884 87830580 5848 48 79 8132
5.8595991 5.3596992 -1.1914836 838 87830580 5401 49 38 8030
5.5881896 5.4981647 -1.2530174 870 87830580 5480 50 52 7939
5.3308191 5.644628 -1.3176404 943 87830580 5851 51 70 7875
6.2823563 5.32759 -1.4681561 867 87830580 6072 52 80 8367
6.0109606 5.4925618 -1.5301484 888 87830580 6092 53 53 8285
5.71697 5.6213369 -1.5857983 287 87830580 1918 54 99 8173
4.2387938 4.4884758 -1.2852424 42 87830580 166 55 32 6306
6.4458146 5.4600205 -1.8325895 871 87830580 6508 56 105 8644
5.0960746 4.6516838 -1.5644453 560 87830580 2801 57 52 7075
4.5322909 4.4547639 -1.5057826 41 87830580 174 58 14 6531
4.5238857 4.7895231 -1.6304277 94 87830580 432 59 31 6787
5.1847 4.3813725 -1.7419895 51 87830580 250 60 19 7008
5.3327932 4.8595762 -1.9240406 137 87830580 762 61 38 7467
4.3896408 4.3128977 -1.7061547 39 87830580 158 62 31 6386
4.2845464 4.539938 -1.8007329 543 87830580 2291 63 32 6497
4.9152765 4.144062 2.0067475 804 87928350 3648 0 85 6735
4.6757159 4.2569895 1.8979268 834 87928350 3637 1 72 6602
4.500865 4.4180779 1.8262426 784 87928350 3378 2 48 6566
4.2722054 4.5218687 1.7377132 772 87928350 3219 3 47 6459
5.0131154 4.2308931 1.7720747 779 87928350 3599 4 62 6795
4.7808666 4.3489103 1.6770896 834 87928350 3716 5 35 6677
4.562376 4.475019 1.5919592 719 87928350 3121 6 62 6586
4.3469067 4.5916152 1.5114492 841 87928350 3556 7 75 6501
5.099575 4.3055387 1.5380108 774 87928350 3633 8 60 6849
4.8958569 4.4569473 1.4563842 666 87928350 3062 9 88 6779
4.6507754 4.5567913 1.3668767 775 87928350 3430 10 30 6653
4.4303279 4.6715603 1.2888299 819 87928350 3529 11 47 6566
5.1643171 4.3615894 1.2969431 757 87928350 3588 12 72 6883
4.9558258 4.5080614 1.2164121 749 87928350 3471 13 45 6809
4.7562981 4.658392 1.1432587 656 87928350 2991 14 2131 6755
4.5173774 4.7610197 1.0654556 767 87928350 3389 15 44 6649
5.2765312 4.4562035 1.0642437 732 87928350 3577 16 66 6988
5.0397191 4.5822854 0.9827612 764 87928350 3620 17 72 6882
4.8299274 4.7253885 0.90974414 727 87928350 3377 18 41 6818
4.6137891 4.8566861 0.83759046 733 87928350 3342 19 77 6751
5.3809671 4.5442419 0.82301003 721 87928350 3623 20 56 7091
5.1416574 4.6734962 0.74427116 678 87928350 3308 21 57 6988
4.9175096 4.8065419 0.67047989 760 87928350 3626 22 52 6909
4.6851807 4.9264951 0.59946579 782 87928350 3645 23 73 6825
5.4994302 4.6424761 0.57627285 675 87928350 3521 24 64 7220
5.2252049 4.7469387 0.49773261 738 87928350 3698 25 62 7077
4.9925265 4.8795252 0.42538956 756 87928350 3699 26 91 6994
4.786839 5.0274115 0.35736606 729 87928350 3523 27 78 6951
5.5767255 4.7030611 0.31710824 776 87928350 4140 28 67 7302
5.3404279 4.8482137 0.24444242 704 87928350 3665 29 48 7217
5.1043372 4.9794073 0.17589268 759 87928350 3860 30 35 7133
4.8682914 5.1092067 0.10544273 861 87928350 4292 31 59 7058
5.6967711 4.8037896 0.052024353 718 87928350 3989 32 72 7452
5.4378352 4.9330087 -0.018580582 742 87928350 3998 33 45 7342
5.2106476 5.0818739 -0.086895019 749 87928350 3971 34 59 7279
4.9634914 5.2023869 -0.15425727 861 87928350 4451 35 51 7192
5.8167658 4.9001131 -0.2258632 745 87928350 4314 36 91 7609
5.5498767 5.0272374 -0.29290614 816 87928350 4581 37 44 7494
5.3092756 5.1737266 -0.360881 843 87928350 4642 38 140 7422
5.0671139 5.311182 -0.42698377 884 87928350 4777 39 56 7353
5.934103 4.9909964 -0.5146085 880 87928350 5316 40 69 7771
5.667686 5.1292725 -0.57918972 844 87928350 4962 41 69 7666
5.3962379 5.2555318 -0.64312261 902 87928350 5157 42 78 7560
5.1562304 5.3987398 -0.70845455 918 87928350 5165 43 70 7499
6.0667048 5.0989089 -0.81811827 860 87928350 5461 44 86 7967
5.7784977 5.2253394 -0.87772381 826 87928350 5074 45 54 7840
5.5038376 5.3547134 -0.93835872 900 87928350 5389 46 69 7736
5.286819 5.5327625 -1.0104702 817 87928350 4868 47 113 7719
6.187386 5.1914997 -1.1335452 836 87928350 5562 48 101 8156
5.9099865 5.3395557 -1.1950448 852 87928350 5524 49 40 8054
5.6473126 5.4885483 -1.2586993 850 87928350 5403 50 47 7975
5.3735294 5.6203637 -1.3196483 948 87928350 5900 51 58 7887
6.3420982 5.3116984 -1.4744731 849 87928350 5997 52 76 8403
6.0533032 5.4634771 -1.5323645 862 87928350 5936 53 73 8297
5.7935767 5.6271625 -1.59744 911 87928350 6172 54 48 8233
4.3149657 4.5133328 -1.299917 105 87928350 426 55 23 6378
6.5061798 5.4429417 -1.8402218 833 87928350 6277 56 96 8680
5.1766715 4.667347 -1.580366 437 87928350 2230 57 45 7147
4.5092735 4.378067 -1.4891822 35 87928350 145 58 20 6459
4.5048862 4.7111607 -1.6131313 70 87928350 314 59 31 6715
5.6041322 4.6771774 -1.8732352 67 87928350 379 60 21 7536
4.9747033 4.4777007 -1.7848974 30 87928350 143 61 28 6927
4.6981602 4.5597062 -1.8151605 71 87928350 327 62 18 6794
4.3521466 4.5552459 -1.8173627 500 87928350 2148 63 43 6557
4.9494143 4.1211543 2.010323 796 88024600 3625 0 70 6747
4.7188406 4.2435908 1.9048263 846 88024600 3713 1 49 6626
4.5361643 4.3984022 1.8295802 764 88024600 3304 2 37 6578
4.2998705 4.4955697 1.7377132 816 88024600 3403 3 33 6459
5.0478802 4.2074704 1.7752041 830 88024600 3847 4 73 6807
4.8161011 4.3272562 1.6801035 801 88024600 3582 5 38 6689
4.6064734 4.4631453 1.5977604 780 88024600 3410 6 71 6610
4.3830743 4.5732827 1.5142392 840 88024600 3564 7 84 6513
5.1258974 4.2741671 1.5380108 782 88024600 3666 8 51 6849
4.9143972 4.4189863 1.453806 728 88024600 3335 9 82 6767
4.6870871 4.5363364 1.3693422 754 88024600 3348 10 50 6665
4.4589086 4.6442885 1.2888299 822 88024600 3542 11 34 6566
5.2271824 4.3600144 1.3059876 768 88024600 3691 12 71 6931
4.9921761 4.4854593 1.2185557 771 88024600 3585 13 54 6821
4.7847919 4.6291203 1.1432587 723 88024600 3300 14 71 6755
4.5547113 4.7417545 1.0673785 803 88024600 3565 15 58 6661
5.3310981 4.4465332 1.0697263 735 88024600 3625 16 46 7024
5.0765772 4.5592122 0.98447484 741 88024600 3524 17 58 6894
4.8588309 4.6956635 0.90974414 750 88024600 3484 18 52 6818
4.6435022 4.8282847 0.83759046 750 88024600 3420 19 74 6751
5.4087486 4.5111394 0.82301003 700 88024600 3522 20 60 7091
5.1968722 4.6657729 0.74810541 688 88024600 3396 21 69 7024
4.9640937 4.7928696 0.672809 762 88024600 3661 22 53 6933
4.7236114 4.9062657 0.60051978 765 88024600 3577 23 88 6837
5.5186248 4.6009846 0.57531506 712 88024600 3697 24 52 7208
5.280961 4.7387719 0.50026459 760 88024600 3843 25 54 7113
5.0309901 4.8571191 0.42611945 752 88024600 3692 26 81 7006
4.8175964 4.9979453 0.35736606 766 88024600 3702 27 80 6951
5.6331139 4.691772 0.31867161 777 88024600 4187 28 59 7338
5.3790045 4.8233609 0.24484886 706 88024600 3688 29 31 7229
5.1693473 4.9812903 0.17707631 691 88024600 3562 30 41 7181
4.899549 5.0792394 0.10544273 868 88024600 4326 31 64 7058
5.7445812 4.7841029 0.052191906 716 88024600 4004 32 73 7476
5.4769382 4.907558 -0.018610951 752 88024600 4065 33 57 7354
5.2590146 5.0664568 -0.087181531 791 88024600 4222 34 64 7303
5.003654 5.1804628 -0.15451466 848 88024600 4402 35 71 7204
5.8559437 4.8720012 -0.2262194 771 88024600 4479 36 92 7621
5.5895548 5.0010848 -0.29337516 809 88024600 4556 37 56 7506
5.3495564 5.1493645 -0.3614645 819 88024600 4525 38 132 7434
5.1079297 5.2886076 -0.42768061 873 88024600 4734 39 50 7365
5.983037 4.9697933 -0.51619786 790 88024600 4803 40 60 7795
5.707973 5.1023741 -0.58009636 818 88024600 4824 41 76 7678
5.4542332 5.2471905 -0.6461851 868 88024600 5008 42 114 7596
5.2058668 5.3841767 -0.71072191 894 88024600 5057 43 49 7523
6.1162457 5.0768361 -0.82058281 850 88024600 5430 44 82 7991
5.8371315 5.2136154 -0.88175422 834 88024600 5177 45 58 7876
5.5623546 5.3456025 -0.94272542 879 88024600 5313 46 61 7772
5.3289394 5.50877 -1.0120411 870 88024600 5201 47 95 7731
6.2465749 5.1761842 -1.1385486 860 88024600 5773 48 89 8192
5.9780545 5.3347979 -1.2021668 859 88024600 5636 49 49 8102
5.6979799 5.4702067 -1.2624872 891 88024600 5699 50 40 7999
5.4243698 5.6042886 -1.3236638 936 88024600 5855 51 54 7911
6.4018803 5.2952728 -1.4807899 854 88024600 6085 52 72 8439
6.1043191 5.4419284 -1.536797 851 88024600 5895 53 64 8321
5.8364902 5.5996575 -1.5997684 893 88024600 6067 54 54 8245
4.6939063 4.8497658 -1.4050844 79 88024600 374 55 26 6894
6.5575361 5.4178572 -1.84531 852 88024600 6457 56 70 8704
5.2751298 4.6977611 -1.6015939 249 88024600 1309 57 58 7243
4.552907 4.3664813 -1.4947158 175 88024600 734 58 28 6483
4.4850969 4.6332135 -1.595835 90 88024600 396 59 37 6643
5.7672653 4.7535958 -1.9179782 81 88024600 482 60 14 7716
4.9847536 4.431684 -1.7787132 24 88024600 113 61 29 6903
4.8512616 4.6508317 -1.8632513 483 88024600 2348 62 34 6974
4.4361262 4.5864687 -1.8406444 534 88024600 2354 63 34 6641
4.9923034 4.1052589 2.0174742 790 88122240 3624 0 62 6771
4.7619758 4.2298217 1.9117256 851 88122240 3762 1 56 6650
4.5713911 4.3784585 1.8329177 757 88122240 3286 2 45 6590
4.3514934 4.4940109 1.7473986 778 88122240 3281 3 39 6495
5.0825458 4.1837807 1.7783337 856 88122240 3982 4 61 6819
4.8512492 4.3053336 1.6831176 806 88122240 3617 5 35 6701
4.6421843 4.4428477 1.600661 782 88122240 3431 6 62 6622
4.4273071 4.5630555 1.519819 803 88122240 3429 7 56 6537
5.1971607 4.2798018 1.5514845 802 88122240 3830 8 68 6909
4.9589443 4.4043145 1.4589622 732 88122240 3378 9 72 6791
4.7233219 4.5156074 1.3718077 811 88122240 3614 10 47 6677
4.5037231 4.6337171 1.2935408 813 88122240 3529 11 45 6590
5.2629328 4.3353519 1.3082488 763 88122240 3679 12 90 6943
5.0372663 4.4704175 1.2228433 769 88122240 3606 13 59 6845
4.8216558 4.6078453 1.1452897 731 88122240 3349 14 65 6767
4.5919781 4.7222099 1.0693015 816 88122240 3631 15 43 6673
5.3857441 4.4363604 1.075209 738 88122240 3677 16 48 7060
5.1399965 4.5595036 0.99132931 744 88122240 3587 17 73 6942
4.8961539 4.673974 0.91134536 721 88122240 3361 18 42 6830
4.6813474 4.8082333 0.83907932 775 88122240 3546 19 86 6763
5.4731259 4.5081782 0.82858109 698 88122240 3560 20 70 7139
5.2343302 4.6417146 0.74938351 708 88122240 3503 21 53 7036
5.0020514 4.7705631 0.6739735 742 88122240 3577 22 53 6945
4.7703137 4.8943105 0.60262781 786 88122240 3702 23 87 6861
5.5559864 4.5746398 0.57627285 696 88122240 3630 24 73 7220
5.3188963 4.7142191 0.50110853 704 88122240 3576 25 68 7125
5.1040382 4.8674898 0.42976877 730 88122240 3646 26 85 7066
4.8398027 4.9597139 0.35674912 795 88122240 3828 27 89 6939
5.6895728 4.6799674 0.32023501 724 88122240 3935 28 48 7374
5.4444103 4.822072 0.24647464 729 88122240 3859 29 31 7277
5.1998148 4.9494781 0.17707631 759 88122240 3912 30 43 7181
4.9557714 5.0748339 0.10598055 780 88122240 3923 31 55 7094
5.7923636 4.76401 0.052359454 713 88122240 4013 32 69 7500
5.560863 4.9215775 -0.018793162 675 88122240 3725 33 65 7426
5.2986951 5.0423641 -0.087324783 738 88122240 3952 34 60 7315
5.0521216 5.1668191 -0.15502942 817 88122240 4270 35 65 7228
5.9042625 4.8512077 -0.22693183 721 88122240 4216 36 75 7645
5.6470904 4.9905148 -0.29478222 811 88122240 4611 37 47 7542
5.3984237 5.1329608 -0.36263144 746 88122240 4147 38 154 7458
5.1402836 5.2571664 -0.42768061 860 88122240 4663 39 56 7365
6.0411901 4.9557705 -0.51858181 823 88122240 5049 40 75 7831
5.7750521 5.0989332 -0.58372289 818 88122240 4884 41 80 7726
5.5036612 5.2300978 -0.6482268 869 88122240 5046 42 92 7620
5.263875 5.3777442 -0.71412295 862 88122240 4923 43 54 7559
6.1749759 5.061914 -0.82427961 863 88122240 5563 44 82 8027
5.877954 5.1855903 -0.88309765 843 88122240 5242 45 56 7888
5.6123276 5.3277736 -0.94563657 871 88122240 5297 46 64 7796
5.3626399 5.4759684 -1.0120411 894 88122240 5344 47 106 7731
6.3058076 5.1603365 -1.1435521 846 88122240 5730 48 64 8228
6.0195785 5.3058634 -1.2039474 814 88122240 5356 49 45 8114
5.7400355 5.4432955 -1.2643812 877 88122240 5625 50 48 8011
5.4752154 5.5878005 -1.3276795 934 88122240 5884 51 65 7935
6.4525499 5.2708392 -1.4850012 866 88122240 6206 52 69 8463
6.1641493 5.427752 -1.5434459 847 88122240 5918 53 67 8357
5.870739 5.5637403 -1.5997684 877 88122240 5959 54 43 8245
4.7564635 4.8544388 -1.4148673 113 88122240 544 55 18 6942
6.6360884 5.4145885 -1.8580306 886 88122240 6807 56 86 8764
5.5498996 4.8817267 -1.6758913 80 88122240 457 57 45 7579
4.6389513 4.3946762 -1.5140828 23 88122240 98 58 26 6567
4.5215945 4.6139259 -1.5987177 54 88122240 238 59 38 6655
5.6340632 4.5860415 -1.8642868 490 88122240 2754 60 41 7500
4.9944272 4.3857136 -1.772529 23 88122240 108 61 20 6879
4.9552751 4.6925383 -1.8921058 443 88122240 2220 62 40 7082
4.4561181 4.5509248 -1.8373184 386 88122240 1694 63 49 6629
5.0351834 4.0889921 2.0246251 845 88220430 3899 0 56 6795
4.8051195 4.215683 1.9186251 817 88220430 3641 1 83 6674
4.6149168 4.3661699 1.8395931 799 88220430 3494 2 28 6614
4.3789859 4.467226 1.7473986 818 88220430 3450 3 34 6495
5.1081214 4.1525159 1.7783337 819 88220430 3810 4 70 6819
4.9037795 4.2984552 1.69216 785 88220430 3565 5 62 6737
4.6778193 4.4222794 1.6035618 771 88220430 3395 6 72 6634
4.4634004 4.5441303 1.522609 849 88220430 3639 7 57 6549
5.214251 4.2404542 1.5487897 792 88220430 3770 8 60 6897
5.0034962 4.3892617 1.4641184 761 88220430 3536 9 76 6815
4.7765555 4.5107303 1.3792039 754 88220430 3396 10 56 6713
4.5403233 4.6143827 1.2958963 805 88220430 3507 11 41 6602
5.3077192 4.317852 1.312771 768 88220430 3729 12 95 6967
5.0734801 4.4472084 1.2249871 756 88220430 3557 13 60 6857
4.8670387 4.5944109 1.1493516 744 88220430 3433 14 58 6791
4.6208663 4.6939449 1.0693015 786 88220430 3502 15 64 6673
5.4036632 4.3957462 1.0733814 769 88220430 3818 16 46 7048
5.1768098 4.535706 0.99304295 746 88220430 3610 17 60 6954
4.9420452 4.6601615 0.91454768 747 88220430 3507 18 45 6854
4.727479 4.7963796 0.84205693 768 88220430 3539 19 81 6787
5.5284228 4.4970746 0.83275938 714 88220430 3678 20 77 7175
5.2896395 4.6330948 0.75321776 744 88220430 3723 21 72 7072
5.0573087 4.7643504 0.67746711 754 88220430 3677 22 74 6981
4.8170462 4.8819656 0.60473579 783 88220430 3712 23 106 6885
5.6303554 4.5781951 0.58106184 735 88220430 3898 24 58 7280
5.3657351 4.6972632 0.50279647 736 88220430 3764 25 63 7149
5.1163712 4.819654 0.42830902 750 88220430 3720 26 78 7042
4.9122553 4.9725523 0.35983387 785 88220430 3846 27 98 6999
5.7181811 4.644969 0.32023501 733 88220430 3984 28 43 7374
5.4829226 4.7964716 0.24688108 704 88220430 3739 29 32 7289
5.2388263 4.9256973 0.17737222 746 88220430 3858 30 42 7193
4.9952526 5.0528631 0.10615983 846 88220430 4270 31 51 7106
5.8401146 4.7435093 0.052527003 712 88220430 4033 32 67 7524
5.5728874 4.8715687 -0.018732425 716 88220430 3921 33 52 7402
5.3557634 5.0344119 -0.08775454 761 88220430 4115 34 60 7351
5.1174898 5.1698284 -0.15605895 848 88220430 4491 35 59 7276
5.9804888 4.8526769 -0.22871284 698 88220430 4145 36 95 7705
5.695673 4.9715414 -0.29572028 797 88220430 4561 37 43 7566
5.4385538 5.1079459 -0.36321491 843 88220430 4703 38 134 7470
5.1977272 5.25107 -0.4297711 853 88220430 4670 39 55 7401
6.0714846 4.9186091 -0.51858181 822 88220430 5038 40 57 7831
5.8152485 5.0712667 -0.58462954 856 88220430 5128 41 70 7738
5.5443664 5.2044125 -0.64924765 899 88220430 5237 42 104 7632
5.2967734 5.3453445 -0.71412295 918 88220430 5243 43 54 7559
6.2151966 5.0314403 -0.82551187 851 88220430 5501 44 100 8039
5.9366326 5.1729274 -0.887128 825 88220430 5178 45 43 7924
5.6622901 5.3095317 -0.94854772 884 88220430 5409 46 75 7820
5.4128909 5.4598579 -1.0151829 906 88220430 5450 47 86 7755
6.3743224 5.1514249 -1.1502231 780 88220430 5346 48 60 8276
6.0878234 5.2999973 -1.2110697 856 88220430 5700 49 44 8162
5.7992706 5.4322748 -1.270063 762 88220430 4932 50 34 8047
5.526062 5.570899 -1.3316952 929 88220430 5888 51 68 7959
6.5123549 5.2534003 -1.4913181 902 88220430 6519 52 62 8499
6.2151351 5.4053063 -1.5478785 829 88220430 5826 53 61 8381
5.9391422 5.559793 -1.6090816 917 88220430 6303 54 56 8293
4.7034264 4.7417541 -1.3904098 564 88220430 2627 55 61 6822
6.6874495 5.3884835 -1.8631185 835 88220430 6451 56 81 8788
6.3925261 5.5537071 -1.920011 557 88220430 4203 57 64 8683
4.7084589 4.4060206 -1.5279163 38 88220430 166 58 28 6627
4.5580239 4.5943646 -1.6016004 68 88220430 301 59 33 6667
5.725512 4.6023607 -1.8851668 445 88220430 2558 60 41 7584
4.977447 4.3170009 -1.7570688 39 88220430 181 61 16 6819
5.1528754 4.8200359 -1.9562269 469 88220430 2512 62 49 7322
4.3053846 4.3433485 -1.7641472 59 88220430 238 63 21 6365
5.0780506 4.0723524 2.031776 812 88317660 3774 0 47 6819
4.839582 4.1936469 1.9220749 817 88317660 3654 1 69 6686
4.6500416 4.3456416 1.8429307 765 88317660 3357 2 34 6626
4.430737 4.4648843 1.7570839 829 88317660 3538 3 58 6531
5.1606064 4.1428518 1.7877221 852 88317660 4006 4 60 6855
4.9388433 4.275888 1.6951741 768 88317660 3496 5 48 6749
4.7048659 4.3934937 1.6035618 769 88317660 3386 6 70 6634
4.5076575 4.5332103 1.5281889 845 88317660 3653 7 67 6573
5.2675238 4.2303467 1.5568739 787 88317660 3780 8 57 6933
5.0480485 4.373827 1.4692744 725 88317660 3393 9 81 6839
4.8213186 4.4973583 1.3841348 768 88317660 3484 10 51 6737
4.5851588 4.6031098 1.3006072 794 88317660 3484 11 46 6626
5.352488 4.2999644 1.3172932 741 88317660 3622 12 98 6991
5.1274509 4.4391785 1.2314184 753 88317660 3576 13 49 6893
4.9037881 4.5725265 1.1513827 741 88317660 3431 14 59 6803
4.6663036 4.6822834 1.0731473 778 88317660 3487 15 55 6697
5.4397793 4.369935 1.075209 746 88317660 3717 16 40 7060
5.2314858 4.5271721 0.99818379 745 88317660 3638 17 45 6990
4.9879518 4.6459618 0.91775012 740 88317660 3498 18 50 6878
4.7652307 4.7757111 0.84354579 784 88317660 3626 19 64 6799
5.5559125 4.463068 0.83275938 713 88317660 3672 20 84 7175
5.3269916 4.608357 0.7544958 714 88317660 3585 21 61 7084
5.0864472 4.7332296 0.67746711 733 88317660 3575 22 65 6981
4.8469105 4.8523169 0.60473579 766 88317660 3632 23 98 6885
5.6676674 4.5510511 0.58201963 715 88317660 3800 24 52 7292
5.4216208 4.6877394 0.50532842 751 88317660 3875 25 50 7185
5.1633854 4.8044887 0.42976877 726 88317660 3626 26 78 7066
4.9341993 4.9338441 0.3592169 772 88317660 3770 27 79 6987
5.7746296 4.6323004 0.32179841 685 88317660 3764 28 63 7410
5.5394745 4.7862616 0.2481004 713 88317660 3825 29 21 7325
5.2953215 4.9179511 0.17825994 747 88317660 3902 30 44 7229
5.0431376 5.0390792 0.10651837 833 88317660 4233 31 46 7130
5.897192 4.7301106 0.05277833 679 88317660 3883 32 75 7560
5.6299229 4.8608088 -0.018823531 737 88317660 4075 33 56 7438
5.4041395 5.0177841 -0.088041052 749 88317660 4077 34 68 7375
5.1576071 5.1468053 -0.15631633 837 88317660 4447 35 71 7288
6.0101519 4.8158898 -0.22871284 742 88317660 4406 36 93 7705
5.7533154 4.9599881 -0.29712734 770 88317660 4447 37 55 7602
5.4873672 5.0907831 -0.36438188 847 88317660 4756 38 131 7494
5.2637682 5.2529273 -0.43255842 771 88317660 4276 39 56 7449
6.1389494 4.9111824 -0.52176046 819 88317660 5086 40 74 7879
5.8643885 5.0511074 -0.58644283 801 88317660 4828 41 78 7762
5.5849633 5.1784244 -0.65026844 879 88317660 5136 42 103 7644
5.3548536 5.3380456 -0.71752399 922 88317660 5316 43 54 7595
6.2739224 5.0155706 -0.82920867 841 88317660 5486 44 92 8075
5.9953761 5.159739 -0.8911584 793 88317660 5022 45 51 7960
5.7122402 5.2908773 -0.95145887 875 88317660 5386 46 83 7844
5.4547172 5.4349389 -1.0167537 898 88317660 5419 47 74 7767
6.3872347 5.0973911 -1.1468877 849 88317660 5783 48 85 8252
6.147223 5.2857542 -1.2164112 830 88317660 5575 49 51 8198
5.8498888 5.412684 -1.2738509 866 88317660 5639 50 42 8071
5.58529 5.5619311 -1.3377187 922 88317660 5897 51 63 7995
6.5721874 5.2354255 -1.4976351 871 88317660 6348 52 71 8535
6.2750235 5.3901234 -1.5545273 852 88317660 6039 53 65 8417
5.9817882 5.5312386 -1.61141 884 88317660 6100 54 64 8305
4.7574058 4.7376747 -1.397747 540 88317660 2538 55 51 6858
6.7295632 5.3546505 -1.8656626 830 88317660 6428 56 99 8800
6.4264832 5.514379 -1.920011 840 88317660 6336 57 63 8683
4.7868538 4.4246025 -1.5445166 55 88317660 246 58 32 6699
4.8915496 4.8704119 -1.7082617 69 88317660 347 59 50 7111
5.753644 4.567143 -1.8851668 381 88317660 2190 60 31 7584
5.1359277 4.3995256 -1.8034499 25 88317660 122 61 20 6999
5.2418065 4.8432603 -1.9786692 457 88317660 2504 62 46 7406
4.331954 4.3168492 -1.7641472 72 88317660 291 63 16 6365
5.1209025 4.0553408 2.0389271 705 88415530 3303 0 58 6843
4.8826871 4.1788197 1.9289744 811 88415530 3653 1 80 6710
4.7020273 4.3404822 1.8529435 788 88415530 3495 2 46 6662
4.4498587 4.42946 1.7538556 835 88415530 3547 3 38 6519
5.1859293 4.1111093 1.7877221 817 88415530 3841 4 61 6855
5.0002985 4.2756982 1.7072304 723 88415530 3338 5 39 6797
4.7574124 4.388227 1.6122637 756 88415530 3365 6 76 6670
4.535388 4.5054665 1.5281889 849 88415530 3670 7 64 6573
5.3117056 4.2124782 1.5622633 779 88415530 3772 8 71 6957
5.074791 4.3427701 1.4692744 734 88415530 3435 9 61 6839
4.8660965 4.4836063 1.3890656 694 88415530 3171 10 43 6761
4.6383815 4.5997453 1.3076736 782 88415530 3469 11 31 6662
5.3880038 4.2743659 1.3195543 769 88415530 3772 12 98 7003
5.1815138 4.4306536 1.2378497 749 88415530 3599 13 63 6929
4.9491506 4.5583758 1.1554445 736 88415530 3432 14 59 6827
4.711771 4.6702404 1.0769931 692 88415530 3128 15 60 6721
5.5036564 4.3659577 1.0825192 758 88415530 3828 16 44 7108
5.2591658 4.494987 0.99818379 733 88415530 3583 17 73 6990
5.0338688 4.6313734 0.9209525 772 88415530 3679 18 62 6902
4.802906 4.7547593 0.8450346 760 88415530 3528 19 66 6811
5.6018682 4.4437084 0.83554494 691 88415530 3579 20 52 7199
5.3460965 4.5678339 0.75321776 727 88415530 3638 21 65 7072
5.124187 4.7100129 0.67863166 737 88415530 3602 22 50 6993
4.8935919 4.8392963 0.60684383 782 88415530 3734 23 95 6909
5.714231 4.5310535 0.5839352 720 88415530 3851 24 56 7316
5.4502826 4.6543846 0.50532842 713 88415530 3678 25 57 7185
5.219224 4.7970324 0.43195835 765 88415530 3860 26 64 7102
4.981432 4.9203186 0.36045077 782 88415530 3845 27 64 7011
5.9157138 4.686111 0.32805198 105 88415530 598 28 31 7554
5.568738 4.752182 0.2481004 692 88415530 3711 29 49 7325
5.3342376 4.893476 0.17855585 755 88415530 3957 30 34 7241
5.0825014 5.016469 0.10669764 823 88415530 4201 31 59 7142
5.9355111 4.7012873 0.052862108 727 88415530 4171 32 67 7572
5.6870351 4.8495317 -0.018914638 741 88415530 4142 33 62 7474
5.4525123 5.000751 -0.088327549 741 88415530 4060 34 63 7399
5.1890903 5.1150618 -0.15631633 839 88415530 4458 35 64 7288
6.0584011 4.7938075 -0.22942525 722 88415530 4315 36 84 7729
5.7836413 4.924593 -0.29712734 763 88415530 4407 37 53 7602
5.5361733 5.0732126 -0.36554882 826 88415530 4668 38 127 7518
5.2873688 5.2121205 -0.43186158 805 88415530 4455 39 62 7437
6.1783638 4.8808441 -0.52255511 813 88415530 5064 40 82 7891
5.9134989 5.0305357 -0.58825606 762 88415530 4620 41 96 7786
5.6607189 5.1844354 -0.65537262 802 88415530 4759 42 126 7704
5.378994 5.2967062 -0.71639031 886 88415530 5097 43 61 7583
6.3139482 4.9843764 -0.83044094 836 88415530 5471 44 68 8087
6.0450945 5.1383009 -0.89384526 843 88415530 5371 45 42 7984
5.7709618 5.2798491 -0.95582563 807 88415530 5014 46 79 7880
5.4964418 5.4097123 -1.0183246 907 88415530 5490 47 87 7779
6.4743929 5.1022363 -1.1568943 849 88415530 5884 48 84 8324
6.1795397 5.2479362 -1.2164112 842 88415530 5657 49 30 8198
5.9004841 5.3926764 -1.2776389 873 88415530 5719 50 36 8095
5.6361804 5.5441484 -1.3417343 857 88415530 5508 51 56 8019
6.6227579 5.2096081 -1.5018462 866 88415530 6347 52 64 8559
6.3259645 5.3667774 -1.5589597 833 88415530 5938 53 71 8441
6.0416908 5.5182481 -1.6183951 886 88415530 6167 54 61 8341
4.7780108 4.7001557 -1.3953012 575 88415530 2693 55 45 6846
6.7899566 5.3349943 -1.8732949 840 88415530 6559 56 98 8836
6.4959092 5.5051074 -1.9306248 878 88415530 6690 57 45 8731
5.0898552 4.6470861 -1.6330513 80 88415530 399 58 52 7083
4.5393167 4.4645715 -1.5756558 14 88415530 59 59 39 6559
5.8455949 4.5819464 -1.9060467 185 88415530 1086 60 29 7668
5.0654554 4.2855506 -1.769437 86 88415530 405 61 13 6867
5.3739214 4.9045496 -2.0171418 196 88415530 1115 62 42 7550
4.3090587 4.2416577 -1.7441914 66 88415530 261 63 24 6293
5.1547132 4.0308995 2.0425026 791 88511220 3719 0 60 6855
4.9170132 4.1562004 1.9324241 812 88511220 3671 1 82 6722
4.7200537 4.3037834 1.8496059 744 88511220 3288 2 53 6650
4.4934354 4.4182792 1.7603123 828 88511220 3544 3 33 6543
5.2475457 4.1077747 1.80024 741 88511220 3532 4 78 6903
5.0264397 4.2449365 1.7072304 802 88511220 3703 5 32 6797
4.7928557 4.3667955 1.6151642 776 88511220 3463 6 53 6682
4.579608 4.4939017 1.5337687 822 88511220 3575 7 56 6597
5.3374529 4.1798067 1.5622633 745 88511220 3607 8 77 6957
5.1281953 4.3342462 1.4770086 737 88511220 3486 9 65 6875
4.9108868 4.4694738 1.3939965 752 88511220 3465 10 58 6785
4.658112 4.562964 1.3053181 797 88511220 3523 11 28 6650
5.4419618 4.2630281 1.3263378 723 88511220 3584 12 74 7039
5.2086024 4.398777 1.2378497 723 88511220 3470 13 52 6929
4.9945235 4.5438404 1.1595064 724 88511220 3399 14 72 6851
4.7488022 4.649528 1.0789161 767 88511220 3475 15 51 6733
5.549015 4.3467331 1.0861744 671 88511220 3412 16 35 7132
5.3138747 4.4856167 1.0033246 669 88511220 3305 17 58 7026
5.0709929 4.6083975 0.92255372 740 88511220 3535 18 56 6914
4.8490171 4.7418499 0.84801227 747 88511220 3488 19 53 6835
5.638412 4.4166021 0.83693773 719 88511220 3741 20 69 7211
5.4196177 4.57342 0.75960821 713 88511220 3629 21 61 7132
5.1883607 4.7105961 0.68328977 716 88511220 3552 22 60 7041
4.9317441 4.8175316 0.60789782 789 88511220 3782 23 72 6921
5.7701797 4.5180292 0.58680862 674 88511220 3641 24 51 7352
5.5153399 4.6517248 0.50870425 715 88511220 3743 25 58 7233
5.2574282 4.7729688 0.43268821 718 88511220 3634 26 90 7114
5.0201063 4.8980293 0.36106774 743 88511220 3662 27 56 7023
5.849926 4.575861 0.32284066 710 88511220 3927 28 65 7434
5.6253037 4.7411103 0.24931975 687 88511220 3721 29 24 7361
5.3819427 4.8767643 0.17914766 750 88511220 3957 30 27 7265
5.1303687 5.0019412 0.10705619 799 88511220 4105 31 78 7166
5.9926019 4.6869574 0.053113431 700 88511220 4054 32 59 7608
5.7350411 4.8300052 -0.018975373 735 88511220 4130 33 55 7498
5.4919863 4.9752569 -0.088470809 713 88511220 3919 34 70 7411
5.2547603 5.1166043 -0.15734585 871 88511220 4689 35 61 7336
6.1160564 4.7786984 -0.23049386 771 88511220 4650 36 95 7765
5.8504581 4.9198828 -0.29900345 766 88511220 4481 37 50 7650
5.58497 5.0552344 -0.36671579 820 88511220 4663 38 133 7542
5.3449993 5.2046523 -0.43395209 837 88511220 4677 39 75 7473
6.227078 4.8575721 -0.52414441 801 88511220 5019 40 94 7915
5.9717388 5.0172477 -0.590976 801 88511220 4903 41 70 7822
5.7012901 5.1576257 -0.65639341 792 88511220 4717 42 82 7716
5.4285202 5.280261 -0.71865767 885 88511220 5124 43 68 7607
6.3914838 4.982233 -0.83660221 867 88511220 5758 44 70 8147
6.1130409 5.1317801 -0.89921916 833 88511220 5372 45 39 8032
5.8120866 5.252326 -0.95728111 855 88511220 5328 46 82 7892
5.5551214 5.400764 -1.0230373 894 88511220 5460 47 106 7815
6.5337133 5.0843086 -1.1618978 863 88511220 6034 48 67 8360
6.2479939 5.2404251 -1.2235334 830 88511220 5641 49 37 8246
5.9598494 5.3801908 -1.2833209 866 88511220 5728 50 63 8131
5.6870627 5.5259504 -1.34575 924 88511220 5980 51 75 8043
6.6825891 5.1906147 -1.5081632 857 88511220 6334 52 65 8595
6.4130144 5.3733068 -1.5722574 742 88511220 5381 53 61 8513
6.0929174 5.4968443 -1.6230519 880 88511220 6161 54 58 8365
4.8657393 4.7280598 -1.4124216 327 88511220 1568 55 51 6930
6.8503604 5.3147974 -1.8809272 824 88511220 6487 56 100 8872
6.5295658 5.4651461 -1.9306248 842 88511220 6415 57 50 8731
5.3350577 4.8112683 -1.7022191 87 88511220 473 58 23 7383
4.7086577 4.5746245 -1.6246624 31 88511220 140 59 37 6763
6.0942039 4.7167339 -1.9776354 84 88511220 531 60 19 7956
5.1094513 4.269258 -1.7756212 20 88511220 94 61 27 6891
5.4382706 4.9024549 -2.0299661 343 88511220 1979 62 29 7598
4.3846021 4.2633648 -1.7641472 25 88511220 101 63 17 6365
5.1974821 4.013196 2.0496535 815 88608600 3854 0 54 6879
4.9777155 4.1554146 1.946223 762 88608600 3494 1 76 6770
4.7635026 4.2901683 1.8562812 753 88608600 3353 2 33 6674
4.5287514 4.3986773 1.7635409 848 88608600 3642 3 42 6555
5.2726517 4.0754991 1.80024 813 88608600 3876 4 62 6903
5.070231 4.2288942 1.7132585 819 88608600 3809 5 30 6821
4.8455257 4.360673 1.6238661 775 88608600 3499 6 74 6718
4.623857 4.4819636 1.5393486 788 88608600 3456 7 62 6621
5.3907509 4.1684375 1.5703474 729 88608600 3567 8 78 6993
5.1636906 4.3102088 1.4795867 728 88608600 3455 9 63 6887
4.9469523 4.4471083 1.396462 692 88608600 3196 10 34 6797
4.7198462 4.5670252 1.3147399 785 88608600 3520 11 45 6698
5.4959822 4.2511878 1.3331211 706 88608600 3536 12 75 7075
5.289897 4.4121099 1.2507124 665 88608600 3257 13 57 7001
5.0135131 4.5052037 1.1574755 735 88608600 3440 14 60 6839
4.79427 4.6367722 1.0827619 758 88608600 3458 15 57 6757
5.5849628 4.3198595 1.0880018 721 88608600 3679 16 27 7144
5.3412981 4.4529266 1.0033246 745 88608600 3676 17 53 7026
5.1168742 4.5930839 0.92575604 713 88608600 3430 18 46 6938
4.8951492 4.7285528 0.85098988 698 88608600 3286 19 72 6859
