# .PCD v0.7 - Point Cloud Data file format
VERSION 0.7
FIELDS x y z intensity t reflectivity ring noise range
SIZE 4 4 4 4 4 2 1 2 4
TYPE F F F F U U U U U
COUNT 1 1 1 1 1 1 1 1 1
WIDTH 757
HEIGHT 1
VIEWPOINT 0 0 0 1 0 0 0
POINTS 757
DATA ascii
0.019867646 -2.0717504 -0.57441789 376 25086270 174 62 62 2150
0.098441012 -2.0778508 -0.60005951 369 25086270 173 63 50 2165
-0.08546529 -1.2829745 0.40134951 411 25182760 75 0 14 1347
-0.036324382 -1.277172 0.38349506 478 25182760 85 1 9 1334
0.012219353 -1.3389393 0.3877219 202 25182760 39 2 59 1394
0.060680319 -1.295916 0.36239353 434 25182760 79 3 10 1347
-0.085012786 -1.2859958 0.34815595 432 25182760 77 4 31 1335
-0.03836235 -1.3284305 0.34486204 446 25182760 84 5 1 1373
0.011892579 -1.3603737 0.3388896 245 25182760 48 6 66 1402
0.062889576 -1.3728408 0.32851529 270 25182760 54 7 36 1413
-0.085946389 -1.3039218 0.30113485 448 25182760 81 8 1 1341
-0.038693503 -1.3579687 0.29883912 465 25182760 90 9 1 1391
0.011115772 -1.3554084 0.28455198 472 25182760 91 10 43 1385
0.060831178 -1.3537489 0.27127063 516 25182760 99 11 4 1382
-0.087830305 -1.3357003 0.25682601 450 25182760 84 12 54 1363
-0.038654517 -1.3385478 0.24313948 471 25182760 87 13 2 1361
0.010790084 -1.3472363 0.23135971 486 25182760 91 14 108 1367
0.060859311 -1.3617949 0.22129557 454 25182760 86 15 40 1381
-0.074206837 -1.1282175 0.17422651 289 25182760 38 16 27 1144
-0.033344094 -1.145647 0.16536435 312 25182760 42 17 55 1158
0.0086295437 -1.1555413 0.15558252 322 25182760 44 18 47 1166
0.056935169 -1.2916784 0.16166203 318 25182760 54 19 79 1303
-0.075051479 -1.1407551 0.13358968 270 25182760 36 20 62 1151
-0.033969361 -1.1608596 0.12440022 278 25182760 38 21 49 1168
0.007750385 -1.1077197 0.10801044 340 25182760 42 22 76 1113
0.049262859 -1.1315339 0.099867053 335 25182760 43 23 96 1137
-0.07455641 -1.1299187 0.090671189 229 25182760 30 24 59 1136
-0.03488443 -1.1815507 0.083342262 311 25182760 44 25 36 1185
0.0078242784 -1.1238881 0.068485655 348 25182760 44 26 115 1126
0.050000764 -1.1643836 0.059998013 320 25182760 44 27 80 1167
-0.077530928 -1.1663222 0.050810274 242 25182760 33 28 34 1170
-0.034886695 -1.1678083 0.039594453 290 25182760 40 29 31 1169
0.006673228 -1.1086428 0.027346836 316 25182760 39 30 35 1109
0.050612323 -1.1887903 0.017777961 294 25182760 42 31 55 1190
-0.075672008 -1.137458 0.0079586376 202 25182760 26 32 79 1140
-0.034760572 -1.1494709 -0.0029103337 335 25182760 44 33 49 1150
0.0065510971 -1.1109016 -0.013262861 282 25182760 35 34 78 1111
0.051932782 -1.2386265 -0.026596081 245 25182760 38 35 53 1240
-0.078669161 -1.1738483 -0.034937706 187 25182760 26 36 102 1177
-0.036566019 -1.1805307 -0.046198964 218 25182760 30 37 42 1182
0.0063361656 -1.1566131 -0.05630561 279 25182760 37 38 109 1158
0.057108369 -1.3614994 -0.079264633 372 25182760 69 39 53 1365
-0.080666438 -1.1896452 -0.079134881 227 25182760 32 40 84 1195
-0.039028652 -1.2418256 -0.094139107 216 25182760 34 41 73 1246
0.007210603 -1.3869354 -0.11841623 384 25182760 74 42 159 1392
0.056296818 -1.3597212 -0.12914488 401 25182760 75 43 70 1367
-0.090841301 -1.3328083 -0.13791049 358 25182760 65 44 68 1343
-0.044133369 -1.3865216 -0.15628858 363 25182760 71 45 19 1396
0.0064970674 -1.3896476 -0.16981673 384 25182760 75 46 111 1400
0.055895325 -1.3580524 -0.17947333 330 25182760 62 47 113 1371
-0.097070925 -1.4068348 -0.19791177 367 25182760 74 48 26 1424
-0.048669148 -1.5083231 -0.22642639 253 25182760 59 49 15 1526
0.0061289826 -1.4762493 -0.2359568 254 25182760 57 50 83 1495
0.057141449 -1.3978286 -0.23742624 405 25182760 82 51 86 1419
-0.099050485 -1.4171543 -0.25320297 396 25182760 82 52 44 1443
-0.049995184 -1.5254648 -0.28682202 135 25182760 33 53 67 1553
0.0055603208 -1.4489202 -0.28658071 371 25182760 81 54 155 1477
0.061686713 -1.5083725 -0.31427908 194 25182760 46 55 86 1542
-0.10247556 -1.4544786 -0.31631464 101 25182760 23 56 98 1492
-0.047742281 -1.4337922 -0.32527193 305 25182760 66 57 19 1471
0.0054593426 -1.4975268 -0.35483071 179 25182760 42 58 70 1539
0.064398006 -1.5780424 -0.39085105 162 25182760 43 59 74 1627
-0.10214645 -1.4260199 -0.36689162 414 25182760 90 60 1 1476
-0.049150374 -1.4398137 -0.3841897 362 25182760 80 61 23 1491
0.0072351228 -2.0949607 -0.58082998 369 25182760 175 62 71 2174
0.085214749 -2.0668955 -0.59673357 360 25182760 167 63 55 2153
-0.094167359 -1.2938507 0.40492502 404 25280290 75 0 1 1359
-0.044160277 -1.2769251 0.38349506 458 25280290 82 1 3 1334
0.0040380093 -1.3505155 0.39105952 367 25280290 72 2 24 1406
0.052257851 -1.2847158 0.35916507 423 25280290 75 3 19 1335
-0.092066839 -1.2738955 0.34502646 462 25280290 81 4 30 1323
-0.045699686 -1.3049538 0.33883387 464 25280290 84 5 1 1349
0.0036362919 -1.3953534 0.34759146 145 25280290 30 6 76 1438
0.055852436 -1.4081869 0.33688509 273 25280290 57 7 45 1449
-0.093945488 -1.30337 0.30113485 453 25280290 81 8 1 1341
-0.046213757 -1.3342803 0.29368302 474 25280290 89 9 13 1367
0.002847434 -1.3789389 0.28948283 490 25280290 97 10 37 1409
0.05161145 -1.3305812 0.26655969 473 25280290 87 11 15 1358
-0.095178947 -1.3233817 0.25456488 446 25280290 81 12 43 1351
-0.046866965 -1.3382854 0.24313948 462 25280290 86 13 1 1361
0.0025455456 -1.3591039 0.23339066 489 25280290 93 14 88 1379
0.052046139 -1.3503066 0.21937266 426 25280290 80 15 46 1369
-0.083681032 -1.1632292 0.17970915 302 25280290 42 16 25 1180
-0.040791396 -1.1572905 0.16707797 335 25280290 46 17 66 1170
0.0015549529 -1.1674652 0.15718372 316 25280290 44 18 58 1178
0.045849096 -1.2087123 0.15124023 259 25280290 39 19 73 1219
-0.082049608 -1.1402731 0.13358968 262 25280290 35 20 70 1151
-0.040669445 -1.1487049 0.12312213 300 25280290 40 21 60 1156
0.00098423695 -1.1435764 0.11150404 314 25280290 42 22 65 1149
0.04231897 -1.1318148 0.099867053 331 25280290 43 23 111 1137
-0.08062727 -1.1175092 0.089713395 249 25280290 32 24 62 1124
-0.040000282 -1.1215011 0.079122394 297 25280290 38 25 63 1125
0.00096764608 -1.1718261 0.071405113 349 25280290 48 26 104 1174
0.0428553 -1.1646686 0.059998013 345 25280290 47 27 96 1167
-0.083817318 -1.1538674 0.050289147 227 25280290 30 28 46 1158
-0.040756572 -1.1316162 0.038375121 285 25280290 37 29 20 1133
-0.0001322023 -1.1326555 0.027938651 344 25280290 44 30 36 1133
0.041569848 -1.1411157 0.017060867 292 25280290 38 31 67 1142
-0.086129889 -1.1848447 0.0082937377 199 25280290 28 32 68 1188
-0.042249247 -1.1612281 -0.0029407023 322 25280290 44 33 66 1162
-0.00027398954 -1.1469183 -0.013692621 303 25280290 40 34 71 1147
0.041757636 -1.1669846 -0.025051793 258 25280290 35 35 83 1168
-0.084119305 -1.1494179 -0.034225293 182 25280290 24 36 126 1153
-0.044253692 -1.1922666 -0.046667989 222 25280290 32 37 43 1194
-0.00080021739 -1.2165592 -0.059222996 305 25280290 45 38 88 1218
0.047896091 -1.3378801 -0.077870972 347 25280290 63 39 68 1341
-0.090614423 -1.2249509 -0.081518859 227 25280290 34 40 74 1231
-0.046647616 -1.2415627 -0.094139107 252 25280290 39 41 54 1246
-0.0012659981 -1.351084 -0.11535374 370 25280290 68 42 148 1356
0.04837361 -1.3719798 -0.13027854 392 25280290 75 43 79 1379
-0.10078704 -1.3560332 -0.14037502 347 25280290 65 44 64 1367
-0.051282592 -1.3504767 -0.15225822 357 25280290 66 45 55 1360
-0.0020297719 -1.3896613 -0.16981673 381 25280290 75 46 111 1400
0.047561418 -1.3583697 -0.17947333 339 25280290 64 47 109 1371
-0.10748275 -1.429913 -0.20124736 392 25280290 82 48 31 1448
-0.057467639 -1.4961376 -0.22464584 270 25280290 62 49 25 1514
-0.0029292286 -1.4762592 -0.2359568 256 25280290 57 50 97 1495
0.048974145 -1.4099766 -0.23943409 342 25280290 70 51 93 1431
-0.10505611 -1.3811805 -0.24688604 348 25280290 69 52 44 1407
-0.057519801 -1.4779907 -0.27795693 239 25280290 54 53 48 1505
-0.003303135 -1.4371551 -0.28425235 366 25280290 79 54 131 1465
0.051614318 -1.4852406 -0.30938759 179 25280290 41 55 81 1518
-0.11677393 -1.5239801 -0.33157915 125 25280290 31 56 90 1564
-0.059306342 -1.5036354 -0.34119278 185 25280290 44 57 47 1543
-0.0037584912 -1.5092088 -0.35759744 164 25280290 40 58 65 1551
0.052292831 -1.5085582 -0.37355462 184 25280290 45 59 103 1555
-0.11179601 -1.4369546 -0.36987448 373 25280290 83 60 1 1488
-0.057050638 -1.4163144 -0.37800556 379 25280290 82 61 11 1467
-0.0055574146 -2.0718381 -0.57441789 370 25280290 171 62 69 2150
0.073743694 -2.1019478 -0.60671145 361 25280290 173 63 58 2189
-0.10210451 -1.2932485 0.40492502 410 25378330 76 0 8 1359
-0.052462228 -1.288114 0.3869448 443 25378330 80 1 6 1346
-0.0042124125 -1.3389884 0.3877219 412 25378330 80 2 41 1394
0.043975133 -1.2734616 0.35593662 387 25378330 68 3 24 1323
-0.1016935 -1.2964052 0.35128546 458 25378330 83 4 20 1347
-0.05418361 -1.3162543 0.34184796 453 25378330 84 5 1 1361
-0.0050899158 -1.4419258 0.35919395 163 25378330 36 6 67 1486
0.045646988 -1.3618445 0.32572532 397 25378330 78 7 32 1401
-0.10194104 -1.3027689 0.30113485 451 25378330 81 8 1 1341
-0.055832498 -1.3691018 0.30141717 491 25378330 97 9 1 1403
-0.0054223924 -1.3319548 0.27962112 488 25378330 90 10 33 1361
0.044597927 -1.3661537 0.27362609 469 25378330 91 11 7 1394
-0.10421479 -1.3345219 0.25682601 460 25378330 85 12 37 1363
-0.055077646 -1.3379726 0.24313948 463 25378330 86 13 1 1361
-0.0057433899 -1.3472673 0.23135971 510 25378330 95 14 88 1367
0.043759834 -1.3506006 0.21937266 481 25378330 90 15 41 1369
-0.085275531 -1.0917498 0.16874385 321 25378330 39 16 31 1108
-0.047400437 -1.1451515 0.16536435 324 25378330 44 17 59 1158
-0.0056085084 -1.1674528 0.15718372 318 25378330 44 18 54 1178
0.035783425 -1.125662 0.14081843 272 25378330 35 19 58 1135
-0.09090136 -1.1635137 0.13637523 229 25378330 32 20 54 1175
-0.047716998 -1.1484338 0.12312213 271 25378330 36 21 54 1156
-0.0058436221 -1.1077313 0.10801044 297 25378330 37 22 58 1113
0.036120154 -1.1559488 0.10197505 335 25378330 45 23 112 1161
-0.092152551 -1.1766194 0.09450236 236 25378330 33 24 52 1184
-0.04838112 -1.157114 0.08165431 277 25378330 37 25 45 1161
-0.0060953549 -1.1478548 0.069945388 358 25378330 47 26 113 1150
0.035341043 -1.1529311 0.059381068 345 25378330 46 27 82 1155
-0.08806996 -1.1174765 0.048725754 238 25378330 30 28 45 1122
-0.04921487 -1.1672922 0.039594453 244 25378330 33 29 19 1169
-0.0070820432 -1.1326333 0.027938651 331 25378330 42 30 27 1133
0.035293765 -1.1653355 0.017419413 322 25378330 44 31 65 1166
-0.090568088 -1.1484063 0.0080424128 182 25378330 24 32 59 1152
-0.048353847 -1.1369686 -0.0028799647 282 25378330 36 33 57 1138
-0.007464326 -1.1708927 -0.013979127 287 25378330 39 34 70 1171
0.03495181 -1.1792108 -0.025309175 270 25378330 38 35 73 1180
-0.09306816 -1.1727945 -0.034937706 191 25378330 26 36 115 1177
-0.051568467 -1.1919726 -0.046667989 194 25378330 28 37 53 1194
-0.0081020137 -1.1925602 -0.058056038 258 25378330 37 38 94 1194
0.040396374 -1.3620977 -0.079264633 404 25378330 75 39 58 1365
-0.10386834 -1.2959843 -0.08628682 222 25378330 38 40 39 1303
-0.053742211 -1.2292988 -0.093232475 220 25378330 34 41 90 1234
-0.0096406369 -1.3630069 -0.11637457 403 25378330 75 42 170 1368
0.03995439 -1.3722508 -0.13027854 373 25378330 71 43 60 1379
-0.11102113 -1.3791853 -0.14283952 403 25378330 78 44 41 1391
-0.061144799 -1.3858756 -0.15628858 335 25378330 65 45 22 1396
-0.010375565 -1.3658005 -0.16690558 371 25378330 70 46 129 1376
0.039225724 -1.358636 -0.17947333 363 25378330 68 47 128 1371
-0.11529108 -1.4173822 -0.19957958 386 25378330 80 48 32 1436
-0.066646688 -1.4957569 -0.22464584 308 25378330 71 49 3 1514
-0.01189111 -1.4643642 -0.23406282 267 25378330 59 50 100 1483
0.040659897 -1.4220766 -0.24144192 261 25378330 54 51 76 1443
-0.11546542 -1.4040581 -0.25109732 268 25378330 55 52 75 1431
-0.063401915 -1.4069203 -0.26465932 268 25378330 55 53 53 1433
-0.012220578 -1.4488794 -0.28658071 348 25378330 76 54 112 1477
0.040820234 -1.4268128 -0.29715881 188 25378330 40 55 65 1458
-0.12321962 -1.4881732 -0.32394689 239 25378330 56 56 78 1528
-0.069064327 -1.5149341 -0.34384626 198 25378330 48 57 20 1555
-0.013320928 -1.5441861 -0.36589757 230 25378330 58 58 94 1587
0.043035507 -1.5088506 -0.37355462 180 25378330 44 59 88 1555
-0.1235289 -1.4709895 -0.37882304 328 25378330 76 60 1 1524
-0.066277653 -1.4275199 -0.38109761 303 25378330 66 61 12 1479
-0.01826987 -2.0717652 -0.57441789 364 25378330 168 62 65 2150
0.060844995 -2.1023607 -0.60671145 358 25378330 171 63 48 2189
-0.11198107 -1.3154249 0.412076 414 25476420 79 0 1 1383
-0.060364958 -1.2877679 0.3869448 476 25476420 86 1 11 1346
-0.012428212 -1.3389374 0.3877219 393 25476420 76 2 29 1394
0.037472434 -1.3199191 0.36885041 386 25476420 73 3 14 1371
-0.11159977 -1.3188437 0.35754442 469 25476420 88 4 1 1371
-0.063356854 -1.3391017 0.34787616 462 25476420 89 5 1 1385
-0.014162409 -1.4651546 0.36499521 174 25476420 40 6 60 1510
0.036012407 -1.3154317 0.31456557 460 25476420 84 7 63 1353
-0.10993277 -1.302119 0.30113485 445 25476420 80 8 1 1341
-0.063133329 -1.3453196 0.29626107 489 25476420 93 9 1 1379
-0.013834747 -1.3553834 0.28455198 485 25476420 93 10 33 1385
0.035279289 -1.3311143 0.26655969 466 25476420 86 11 4 1358
-0.11042212 -1.3103706 0.25230378 431 25476420 77 12 67 1339
-0.062728263 -1.3258158 0.24099572 482 25476420 88 13 2 1349
-0.014009958 -1.3472066 0.23135971 493 25476420 92 14 89 1367
0.036093738 -1.3745253 0.22321847 494 25476420 96 15 40 1393
-0.093964964 -1.1148423 0.17239895 290 25476420 37 16 20 1132
-0.054990061 -1.1567028 0.16707797 304 25476420 42 17 54 1170
-0.012901861 -1.1792884 0.15878491 314 25476420 44 18 74 1190
0.029181115 -1.1377637 0.14230725 321 25476420 42 19 68 1147
-0.10004132 -1.1866875 0.13916077 251 25476420 36 20 73 1199
-0.056468174 -1.1838739 0.12695639 296 25476420 42 21 48 1192
-0.013185563 -1.155445 0.11266857 319 25476420 43 22 68 1161
0.027826637 -1.1083492 0.097759031 341 25476420 42 23 99 1113
-0.099370413 -1.1760318 0.09450236 220 25476420 31 24 50 1184
-0.053759813 -1.1209258 0.079122394 295 25476420 37 25 46 1125
-0.013138345 -1.1477958 0.069945388 325 25476420 43 26 119 1150
0.027678777 -1.1291652 0.058147173 341 25476420 44 27 90 1131
-0.095940247 -1.1288606 0.049246881 219 25476420 28 28 58 1134
-0.056376316 -1.1669683 0.039594453 260 25476420 36 29 11 1169
-0.014031618 -1.1325686 0.027938651 314 25476420 40 30 34 1133
0.027273836 -1.1295446 0.016881593 307 25476420 39 31 63 1130
-0.098629668 -1.1597854 0.0081261871 210 25476420 29 32 65 1164
-0.055912685 -1.1486363 -0.0029103337 266 25476420 35 33 56 1150
-0.014648649 -1.1708249 -0.013979127 323 25476420 44 34 68 1171
0.026870089 -1.1434212 -0.024537031 313 25476420 41 35 46 1144
-0.10128476 -1.1841524 -0.035293907 170 25476420 24 36 95 1189
-0.058289535 -1.1796576 -0.046198964 218 25476420 30 37 37 1182
-0.015109339 -1.1685185 -0.056889087 278 25476420 38 38 107 1170
0.031756289 -1.3503436 -0.078567803 337 25476420 62 39 65 1353
-0.11387797 -1.3191811 -0.087876141 288 25476420 51 40 46 1327
-0.060092121 -1.2050443 -0.091419198 223 25476420 33 41 75 1210
-0.01847749 -1.3987886 -0.11943706 378 25476420 74 42 149 1404
0.031533666 -1.3724701 -0.13027854 365 25476420 69 43 73 1379
-0.12154307 -1.4022622 -0.14530405 437 25476420 88 44 12 1415
-0.068449847 -1.3616554 -0.15360168 327 25476420 61 45 48 1372
-0.018919332 -1.3776214 -0.16836116 356 25476420 69 46 128 1388
0.031158911 -1.3707447 -0.18104421 324 25476420 62 47 115 1383
-0.1239858 -1.4166481 -0.19957958 324 25476420 67 48 53 1436
-0.074621275 -1.471616 -0.22108476 342 25476420 76 49 22 1490
-0.020876056 -1.4642636 -0.23406282 266 25476420 59 50 79 1483
0.033526786 -1.4932665 -0.25348893 250 25476420 57 51 86 1515
-0.1324023 -1.4974664 -0.26794243 161 25476420 37 52 45 1527
-0.07927195 -1.5478423 -0.29125452 105 25476420 26 53 51 1577
-0.021110505 -1.4487771 -0.28658071 341 25476420 74 54 130 1477
0.033648152 -1.4975073 -0.31183332 168 25476420 39 55 74 1530
-0.12611224 -1.4173027 -0.30868238 273 25476420 58 56 59 1456
-0.074125618 -1.4326705 -0.32527193 360 25476420 78 57 32 1471
-0.02158905 -1.4623473 -0.34653059 339 25476420 77 58 92 1503
0.034297876 -1.5323776 -0.37932011 182 25476420 45 59 77 1579
-0.13150868 -1.4586273 -0.37584022 386 25476420 88 60 1 1512
-0.076861925 -1.4618227 -0.39037383 181 25476420 42 61 18 1515
-0.030808717 -2.0600514 -0.57121181 362 25476420 165 62 52 2138
0.047681175 -2.0911674 -0.60338545 410 25476420 194 63 41 2177
-0.11692531 -1.2804906 0.40134951 428 25574670 78 0 19 1347
-0.067656815 -1.275896 0.38349506 448 25574670 80 1 1 1334
-0.020643543 -1.338836 0.3877219 400 25574670 78 2 35 1394
0.02937286 -1.3201241 0.36885041 394 25574670 74 3 22 1371
-0.11864234 -1.3065969 0.35441494 455 25574670 84 4 7 1359
-0.07095211 -1.327089 0.34486204 451 25574670 85 5 1 1373
-0.021680236 -1.3718985 0.3417902 268 25574670 54 6 81 1414
0.028188199 -1.3272965 0.31735551 440 25574670 82 7 58 1365
-0.1221412 -1.3480031 0.3119137 419 25574670 81 8 4 1389
-0.072008073 -1.3566102 0.29883912 474 25574670 92 9 1 1391
-0.022150964 -1.355273 0.28455198 497 25574670 95 10 51 1385
0.027111059 -1.3313057 0.26655969 488 25574670 90 11 20 1358
-0.12164522 -1.3448797 0.25908715 478 25574670 90 12 42 1375
-0.072753191 -1.3607763 0.24742703 444 25574670 85 13 15 1385
-0.022471545 -1.3589206 0.23339066 483 25574670 92 14 55 1379
0.027182592 -1.3510358 0.21937266 504 25574670 94 15 30 1369
-0.10187233 -1.1260566 0.17422651 314 25574670 41 16 11 1144
-0.062723204 -1.1682035 0.16879159 318 25574670 44 17 52 1182
-0.019528391 -1.1435142 0.15398134 331 25574670 44 18 52 1154
0.022199377 -1.1379213 0.14230725 292 25574670 38 19 60 1147
-0.10517261 -1.1623105 0.13637523 291 25574670 40 20 69 1175
-0.063089639 -1.1715907 0.1256783 292 25574670 41 21 57 1180
-0.019646309 -1.1195177 0.10917497 318 25574670 40 22 61 1125
0.021705477 -1.1443535 0.10092105 314 25574670 41 23 115 1149
-0.1055043 -1.1634872 0.093544573 252 25574670 35 24 39 1172
-0.063870631 -1.1803389 0.083342262 265 25574670 37 25 53 1185
-0.019759674 -1.1237416 0.068485655 333 25574670 42 26 105 1126
0.020969985 -1.1412958 0.058764119 306 25574670 40 27 101 1143
-0.10613056 -1.1640682 0.050810274 224 25574670 31 28 54 1170
-0.063535638 -1.1666005 0.039594453 238 25574670 32 29 27 1169
-0.021647304 -1.168444 0.028826375 313 25574670 43 30 41 1169
0.020774622 -1.1536843 0.017240141 330 25574670 44 31 72 1154
-0.10247368 -1.1233082 0.0078748614 181 25574670 23 32 68 1128
-0.064273469 -1.1722355 -0.0029710708 270 25574670 37 33 60 1174
-0.021384958 -1.146719 -0.013692621 293 25574670 39 34 76 1147
0.020478448 -1.1795509 -0.025309175 317 25574670 44 35 66 1180
-0.11073973 -1.2073978 -0.036006317 174 25574670 26 36 107 1213
-0.064861439 -1.1673055 -0.045729939 251 25574670 34 37 53 1170
-0.02227895 -1.1684039 -0.056889087 261 25574670 36 38 105 1170
0.022221172 -1.2786453 -0.074386805 233 25574670 38 39 64 1281
-0.12638207 -1.3661486 -0.091054782 357 25574670 67 40 47 1375
-0.070831373 -1.2643877 -0.095952384 226 25574670 37 41 65 1270
-0.026366103 -1.3627861 -0.11637457 381 25574670 71 42 154 1368
0.022910636 -1.3606932 -0.12914488 389 25574670 73 43 60 1367
-0.1279375 -1.3777192 -0.14283952 343 25574670 66 44 58 1391
-0.078818776 -1.3969266 -0.15763204 355 25574670 70 45 33 1408
-0.027371902 -1.3774793 -0.16836116 370 25574670 71 46 109 1388
0.023142345 -1.3947004 -0.18418598 338 25574670 67 47 113 1407
-0.13267586 -1.4158607 -0.19957958 212 25574670 44 48 49 1436
-0.082302153 -1.4474343 -0.21752365 329 25574670 71 49 1 1466
-0.029860215 -1.464108 -0.23406282 288 25574670 63 50 90 1483
0.024170663 -1.4816147 -0.25148106 239 25574670 54 51 89 1503
-0.13602471 -1.4378194 -0.25741425 312 25574670 67 52 46 1467
-0.08741691 -1.5237784 -0.28682202 104 25574670 25 53 60 1553
-0.029999638 -1.4486203 -0.28658071 225 25574670 49 54 96 1477
0.024458986 -1.4976856 -0.31183332 177 25574670 42 55 76 1530
-0.1470277 -1.5449214 -0.3366673 148 25574670 37 56 72 1588
-0.08359132 -1.4438721 -0.32792541 349 25574670 77 57 20 1483
-0.030317435 -1.4505131 -0.34376386 395 25574670 88 58 132 1491
0.024894737 -1.5325593 -0.37932011 175 25574670 44 59 89 1579
-0.13711198 -1.4230837 -0.36689162 388 25574670 85 60 5 1476
-0.087189734 -1.4844732 -0.39655796 130 25574670 31 61 17 1539
-0.043692239 -2.0713849 -0.57441789 351 25574670 162 62 63 2150
0.035041213 -2.1029491 -0.60671145 384 25574670 184 63 50 2189
-0.12366842 -1.2683482 0.39777401 427 25671220 76 0 26 1335
-0.076163307 -1.2869301 0.3869448 443 25671220 80 1 30 1346
-0.028858097 -1.3386841 0.3877219 388 25671220 75 2 48 1394
0.020899799 -1.2971674 0.36239353 458 25671220 83 3 19 1347
-0.12777561 -1.3173748 0.35754442 464 25671220 87 4 28 1371
-0.07840237 -1.3150339 0.34184796 449 25671220 83 5 1 1361
-0.029075937 -1.3251742 0.33018771 408 25671220 76 6 50 1366
0.019514911 -1.2924351 0.30898571 413 25671220 73 7 41 1329
-0.12928346 -1.3355893 0.309219 381 25671220 72 8 1 1377
-0.078944713 -1.3327442 0.29368302 460 25671220 86 9 1 1367
-0.030466344 -1.3551115 0.28455198 490 25671220 94 10 39 1385
0.019109191 -1.3432125 0.26891518 488 25671220 92 11 13 1370
-0.12762769 -1.3206472 0.25456488 444 25671220 81 12 34 1351
-0.080398701 -1.3485181 0.24528325 442 25671220 83 13 12 1373
-0.030273098 -1.3351094 0.22932874 499 25671220 92 14 82 1355
0.019057881 -1.363021 0.22129557 541 25671220 103 15 34 1381
-0.11106186 -1.1490203 0.17788161 309 25671220 42 16 17 1168
-0.069889985 -1.1677966 0.16879159 320 25671220 45 17 67 1182
-0.026544493 -1.1433728 0.15398134 335 25671220 45 18 58 1154
0.015535204 -1.1618485 0.14528491 314 25671220 43 19 66 1171
-0.11230244 -1.1616433 0.13637523 256 25671220 35 20 54 1175
-0.06956251 -1.1592712 0.12440022 276 25671220 38 21 67 1168
-0.02708083 -1.1432562 0.11150404 287 25671220 38 22 70 1149
0.014836798 -1.1564177 0.10197505 310 25671220 42 23 101 1161
-0.11379465 -1.1747239 0.09450236 249 25671220 35 24 56 1184
-0.069671609 -1.1560274 0.08165431 275 25671220 37 25 67 1161
-0.026654452 -1.1235993 0.068485655 353 25671220 45 26 139 1126
0.014553262 -1.1893359 0.061231907 353 25671220 50 27 79 1191
-0.11675642 -1.1991919 0.05237367 220 25671220 32 28 36 1206
-0.071418241 -1.1781598 0.040000901 258 25671220 36 29 31 1181
-0.02852053 -1.1562966 0.028530467 336 25671220 45 30 36 1157
0.013695356 -1.15379 0.017240141 282 25671220 38 31 62 1154
-0.11401804 -1.1704309 0.0082099624 178 25671220 25 32 67 1176
-0.070734486 -1.1598414 -0.0029407023 260 25671220 35 33 56 1162
-0.02842069 -1.1465662 -0.013692621 328 25671220 43 34 78 1147
0.013105826 -1.1676579 -0.025051793 313 25671220 43 35 83 1168
-0.1181461 -1.2066956 -0.036006317 191 25671220 28 36 91 1213
-0.074238747 -1.2027897 -0.047137015 228 25671220 33 37 43 1206
-0.029749747 -1.180227 -0.057472561 238 25671220 33 38 95 1182
0.013432503 -1.1949047 -0.069508985 246 25671220 35 39 58 1197
-0.13476221 -1.3653474 -0.091054782 333 25671220 63 40 51 1375
-0.080815874 -1.2997572 -0.098672293 205 25671220 35 41 60 1306
-0.034422878 -1.350646 -0.11535374 361 25671220 66 42 150 1356
0.014561147 -1.3608081 -0.12914488 375 25671220 70 43 72 1367
-0.1458015 -1.4719357 -0.15269762 306 25671220 68 44 44 1487
-0.090367831 -1.4440218 -0.16300586 368 25671220 78 45 33 1456
-0.035204016 -1.3534708 -0.16545002 381 25671220 71 46 123 1364
0.014335418 -1.3710239 -0.18104421 371 25671220 71 47 134 1383
-0.15199251 -1.5214419 -0.21458973 197 25671220 47 48 63 1544
-0.091181897 -1.446902 -0.21752365 352 25671220 76 49 8 1466
-0.038528942 -1.4520518 -0.23216885 336 25671220 73 50 98 1471
0.014838406 -1.4580747 -0.24746542 260 25671220 57 51 96 1479
-0.13892034 -1.3781863 -0.24688604 258 25671220 51 52 58 1407
-0.096764989 -1.5232134 -0.28682202 166 25671220 40 53 73 1553
-0.042047095 -1.5660861 -0.30986416 142 25671220 36 54 81 1597
0.014909631 -1.4625649 -0.30449608 215 25671220 48 55 83 1494
-0.1541391 -1.5206554 -0.33157915 225 25671220 55 56 69 1564
-0.093945324 -1.4666901 -0.33323237 334 25671220 76 57 23 1507
-0.038270157 -1.4152825 -0.33546373 332 25671220 70 58 78 1455
0.015137487 -1.4977391 -0.3706719 200 25671220 48 59 93 1543
-0.14821267 -1.445341 -0.37285736 303 25671220 68 60 1 1500
-0.097047508 -1.4954809 -0.39965004 239 25671220 57 61 7 1551
-0.055142004 -2.0248396 -0.56159365 355 25671220 157 62 76 2102
0.022015745 -2.0915952 -0.60338545 388 25671220 184 63 56 2177
-0.13263011 -1.2789594 0.40134951 437 25768870 79 0 26 1347
-0.084807731 -1.2979075 0.39039451 446 25768870 82 1 15 1358
-0.036752444 -1.3269597 0.38438427 379 25768870 72 2 43 1382
0.013170694 -1.3203852 0.36885041 458 25768870 86 3 22 1371
-0.13466735 -1.3050425 0.35441494 456 25768870 84 4 1 1359
-0.084944971 -1.2913475 0.33581978 476 25768870 85 5 1 1337
-0.037206504 -1.324971 0.33018771 429 25768870 80 6 83 1366
0.011793508 -1.3158718 0.31456557 345 25768870 63 7 55 1353
-0.13867408 -1.3464028 0.3119137 281 25768870 54 8 51 1389
-0.087120794 -1.3322347 0.29368302 489 25768870 91 9 1 1367
-0.038444571 -1.3431598 0.28208655 523 25768870 99 10 40 1373
0.01096222 -1.3550706 0.27127063 496 25768870 95 11 28 1382
-0.1381398 -1.3432857 0.25908715 423 25768870 80 12 40 1375
-0.087896548 -1.336218 0.24313948 434 25768870 80 13 23 1361
-0.039145898 -1.3585424 0.23339066 497 25768870 95 14 78 1379
0.010601257 -1.3512677 0.21937266 513 25768870 96 15 49 1369
-0.11689656 -1.1365193 0.17605405 309 25768870 41 16 12 1156
-0.077054136 -1.1673458 0.16879159 315 25768870 44 17 46 1182
-0.034257546 -1.1669636 0.15718372 333 25768870 46 18 77 1178
0.0083198017 -1.150015 0.14379607 282 25768870 38 19 72 1159
-0.12186741 -1.1846449 0.13916077 260 25768870 37 20 70 1199
-0.079037607 -1.1945398 0.12823448 299 25768870 43 21 38 1204
-0.034095209 -1.1430684 0.11150404 336 25768870 44 22 70 1149
0.0075808559 -1.1325804 0.099867053 300 25768870 39 23 122 1137
-0.12222684 -1.1859022 0.095460162 217 25768870 31 24 48 1196
-0.076763548 -1.1555781 0.08165431 251 25768870 34 25 64 1161
-0.033548225 -1.1234146 0.068485655 299 25768870 38 26 110 1126
0.0071091554 -1.1654351 0.059998013 342 25768870 47 27 62 1167
-0.12781717 -1.2342277 0.053937063 214 25768870 33 28 36 1242
-0.079445064 -1.1896659 0.040407345 220 25768870 31 29 15 1193
-0.035984281 -1.1680905 0.028826375 303 25768870 41 30 35 1169
0.0066843694 -1.1658508 0.017419413 325 25768870 44 31 65 1166
-0.12490765 -1.2055167 0.0084612872 163 25768870 24 32 80 1212
-0.079457723 -1.1833316 -0.0030014399 251 25768870 35 33 57 1186
-0.035826288 -1.1583636 -0.013835874 294 25768870 40 34 81 1159
0.0058188904 -1.1437221 -0.024537031 308 25768870 40 35 83 1144
-0.1292741 -1.2417387 -0.037074931 173 25768870 27 36 98 1249
-0.079181187 -1.1664215 -0.045729939 219 25768870 30 37 45 1170
-0.036990926 -1.1800224 -0.057472561 272 25768870 38 38 103 1182
0.0061004525 -1.1949645 -0.069508985 242 25768870 35 39 63 1197
-0.14688487 -1.4002197 -0.093438759 349 25768870 69 40 43 1411
-0.092868656 -1.3589262 -0.10320547 254 25768870 47 41 56 1366
-0.043843523 -1.386261 -0.11841623 367 25768870 71 42 132 1392
0.0062111113 -1.3608719 -0.12914488 354 25768870 66 43 62 1367
-0.15108196 -1.4354004 -0.14900084 288 25768870 61 44 69 1451
-0.096773081 -1.4077507 -0.1589755 352 25768870 71 45 39 1420
-0.043508094 -1.3532293 -0.16545002 330 25768870 61 46 141 1364
0.0058713136 -1.3591895 -0.17947333 355 25768870 67 47 130 1371
-0.15129448 -1.4259431 -0.20124736 389 25768870 81 48 38 1448
-0.1025153 -1.4818319 -0.2228653 364 25768870 82 49 1 1502
-0.048211809 -1.4754746 -0.2359568 352 25768870 79 50 97 1495
0.0058437469 -1.4463077 -0.24545759 247 25768870 53 51 88 1467
-0.15617257 -1.4595354 -0.26162553 107 25768870 24 52 55 1491
-0.10037009 -1.4402357 -0.27130812 300 25768870 65 53 65 1469
-0.049714901 -1.5069708 -0.29822242 292 25768870 69 54 113 1537
0.005887548 -1.4508809 -0.30205032 266 25768870 59 55 70 1482
-0.15719566 -1.4613812 -0.31885871 362 25768870 82 56 72 1504
-0.10376272 -1.4777602 -0.33588582 305 25768870 70 57 29 1519
-0.048502423 -1.4617021 -0.34653059 237 25768870 54 58 104 1503
0.005993499 -1.5094523 -0.37355462 151 25768870 37 59 80 1555
-0.16587472 -1.5252911 -0.39373738 121 25768870 30 60 8 1584
-0.10129078 -1.4254634 -0.38109761 207 25768870 45 61 24 1479
-0.056765012 -1.7008574 -0.47182417 282 25768870 88 62 98 1766
0.0091815423 -2.091691 -0.60338545 381 25768870 180 63 50 2177
-0.14047515 -1.2781215 0.40134951 397 25865580 72 0 1 1347
-0.091130421 -1.2744344 0.38349506 460 25865580 82 1 41 1334
-0.044893824 -1.3267093 0.38438427 382 25865580 73 2 52 1382
0.0050687147 -1.3204411 0.36885041 474 25865580 89 3 28 1371
-0.1426724 -1.3041917 0.35441494 438 25865580 81 4 14 1359
-0.09453395 -1.3139728 0.34184796 468 25865580 87 5 1 1361
-0.045335673 -1.3247176 0.33018771 459 25865580 86 6 88 1366
0.0038841823 -1.3742751 0.32851529 199 25865580 40 7 64 1413
-0.15201044 -1.3920243 0.32269257 292 25865580 60 8 41 1437
-0.093620546 -1.3082952 0.28852692 438 25865580 79 9 12 1343
-0.047501381 -1.3663725 0.28701741 525 25865580 102 10 36 1397
0.0026474565 -1.3551123 0.27127063 465 25865580 89 11 22 1382
-0.14637944 -1.3424128 0.25908715 440 25865580 83 12 67 1375
-0.095246516 -1.3238771 0.24099572 406 25865580 74 13 17 1349
-0.047067843 -1.346457 0.23135971 450 25865580 84 14 93 1367
0.0023098348 -1.3513074 0.21937266 491 25865580 92 15 55 1369
-0.12643957 -1.159361 0.17970915 274 25865580 38 16 12 1180
-0.085925341 -1.1905434 0.17221884 285 25865580 41 17 55 1206
-0.041417252 -1.1667314 0.15718372 329 25865580 46 18 71 1178
0.0012763656 -1.1619517 0.14528491 315 25865580 43 19 60 1171
-0.12784155 -1.1720263 0.137768 290 25865580 41 20 50 1187
-0.081200957 -1.1226283 0.12056597 291 25865580 37 21 68 1132
-0.041537631 -1.1547734 0.11266857 300 25865580 41 22 78 1161
0.00066464645 -1.1923736 0.10513707 289 25865580 41 23 126 1197
-0.12690242 -1.1613481 0.093544573 196 25865580 27 24 52 1172
-0.085585989 -1.1789632 0.083342262 262 25865580 37 25 59 1185
-0.04173369 -1.1590977 0.070675246 305 25865580 41 26 130 1162
-4.1522035e-05 -1.1534727 0.059381068 353 25865580 47 27 86 1155
-0.14716068 -1.3406739 0.058627237 235 25865580 43 28 35 1350
-0.082380608 -1.1293494 0.038375121 239 25865580 31 29 36 1133
-0.04270792 -1.1558595 0.028530467 297 25865580 40 30 22 1157
-0.00045962262 -1.1418725 0.017060867 332 25865580 43 31 58 1142
-0.13754191 -1.2524396 0.0087963883 168 25865580 27 32 55 1260
-0.085839599 -1.1708539 -0.0029710708 243 25865580 34 33 59 1174
-0.04382224 -1.1821038 -0.014122381 277 25865580 39 34 82 1183
-0.0011989658 -1.1437362 -0.024537031 303 25865580 40 35 64 1144
-0.14741246 -1.3363011 -0.039924562 191 25865580 35 36 109 1345
-0.088107727 -1.1898298 -0.046667989 228 25865580 32 37 43 1194
-0.045577839 -1.2157053 -0.059222996 260 25865580 39 38 90 1218
-0.001207129 -1.1710202 -0.068115324 287 25865580 39 39 56 1173
-0.15018472 -1.3516903 -0.090260118 365 25865580 68 40 57 1363
-0.10298325 -1.3821959 -0.10501875 316 25865580 61 41 38 1390
-0.051446073 -1.3620698 -0.11637457 370 25865580 69 42 139 1368
-0.0021579366 -1.3728306 -0.13027854 362 25865580 69 43 66 1379
-0.16120885 -1.4463094 -0.15023309 264 25865580 56 44 51 1463
-0.10719062 -1.430913 -0.1616624 343 25865580 71 45 30 1444
-0.052722152 -1.3767421 -0.16836116 378 25865580 73 46 120 1388
-0.0024902339 -1.3710966 -0.18104421 337 25865580 64 47 135 1383
-0.16004105 -1.4249879 -0.20124736 361 25865580 76 48 49 1448
-0.11160572 -1.4811751 -0.2228653 353 25865580 80 49 20 1502
-0.058183536 -1.4988323 -0.23974472 366 25865580 84 50 85 1519
-0.0030555311 -1.458147 -0.24746542 263 25865580 58 51 74 1479
-0.17044106 -1.5055048 -0.27004805 107 25865580 25 52 57 1539
-0.11366571 -1.4983916 -0.28238946 205 25865580 48 53 44 1529
-0.056198586 -1.4360597 -0.28425235 363 25865580 78 54 159 1465
-0.0030394134 -1.4626378 -0.30449608 346 25865580 77 55 92 1494
-0.16483383 -1.4487371 -0.31631464 339 25865580 76 56 63 1492
-0.11193679 -1.4654268 -0.33323237 340 25865580 77 57 25 1507
-0.059764575 -1.5197154 -0.36036414 97 25865580 24 58 52 1563
-0.0034449976 -1.5910007 -0.39373377 154 25865580 41 59 72 1639
-0.17655811 -1.5357919 -0.3967202 223 25865580 57 60 2 1596
-0.11896317 -1.5404187 -0.41201833 99 25865580 25 61 23 1599
-0.057154428 -1.4462721 -0.40129101 381 25865580 86 62 127 1502
-0.0036932766 -2.1147678 -0.61003745 374 25865580 181 63 65 2201
-0.14963621 -1.2886139 0.40492502 418 25962020 77 0 2 1359
-0.098948486 -1.2738513 0.38349506 440 25962020 78 1 13 1334
-0.053954497 -1.3494433 0.39105952 410 25962020 81 2 31 1406
-0.0030334555 -1.3204474 0.36885041 436 25962020 82 3 14 1371
-0.15067209 -1.3032917 0.35441494 430 25962020 79 4 28 1359
-0.10349914 -1.324948 0.34486204 480 25962020 90 5 1 1373
-0.054872122 -1.3593186 0.3388896 436 25962020 86 6 60 1402
-0.00481867 -1.4559708 0.34804484 190 25962020 42 7 41 1497
-0.15786748 -1.3678325 0.31730315 289 25962020 58 8 11 1413
-0.1034628 -1.3310654 0.29368302 383 25962020 72 9 4 1367
-0.055884391 -1.3660554 0.28701741 531 25962020 104 10 38 1397
-0.0057166168 -1.3668694 0.27362609 494 25962020 96 11 1 1394
-0.15461358 -1.3414894 0.25908715 442 25962020 84 12 1 1375
-0.10520688 -1.3468099 0.24528325 386 25962020 73 13 19 1373
-0.054357272 -1.3225091 0.22729778 420 25962020 76 14 97 1343
-0.0059816744 -1.3512961 0.21937266 506 25962020 95 15 56 1369
-0.12540202 -1.0878713 0.16874385 270 25962020 33 16 31 1108
-0.091373459 -1.1663123 0.16879159 299 25962020 42 17 52 1182
-0.049070228 -1.1783377 0.15878491 343 25962020 49 18 64 1190
-0.0057332958 -1.1381234 0.14230725 289 25962020 38 19 57 1147
-0.13093527 -1.1356983 0.13358968 274 25962020 36 20 65 1151
-0.090889119 -1.1577945 0.12440022 275 25962020 38 21 61 1168
-0.048119847 -1.1425639 0.11150404 293 25962020 39 22 57 1149
-0.0065182671 -1.1684484 0.10302906 297 25962020 41 23 122 1173
-0.15461011 -1.3387886 0.10791149 205 25962020 37 24 28 1352
-0.094698228 -1.2022825 0.085030206 266 25962020 39 25 64 1209
-0.048340574 -1.1468527 0.069945388 291 25962020 38 26 117 1150
-0.0070451312 -1.1414666 0.058764119 351 25962020 46 27 106 1143
-0.15124056 -1.3040192 0.057063844 335 25962020 58 28 26 1314
-0.094038114 -1.1886014 0.040407345 271 25962020 39 29 15 1193
-0.049282838 -1.1435905 0.02823456 290 25962020 38 30 44 1145
-0.0074660121 -1.1418482 0.017060867 320 25962020 42 31 48 1142
-0.1493734 -1.2873312 0.0090477131 193 25962020 32 32 63 1296
-0.093022212 -1.1703051 -0.0029710708 239 25962020 33 33 60 1174
-0.050038494 -1.1578367 -0.013835874 275 25962020 37 34 87 1159
-0.0083029671 -1.1557043 -0.024794411 264 25962020 35 35 48 1156
-0.1653274 -1.4187701 -0.042417992 255 25962020 52 36 96 1429
-0.093489014 -1.1653621 -0.045729939 224 25962020 31 37 51 1170
-0.051468831 -1.1794795 -0.057472561 250 25962020 35 38 110 1182
-0.0083064949 -1.1590111 -0.067418486 261 25962020 35 39 58 1161
-0.15847571 -1.3507434 -0.090260118 364 25962020 68 40 49 1363
-0.11146231 -1.3815382 -0.10501875 375 25962020 72 41 44 1390
-0.060327195 -1.3736737 -0.11739541 368 25962020 70 42 162 1380
-0.010489347 -1.3608457 -0.12914488 364 25962020 68 43 69 1367
-0.17426537 -1.4808574 -0.15392987 283 25962020 64 44 59 1499
-0.11789596 -1.4539993 -0.1643493 287 25962020 62 45 41 1468
-0.062226366 -1.400192 -0.17127229 382 25962020 76 46 114 1412
-0.010713871 -1.3472629 -0.17790245 345 25962020 64 47 127 1359
-0.17297783 -1.4593819 -0.20625076 316 25962020 70 48 36 1484
-0.11683494 -1.4331506 -0.21574311 283 25962020 60 49 16 1454
-0.065249942 -1.4510965 -0.23216885 372 25962020 80 50 110 1471
-0.012197262 -1.4817617 -0.25148106 327 25962020 74 51 101 1503
-0.17967546 -1.5044308 -0.27004805 181 25962020 43 52 58 1539
-0.12478597 -1.5211742 -0.28682202 168 25962020 41 53 60 1553
-0.066074021 -1.4592077 -0.28890905 355 25962020 79 54 131 1489
-0.01172444 -1.4273484 -0.29715881 348 25962020 74 55 78 1458
-0.17232278 -1.4360547 -0.31377053 326 25962020 71 56 80 1480
-0.11996346 -1.4530491 -0.33057889 316 25962020 71 57 29 1495
-0.068557821 -1.5076555 -0.35759744 102 25962020 25 58 89 1551
-0.016494811 -1.9869883 -0.49174684 239 25962020 100 59 81 2047
-0.19576655 -1.6154522 -0.41760021 330 25962020 93 60 1 1680
-0.12648536 -1.5165504 -0.40583417 143 25962020 35 61 18 1575
-0.064972475 -1.4227906 -0.39487889 381 25962020 83 62 115 1478
-0.016396534 -2.0801167 -0.60005951 392 25962020 184 63 58 2165
-0.15893126 -1.2990417 0.40850049 420 26059340 79 0 12 1371
-0.10772321 -1.2846733 0.3869448 446 26059340 81 1 19 1346
-0.061171208 -1.3260585 0.38438427 382 26059340 73 2 38 1382
-0.01094058 -1.2972897 0.36239353 420 26059340 76 3 29 1347
-0.16006713 -1.3138423 0.35754442 430 26059340 81 4 6 1371
-0.11357816 -1.3474365 0.35089022 461 26059340 90 5 1 1397
-0.061047543 -1.31243 0.32728711 470 26059340 86 6 96 1354
-0.013642008 -1.4442431 0.3452549 282 26059340 62 7 37 1485
-0.16766933 -1.3784461 0.31999788 260 26059340 53 8 35 1425
-0.11260802 -1.3420842 0.29626107 395 26059340 75 9 6 1379
-0.064265296 -1.3656867 0.28701741 488 26059340 95 10 41 1397
-0.013860649 -1.3432769 0.26891518 494 26059340 93 11 19 1370
-0.16426305 -1.3522145 0.26134828 382 26059340 74 12 62 1387
-0.11049363 -1.3108432 0.23885193 355 26059340 63 13 41 1337
-0.061912823 -1.3103369 0.22526683 393 26059340 70 14 74 1331
-0.014272959 -1.351234 0.21937266 462 26059340 86 15 47 1369
-0.14208759 -1.1694955 0.1815367 258 26059340 37 16 20 1192
-0.098528095 -1.1657296 0.16879159 306 26059340 43 17 46 1182
-0.054028548 -1.1304978 0.15238015 336 26059340 44 18 63 1142
-0.013115708 -1.1737864 0.14677374 297 26059340 42 19 69 1183
-0.14077677 -1.1585374 0.13637523 269 26059340 37 20 48 1175
-0.098998263 -1.1691041 0.1256783 244 26059340 34 21 61 1180
-0.055129584 -1.1422472 0.11150404 297 26059340 39 22 67 1149
-0.013407555 -1.1444808 0.10092105 313 26059340 41 23 117 1149
-0.15993153 -1.3140665 0.10599589 311 26059340 55 24 13 1328
-0.099034101 -1.1658969 0.08249829 282 26059340 39 25 62 1173
-0.05595446 -1.1584983 0.070675246 286 26059340 39 26 107 1162
-0.013901412 -1.1294187 0.058147173 337 26059340 43 27 88 1131
-0.16505598 -1.3506674 0.059148371 352 26059340 65 28 11 1362
-0.1023487 -1.1999516 0.040813789 232 26059340 34 29 10 1205
-0.056298848 -1.1432666 0.02823456 305 26059340 40 30 32 1145
-0.014320049 -1.1297832 0.016881593 338 26059340 43 31 77 1130
-0.1689191 -1.3816787 0.0097179152 261 26059340 51 32 32 1392
-0.10224973 -1.1936247 -0.0030318084 251 26059340 36 33 39 1198
-0.054775372 -1.1095697 -0.013262861 310 26059340 38 34 74 1111
-0.015873479 -1.1916201 -0.025566556 301 26059340 43 35 68 1192
-0.17110689 -1.3939184 -0.041705586 297 26059340 59 36 81 1405
-0.10270213 -1.1886591 -0.046667989 273 26059340 39 37 39 1194
-0.05870501 -1.1791415 -0.057472561 239 26059340 33 38 116 1182
-0.015736613 -1.1828958 -0.068812154 262 26059340 37 39 62 1185
-0.1623562 -1.3140956 -0.087876141 350 26059340 62 40 42 1327
-0.11993717 -1.3808281 -0.10501875 346 26059340 67 41 53 1390
-0.069950491 -1.3971606 -0.11943706 370 26059340 73 42 147 1404
-0.019500649 -1.4085364 -0.13367958 379 26059340 76 43 61 1415
-0.18628399 -1.5034522 -0.15639441 284 26059340 66 44 52 1523
-0.12888859 -1.4770074 -0.16703622 252 26059340 56 45 29 1492
-0.0720203 -1.4235764 -0.17418344 440 26059340 91 46 110 1436
-0.019650705 -1.3947539 -0.18418598 317 26059340 63 47 133 1407
-0.18781367 -1.5054616 -0.21292193 212 26059340 50 48 48 1532
-0.13184722 -1.5033375 -0.22642639 158 26059340 37 49 12 1526
-0.072942644 -1.4270005 -0.2283809 328 26059340 69 50 107 1447
-0.02111898 -1.4698293 -0.24947324 368 26059340 82 51 137 1491
-0.1741738 -1.3860836 -0.24899168 262 26059340 53 52 51 1419
-0.1310084 -1.485136 -0.28017321 335 26059340 77 53 39 1517
-0.075026304 -1.4587748 -0.28890905 293 26059340 65 54 153 1489
-0.020819422 -1.4507434 -0.30205032 286 26059340 63 55 79 1482
-0.18406828 -1.4582402 -0.31885871 339 26059340 77 56 65 1504
-0.13094586 -1.4755999 -0.33588582 189 26059340 44 57 29 1519
-0.079011306 -1.5305288 -0.36313084 147 26059340 36 58 57 1575
-0.027845597 -1.9286127 -0.47733316 303 26059340 120 59 66 1987
-0.2644394 -2.0754263 -0.53691459 373 26059340 174 60 22 2160
-0.13475379 -1.5041972 -0.40274212 297 26059340 73 61 1 1563
-0.074898109 -1.4454619 -0.40129101 380 26059340 86 62 107 1502
-0.029159581 -2.079977 -0.60005951 352 26059340 165 63 61 2165
-0.16689903 -1.2980421 0.40850049 394 26157850 74 0 14 1371
-0.11663443 -1.2954353 0.39039451 449 26157850 83 1 7 1358
-0.070510179 -1.3486797 0.39105952 382 26157850 75 2 46 1406
-0.018900393 -1.2971982 0.36239353 438 26157850 79 3 23 1347
-0.17106882 -1.3358173 0.36380342 435 26157850 85 4 1 1395
-0.11975049 -1.3235781 0.34486204 446 26157850 84 5 1 1373
-0.069099315 -1.3120308 0.32728711 429 26157850 79 6 55 1354
-0.020684998 -1.3274347 0.31735551 438 26157850 82 7 55 1365
-0.174641 -1.3657923 0.31730315 262 26157850 52 8 18 1413
-0.11978924 -1.3296955 0.29368302 391 26157850 73 9 16 1367
-0.070771791 -1.3300844 0.27962112 443 26157850 82 10 21 1361
-0.022102581 -1.3431666 0.26891518 518 26157850 97 11 8 1370
-0.16957115 -1.3278009 0.25682601 335 26157850 62 12 41 1363
-0.12491806 -1.3806942 0.25171456 377 26157850 75 13 3 1409
-0.068059728 -1.2745022 0.21917397 347 26157850 58 14 90 1295
-0.022761488 -1.3629642 0.22129557 460 26157850 88 15 58 1381
-0.15527131 -1.2156594 0.1888469 265 26157850 41 16 11 1240
-0.10460614 -1.1532748 0.16707797 305 26157850 42 17 52 1170
-0.064807758 -1.2013977 0.1619873 265 26157850 39 18 45 1214
-0.019905485 -1.1498729 0.14379607 301 26157850 40 19 55 1159
-0.15241365 -1.1931202 0.14055353 243 26157850 36 20 50 1211
-0.10509019 -1.1565919 0.12440022 274 26157850 37 21 56 1168
-0.061488293 -1.1299617 0.11033951 301 26157850 39 22 68 1137
-0.020429704 -1.144377 0.10092105 307 26157850 41 23 114 1149
-0.17558144 -1.3723855 0.11078487 327 26157850 63 24 20 1388
-0.10727234 -1.1771882 0.083342262 285 26157850 40 25 58 1185
-0.064364299 -1.1820533 0.072134979 299 26157850 42 26 104 1186
-0.020831132 -1.1293122 0.058147173 327 26157850 42 27 78 1131
-0.17028596 -1.3258471 0.058106109 359 26157850 64 28 10 1338
-0.10533936 -1.1515281 0.039188009 217 26157850 29 29 23 1157
-0.063312739 -1.1428996 0.02823456 253 26157850 33 30 21 1145
-0.021251997 -1.129674 0.016881593 328 26157850 42 31 68 1130
-0.1682182 -1.3092051 0.0092152636 270 26157850 47 32 62 1320
-0.11066929 -1.2049245 -0.003062177 231 26157850 34 33 41 1210
-0.062912852 -1.1331742 -0.013549369 259 26157850 33 34 79 1135
-0.022718016 -1.1675104 -0.025051793 294 26157850 40 35 41 1168
-0.18119103 -1.4047383 -0.042061791 298 26157850 60 36 80 1417
-0.11220461 -1.211886 -0.04760604 216 26157850 32 37 36 1218
-0.067947276 -1.2146604 -0.059222996 262 26157850 39 38 107 1218
-0.024158703 -1.2426643 -0.072296314 269 26157850 42 39 50 1245
-0.17503949 -1.3486969 -0.090260118 346 26157850 64 40 44 1363
-0.12951607 -1.3919804 -0.10592538 348 26157850 68 41 57 1402
-0.076508611 -1.3608922 -0.11637457 383 26157850 72 42 175 1368
-0.027188227 -1.3606144 -0.12914488 339 26157850 63 43 70 1367
-0.19088422 -1.4667706 -0.15269762 313 26157850 69 44 59 1487
-0.13794892 -1.4761888 -0.16703622 274 26157850 61 45 39 1492
-0.080753841 -1.4231076 -0.17418344 366 26157850 76 46 123 1436
-0.027967801 -1.3827128 -0.1826151 348 26157850 68 47 125 1395
-0.18624331 -1.4218006 -0.20124736 335 26157850 70 48 39 1448
-0.14550634 -1.5497611 -0.2335486 74 26157850 18 49 32 1574
-0.083052218 -1.4501866 -0.23216885 223 26157850 48 50 82 1471
-0.030137286 -1.4696721 -0.24947324 384 26157850 85 51 93 1491
-0.19966845 -1.5138251 -0.27215371 121 26157850 29 52 63 1551
-0.1367934 -1.4490801 -0.2735244 360 26157850 79 53 34 1481
-0.084652536 -1.4700394 -0.29123738 315 26157850 71 54 128 1501
-0.030442582 -1.4858253 -0.30938759 140 26157850 32 55 71 1518
-0.1960924 -1.4803346 -0.32394689 363 26157850 85 56 59 1528
-0.14331542 -1.5097204 -0.34384626 83 26157850 20 57 56 1555
-0.08435978 -1.4600716 -0.34653059 136 26157850 31 58 62 1503
-0.029853968 -1.4509141 -0.35914096 332 26157850 74 59 101 1495
-0.28332832 -2.1198485 -0.54884601 420 26157850 205 60 40 2208
-0.13624291 -1.4225483 -0.38109761 355 26157850 78 61 14 1479
-0.083765887 -1.4449751 -0.40129101 378 26157850 85 62 121 1502
-0.042153887 -2.0912862 -0.60338545 341 26157850 162 63 62 2177
-0.17179951 -1.2742891 0.40134951 408 26255330 74 0 1 1347
-0.12458088 -1.2946953 0.39039451 432 26255330 80 1 13 1358
-0.079456612 -1.3597286 0.3943972 409 26255330 82 2 38 1418
-0.027098779 -1.3086128 0.36562198 416 26255330 77 3 36 1359
-0.17926203 -1.3347424 0.36380342 434 26255330 84 4 1 1395
-0.12898715 -1.3343799 0.34787616 471 26255330 90 5 1 1385
-0.077832222 -1.3232061 0.33018771 440 26255330 82 6 83 1366
-0.028829595 -1.3272827 0.31735551 474 26255330 88 7 65 1365
-0.18612663 -1.3878745 0.32269257 272 26255330 56 8 15 1437
-0.12682268 -1.3172696 0.29110494 410 26255330 75 9 20 1355
-0.079627641 -1.3413484 0.28208655 424 26255330 80 10 45 1373
-0.03034368 -1.3430057 0.26891518 537 26255330 101 11 14 1370
-0.18710293 -1.3968197 0.27039275 247 26255330 51 12 50 1435
-0.13111545 -1.3563974 0.24742703 437 26255330 84 13 1 1385
-0.073769271 -1.2386427 0.21308109 266 26255330 42 14 92 1259
-0.030042259 -1.3154315 0.2136039 453 26255330 80 15 43 1333
-0.17690058 -1.3204788 0.20529486 290 26255330 53 16 1 1348
-0.1105351 -1.1407896 0.16536435 325 26255330 44 17 59 1158
-0.067897424 -1.1297497 0.15238015 322 26255330 42 18 53 1142
-0.026402313 -1.1259211 0.14081843 291 26255330 38 19 72 1135
-0.17081128 -1.274856 0.15030292 193 26255330 32 20 49 1295
-0.11679527 -1.2034291 0.12951256 280 26255330 41 21 48 1216
-0.071308911 -1.1772492 0.11499764 292 26255330 41 22 67 1185
-0.02773778 -1.1561803 0.10197505 283 26255330 38 23 95 1161
-0.17445433 -1.3001496 0.10503811 303 26255330 52 24 31 1316
-0.11565284 -1.1884217 0.084186234 262 26255330 38 25 58 1197
-0.06944219 -1.1457685 0.069945388 304 26255330 40 26 116 1150
-0.02776007 -1.1291631 0.058147173 339 26255330 43 27 78 1131
-0.18001814 -1.3366587 0.058627237 338 26255330 62 28 17 1350
-0.11823205 -1.2105416 0.041220229 212 26255330 31 29 21 1217
-0.074009359 -1.202358 0.0297141 277 26255330 40 30 42 1205
-0.028482439 -1.1415174 0.017060867 340 26255330 44 31 55 1142
-0.18425946 -1.3676096 0.0096341399 293 26255330 56 32 45 1380
-0.11688964 -1.1922801 -0.0030318084 214 26255330 31 33 50 1198
-0.070603348 -1.1447431 -0.013692621 244 26255330 32 34 70 1147
-0.029881299 -1.167349 -0.025051793 298 26255330 41 35 76 1168
-0.18498473 -1.3679405 -0.040993176 324 26255330 62 36 111 1381
-0.12317461 -1.246973 -0.049013115 214 26255330 34 37 44 1254
-0.073170468 -1.1783323 -0.057472561 244 26255330 34 38 86 1182
-0.03025138 -1.1826136 -0.068812154 251 26255330 35 39 69 1185
-0.18492554 -1.359462 -0.091054782 348 26255330 66 40 63 1375
-0.1392363 -1.4030668 -0.10683202 347 26255330 69 41 56 1414
-0.084857449 -1.3603971 -0.11637457 352 26255330 66 42 137 1368
-0.035848238 -1.3723643 -0.13027854 405 26255330 77 43 66 1379
-0.19342846 -1.4182633 -0.14776857 372 26255330 77 44 62 1439
-0.14700404 -1.4753145 -0.16703622 277 26255330 62 45 31 1492
-0.090979896 -1.4463611 -0.17709458 317 26255330 68 46 101 1460
-0.038019244 -1.4419782 -0.1904695 345 26255330 73 47 112 1455
-0.19334808 -1.4088579 -0.19957958 290 26255330 60 48 57 1436
-0.14792196 -1.47799 -0.2228653 105 26255330 24 49 45 1502
-0.099449754 -1.567908 -0.25110853 140 26255330 36 50 63 1591
