# .PCD v0.7 - Point Cloud Data file format
VERSION 0.7
FIELDS x y z intensity t reflectivity ring noise range
SIZE 4 4 4 4 4 2 1 2 4
TYPE F F F F U U U U U
COUNT 1 1 1 1 1 1 1 1 1
WIDTH 850
HEIGHT 1
VIEWPOINT 0 0 0 1 0 0 0
POINTS 850
DATA ascii
1.891642 -1.3744624 -0.55403394 70 10275950 41 58 64 2403
2.2687538 -1.523049 -0.67624193 51 10275950 41 59 101 2815
1.7993337 -1.5263813 -0.60552031 176 10275950 105 60 60 2436
1.8801936 -1.477764 -0.63773942 327 10275950 201 61 62 2475
1.9939083 -1.4493538 -0.6834237 144 10275950 94 62 84 2558
2.3595722 -1.5825832 -0.81957322 283 10275950 248 63 64 2957
1.1890264 -1.0109973 0.48716143 157 10371940 42 0 31 1635
1.2751931 -1.0031762 0.48698699 174 10371940 50 1 57 1694
1.1386479 -0.82847989 0.40774772 14 10371940 3 2 68 1466
1.3073162 -0.87787157 0.43987632 11 10371940 3 3 57 1635
1.2206755 -1.0368437 0.43265221 339 10371940 93 4 17 1659
1.2540482 -0.98742801 0.41418609 332 10371940 90 5 1 1649
1.3727225 -0.99959886 0.4230077 199 10371940 61 6 99 1750
1.3241109 -0.8910954 0.38152409 27 10371940 7 7 58 1641
1.2546231 -1.0652642 0.3792817 304 10371940 87 8 22 1689
1.2795286 -1.0066954 0.3581343 348 10371940 97 9 16 1667
1.342034 -0.97836339 0.3486532 369 10371940 106 10 56 1697
1.4357737 -0.96806341 0.34664539 124 10371940 39 11 21 1766
1.2900683 -1.095011 0.32465973 302 10371940 90 12 49 1723
1.3489519 -1.0621544 0.31174019 284 10371940 86 13 22 1745
1.3847604 -1.0099188 0.29431933 306 10371940 93 14 80 1739
1.4148226 -0.95444012 0.27706012 268 10371940 80 15 60 1729
1.3231211 -1.123106 0.26743159 195 10371940 60 16 32 1756
1.3668211 -1.0767269 0.25104538 283 10371940 87 17 34 1758
1.4423419 -1.0531095 0.24044572 56 10371940 18 18 95 1802
1.4364846 -0.97033066 0.21674871 247 10371940 75 19 80 1747
1.462183 -1.24119 0.22411963 60 10371940 22 20 80 1931
1.4463606 -1.1397532 0.19725104 62 10371940 21 21 69 1852
1.4921832 -1.090579 0.18021148 231 10371940 80 22 76 1857
1.4828053 -1.0027887 0.15783736 218 10371940 70 23 132 1797
1.3463862 -1.1433394 0.14143428 14 10371940 5 24 67 1772
1.6520499 -1.3025405 0.14832813 22 10371940 10 25 91 2109
1.4585712 -1.0660914 0.11008795 114 10371940 37 26 125 1810
1.4512619 -0.98271209 0.090228379 15 10371940 5 27 110 1755
1.5757011 -1.3393975 0.089895107 19 10371940 8 28 68 2070
1.5103766 -1.191695 0.065200448 15 10371940 5 29 43 1925
0 -0 0 3 10371940 0 30 41 0
0 -0 0 7 10371940 0 31 62 0
0 -0 0 0 10371940 0 32 91 0
0 -0 -0 5 10371940 0 33 72 0
1.6802498 -1.2308663 -0.024866374 49 10371940 21 34 84 2083
1.7405688 -1.181186 -0.045127545 25 10371940 11 35 71 2104
0 -0 -0 7 10371940 0 36 142 0
1.6694529 -1.320188 -0.083251946 44 10371940 20 37 68 2130
1.7060595 -1.2508715 -0.10298382 210 10371940 94 38 112 2118
1.2961044 -0.87953019 -0.091110781 26 10371940 6 39 71 1569
1.7914169 -1.5268607 -0.1562169 170 10371940 95 40 121 2359
1.6684836 -1.3206526 -0.16123022 87 10371940 40 41 106 2134
1.6292362 -1.195245 -0.17252021 125 10371940 51 42 139 2028
1.8470279 -1.2548442 -0.21190339 234 10371940 118 43 64 2243
1.7066262 -1.4556208 -0.23156229 74 10371940 38 44 118 2255
1.9192626 -1.5204049 -0.27585608 78 10371940 48 45 65 2464
1.8784765 -1.3796068 -0.28480691 230 10371940 127 46 108 2348
0 -0 -0 6 10371940 0 47 115 0
1.5871512 -1.3560164 -0.29297614 123 10371940 55 48 77 2108
1.6753436 -1.3283669 -0.32079548 16 10371940 8 49 59 2162
0 -0 -0 8 10371940 0 50 50 0
0 -0 -0 5 10371940 0 51 73 0
1.2856938 -1.1004411 -0.30163264 12 10371940 4 52 94 1719
1.4818443 -1.1761649 -0.3555263 10 10371940 4 53 91 1925
2.0299723 -1.4934894 -0.49846023 219 10371940 145 54 81 2569
2.47228 -1.6814611 -0.6224438 309 10371940 289 55 68 3054
1.579175 -1.3531641 -0.45115113 204 10371940 92 56 124 2128
1.672954 -1.3292801 -0.4844805 103 10371940 50 57 74 2191
1.9207892 -1.4137297 -0.56510079 118 10371940 71 58 44 2451
1.9318984 -1.3141801 -0.57822889 25 10371940 15 59 82 2407
1.7722994 -1.5222464 -0.5995546 136 10371940 79 60 48 2412
1.8710908 -1.4892728 -0.63773942 355 10371940 217 61 46 2475
1.9197948 -1.413566 -0.66098136 68 10371940 42 62 63 2474
2.1209543 -1.441487 -0.73975003 234 10371940 166 63 56 2669
1.1567572 -0.99585325 0.47643495 127 10470850 32 0 47 1599
1.2330558 -0.98233527 0.47318804 168 10470850 46 1 58 1646
1.1799363 -0.86964399 0.42443588 35 10470850 8 2 44 1526
2.9454107 -2.0041943 0.9951697 13 10470850 17 3 57 3699
1.2142905 -1.044314 0.43265221 304 10470850 84 4 17 1659
1.2479659 -0.99510407 0.41418609 344 10470850 93 5 1 1649
1.3197095 -0.97344273 0.40850458 147 10470850 42 6 100 1690
1.2896906 -0.87947661 0.37315428 57 10470850 15 7 76 1605
1.2480631 -1.0729424 0.3792817 265 10470850 75 8 43 1689
1.300826 -1.0364369 0.36586845 344 10470850 100 9 23 1703
1.317111 -0.97262681 0.34372237 388 10470850 109 10 38 1673
1.3617979 -0.93039072 0.33015716 66 10470850 19 11 42 1682
1.3012009 -1.1182687 0.329182 292 10470850 89 12 26 1747
1.3147149 -1.0483285 0.30530888 299 10470850 87 13 13 1709
1.3499997 -0.99731416 0.28822646 291 10470850 84 14 98 1703
1.3893824 -0.94973463 0.27321428 306 10470850 89 15 55 1705
1.3611778 -1.169855 0.27656934 164 10470850 54 16 10 1816
1.3694732 -1.0925001 0.25275898 257 10470850 80 17 51 1770
1.4549766 -1.0760833 0.24364811 117 10470850 39 18 75 1826
1.4698076 -1.0060287 0.22270402 197 10470850 64 19 75 1795
1.3279926 -1.1413745 0.20462088 41 10470850 13 20 92 1763
1.4206876 -1.1337217 0.19469486 45 10470850 15 21 92 1828
1.4662652 -1.0855016 0.17788242 199 10470850 67 22 85 1833
1.4766244 -1.0118681 0.15783736 184 10470850 59 23 126 1797
1.593307 -1.3699372 0.16825251 9 10470850 4 24 61 2108
1.2324352 -0.9840228 0.11119334 12 10470850 3 25 94 1581
1.4520023 -1.0750209 0.11008795 119 10470850 39 26 128 1810
1.3661509 -0.93735707 0.085292801 17 10470850 5 27 80 1659
1.4947596 -1.2864764 0.085726053 18 10470850 7 28 75 1974
0 -0 0 8 10470850 0 29 36 0
1.1023731 -0.81777513 0.033856813 9 10470850 2 30 36 1373
0 -0 0 7 10470850 0 31 71 0
0 -0 0 5 10470850 0 32 95 0
0 -0 -0 4 10470850 0 33 81 0
1.6341213 -1.2125522 -0.024293359 42 10470850 17 34 100 2035
1.7827168 -1.2258315 -0.04641445 135 10470850 63 35 75 2164
0 -0 -0 5 10470850 0 36 121 0
1.68004 -1.3453972 -0.084189989 61 10470850 28 37 76 2154
1.7753313 -1.3184863 -0.10765164 159 10470850 78 38 120 2214
1.616439 -1.1114541 -0.11410623 69 10470850 26 39 47 1965
1.8454689 -1.5925832 -0.16177951 187 10470850 112 40 96 2443
1.7070315 -1.3682842 -0.16576339 71 10470850 34 41 90 2194
1.6986467 -1.262271 -0.18068683 86 10470850 39 42 152 2124
1.809773 -1.2458321 -0.20850235 188 10470850 92 43 79 2207
1.6976625 -1.4660649 -0.23156229 86 10470850 44 44 116 2255
1.8447872 -1.4799201 -0.26645187 86 10470850 49 45 74 2380
1.917761 -1.4266551 -0.29208478 260 10470850 151 46 114 2408
1.7268413 -1.1893647 -0.27686805 13 10470850 6 47 124 2115
1.5877885 -1.373504 -0.29464394 107 10470850 48 48 92 2120
1.704175 -1.3683412 -0.32791764 62 10470850 30 49 65 2210
1.4500999 -1.079934 -0.28898787 11 10470850 4 50 58 1831
0 -0 -0 0 10470850 0 51 70 0
0 -0 -0 7 10470850 0 52 79 0
0 -0 -0 9 10470850 0 53 77 0
2.0302095 -1.5129513 -0.50078857 126 10470850 84 54 86 2581
2.4619164 -1.6965991 -0.6224438 312 10470850 291 55 85 3054
1.6328495 -1.4166242 -0.46895975 185 10470850 90 56 160 2212
1.7377088 -1.3982121 -0.50570834 111 10470850 58 57 82 2287
1.8652712 -1.3905931 -0.55126721 56 10470850 32 58 67 2391
1.8278883 -1.2599018 -0.54940158 41 10470850 22 59 79 2287
1.8155503 -1.5788563 -0.61745179 208 10470850 128 60 52 2484
1.8348351 -1.4788969 -0.62846321 357 10470850 212 61 57 2439
1.9110851 -1.4253191 -0.66098136 79 10470850 49 62 66 2474
2.0455973 -1.4086978 -0.71646827 90 10470850 60 63 49 2585
1.150625 -1.0029322 0.47643495 296 10568180 76 0 25 1599
1.2448958 -1.004316 0.48008752 104 10568180 29 1 75 1670
1.1745781 -0.87686753 0.42443588 118 10568180 27 2 41 1526
0 -0 0 6 10568180 0 3 70 0
1.2253335 -1.0669602 0.4389112 282 10568180 80 4 25 1683
1.2237626 -0.98814857 0.40815794 404 10568180 107 5 1 1625
1.3137118 -0.98152202 0.40850458 79 10568180 23 6 113 1690
1.2266579 -0.84756613 0.35641468 163 10568180 38 7 79 1533
1.2590967 -1.0959347 0.38467112 258 10568180 76 8 32 1713
1.2579575 -1.0149621 0.35555625 364 10568180 100 9 31 1655
1.3299268 -0.99475855 0.3486532 398 10568180 115 10 46 1697
1.3270395 -0.91863734 0.32309076 75 10568180 20 11 41 1646
1.2765336 -1.1107597 0.32465973 324 10568180 96 12 40 1723
1.3358161 -1.0786282 0.31174019 307 10568180 94 13 12 1745
1.3627936 -1.0197502 0.29228836 267 10568180 80 14 102 1727
1.3932662 -0.96498615 0.27513722 295 10568180 87 15 41 1717
1.3181863 -1.1470436 0.26925915 162 10568180 51 16 26 1768
1.3350271 -1.0784916 0.24761812 270 10568180 81 17 40 1734
1.4102738 -1.0564694 0.23724335 256 10568180 81 18 77 1778
1.4440379 -1.0014569 0.21972635 185 10568180 58 19 66 1771
1.4198679 -1.2355672 0.21994133 23 10568180 8 20 60 1895
1.4044242 -1.1349181 0.19341677 129 10568180 43 21 78 1816
1.4595771 -1.0944779 0.17788242 225 10568180 76 22 78 1833
1.4703879 -1.0209094 0.15783736 189 10568180 61 23 123 1797
1.6209595 -1.4111038 0.17208371 13 10568180 6 24 80 2156
1.412541 -1.1420888 0.12807278 14 10568180 5 25 79 1821
1.4645441 -1.0982823 0.11154768 34 10568180 11 26 120 1834
1.4981329 -1.0414913 0.093930058 24 10568180 8 27 86 1827
1.5591459 -1.3586329 0.089895107 19 10568180 8 28 78 2070
1.5609031 -1.262946 0.068045557 29 10568180 12 29 57 2009
0 -0 0 3 10568180 0 30 42 0
0 -0 0 5 10568180 0 31 65 0
0 -0 0 5 10568180 0 32 112 0
0 -0 -0 5 10568180 0 33 73 0
1.4827698 -1.1144185 -0.022144562 13 10568180 5 34 106 1855
1.8243806 -1.2710377 -0.047701363 160 10568180 79 35 91 2224
0 -0 -0 6 10568180 0 36 127 0
1.6344998 -1.3254704 -0.082313895 64 10568180 29 37 65 2106
1.8246779 -1.3725858 -0.11115251 148 10568180 77 38 120 2286
1.6489069 -1.1487432 -0.11689355 152 10568180 62 39 77 2013
1.8536958 -1.6196332 -0.16336882 142 10568180 87 40 95 2467
1.7636369 -1.4315193 -0.17210986 164 10568180 85 41 98 2278
1.6717637 -1.2582896 -0.17864518 57 10568180 25 42 154 2100
1.8314899 -1.2774156 -0.21190339 72 10568180 36 43 73 2243
1.7155932 -1.5000249 -0.23525907 63 10568180 33 44 112 2291
1.8356719 -1.4912118 -0.26645187 116 10568180 66 45 83 2380
1.8709184 -1.4097229 -0.28626248 235 10568180 131 46 116 2360
1.817072 -1.2680196 -0.29257688 24 10568180 12 47 117 2235
1.5882705 -1.3910502 -0.29631174 103 10568180 47 48 89 2132
1.7141625 -1.3937452 -0.33147874 103 10568180 51 49 48 2234
0 -0 -0 5 10568180 0 50 50 0
0 -0 -0 3 10568180 0 51 58 0
1.3076137 -1.1473018 -0.3100552 10 10568180 3 52 86 1767
0 -0 -0 5 10568180 0 53 89 0
1.7108254 -1.2913426 -0.42395318 48 10568180 23 54 83 2185
2.4032977 -1.678045 -0.61021501 343 10568180 308 55 69 2994
1.7034237 -1.4962705 -0.49185655 177 10568180 95 56 135 2320
1.7018789 -1.3866712 -0.49774787 130 10568180 66 57 94 2251
1.8846589 -1.4231213 -0.55956733 64 10568180 38 58 68 2427
1.9729275 -1.3778056 -0.59552532 133 10568180 82 59 72 2479
1.7622093 -1.5515615 -0.60253745 193 10568180 113 60 48 2424
1.8167435 -1.4827957 -0.6253711 353 10568180 208 61 51 2427
1.8838494 -1.4230779 -0.65456921 72 10568180 43 62 57 2450
1.82889 -1.2760768 -0.64329708 19 10568180 10 63 67 2321
1.1530383 -1.017553 0.48001042 332 10665080 86 0 1 1611
1.1408 -0.93195033 0.44214049 123 10665080 29 1 89 1538
1.2151458 -0.91881794 0.44112408 152 10665080 38 2 33 1586
1.3004107 -0.90840489 0.44310477 11 10665080 3 3 56 1647
1.2274536 -1.0821197 0.44204068 227 10665080 65 4 42 1695
1.2446526 -1.0176961 0.41720021 346 10665080 95 5 1 1661
1.3262351 -1.0036173 0.41430584 86 10665080 25 6 78 1714
1.2405565 -0.86846346 0.36199453 181 10665080 44 7 53 1557
1.2698945 -1.1191024 0.39006057 256 10665080 77 8 23 1737
1.2698578 -1.0374919 0.36071238 345 10665080 97 9 3 1679
1.3144372 -0.9958083 0.34618777 408 10665080 116 10 60 1685
1.3406447 -0.94027555 0.3278017 142 10665080 40 11 15 1670
1.278537 -1.1263618 0.32692087 368 10665080 111 12 46 1735
1.3291726 -1.0868043 0.31174019 274 10665080 83 13 42 1745
1.3470851 -1.0209492 0.29025739 283 10665080 83 14 93 1715
1.377623 -0.96671301 0.27321428 310 10665080 90 15 56 1705
1.3556184 -1.1943108 0.27839687 168 10665080 56 16 26 1828
1.3651564 -1.1167434 0.25447261 245 10665080 78 17 37 1782
1.3942906 -1.0579143 0.23564215 261 10665080 81 18 102 1766
1.4573514 -1.0239897 0.22270402 209 10665080 67 19 82 1795
1.3943737 -1.2284977 0.21715578 10 10665080 4 20 87 1871
1.4251364 -1.1661829 0.19725104 48 10665080 17 21 98 1852
1.4338117 -1.0889659 0.17555337 177 10665080 58 22 84 1809
1.48365 -1.0436674 0.15994538 231 10665080 77 23 132 1821
1.737902 -1.5317523 0.18549281 14 10665080 8 24 73 2324
0 -0 0 7 10665080 0 25 82 0
1.4577776 -1.1072479 0.11154768 42 10665080 14 26 110 1834
1.4917144 -1.0506641 0.093930058 20 10665080 7 27 79 1827
1.51482 -1.3364482 0.087810576 15 10665080 6 28 66 2022
1.5902325 -1.3029029 0.06967134 40 10665080 17 29 55 2057
0 -0 0 7 10665080 0 30 47 0
0 -0 0 0 10665080 0 31 73 0
0 -0 0 5 10665080 0 32 109 0
0 -0 -0 3 10665080 0 33 69 0
0 -0 -0 4 10665080 0 34 96 0
1.8655549 -1.3167999 -0.048988268 80 10665080 42 35 84 2284
0 -0 -0 5 10665080 0 36 125 0
1.7004709 -1.3963509 -0.086066097 70 10665080 34 37 68 2202
1.8066877 -1.3764923 -0.11056904 146 10665080 75 38 136 2274
1.573316 -1.1104822 -0.11201574 79 10665080 30 39 65 1929
1.8168184 -1.6071767 -0.16098486 167 10665080 99 40 144 2431
1.7455761 -1.4347159 -0.17120321 220 10665080 113 41 136 2266
1.6640115 -1.2685237 -0.17864518 93 10665080 41 42 155 2100
1.8821553 -1.3299942 -0.21870546 137 10665080 74 43 66 2315
1.7421077 -1.5421712 -0.24018812 64 10665080 35 44 98 2339
1.8172783 -1.4948717 -0.26510841 36 10665080 20 45 64 2368
1.9001093 -1.4500815 -0.29208478 243 10665080 141 46 105 2408
1.9063987 -1.3478239 -0.30828568 148 10665080 82 47 125 2355
1.6686193 -1.479612 -0.31298968 102 10665080 52 48 94 2252
1.6414473 -1.3514365 -0.31901491 72 10665080 33 49 65 2150
0 -0 -0 4 10665080 0 50 52 0
0 -0 -0 5 10665080 0 51 76 0
1.6008462 -1.422063 -0.3816469 14 10665080 7 52 80 2175
1.450843 -1.1957408 -0.35331005 16 10665080 6 53 73 1913
1.5812918 -1.2088714 -0.39368463 32 10665080 13 54 91 2029
2.3737741 -1.6791905 -0.60532349 310 10665080 274 55 69 2970
1.7292633 -1.5378672 -0.50203282 214 10665080 120 56 115 2368
1.6482028 -1.3598486 -0.4844805 111 10665080 53 57 66 2191
1.9129919 -1.4630326 -0.57063419 127 10665080 77 58 55 2475
1.8978722 -1.3427896 -0.57534623 154 10665080 88 59 90 2395
1.7613325 -1.5700794 -0.60552031 153 10665080 91 60 50 2436
1.807611 -1.4939152 -0.6253711 315 10665080 185 61 55 2427
1.9210026 -1.4697436 -0.67059952 261 10665080 165 62 64 2510
1.8210257 -1.2872746 -0.64329708 19 10665080 10 63 60 2321
1.1467729 -1.0246087 0.48001042 280 10764110 73 0 13 1611
1.1970531 -0.99021369 0.4662886 130 10764110 34 1 76 1622
1.2460901 -0.95428962 0.4544746 134 10764110 36 2 54 1634
3.0967007 -2.1916025 1.0597388 10 10764110 15 3 44 3939
1.2294335 -1.0973451 0.44517019 253 10764110 74 4 36 1707
1.2294378 -1.0179064 0.41418609 360 10764110 98 5 1 1649
1.2923262 -0.99048609 0.40560395 172 10764110 49 6 86 1678
1.3113633 -0.93007427 0.38431406 175 10764110 48 7 62 1653
1.2630039 -1.1268731 0.39006057 232 10764110 70 8 55 1737
1.2815281 -1.0602052 0.36586845 304 10764110 88 9 11 1703
1.3083023 -1.0038548 0.34618777 398 10764110 113 10 58 1685
1.3828088 -0.98256123 0.33957902 304 10764110 91 11 30 1730
1.2979865 -1.1577191 0.33370423 317 10764110 99 12 51 1771
1.3224791 -1.0949395 0.31174019 261 10764110 79 13 41 1745
1.3595587 -1.0435984 0.29431933 261 10764110 79 14 84 1739
1.3813194 -0.98201096 0.27513722 294 10764110 86 15 53 1717
1.3128617 -1.1710279 0.27108669 122 10764110 39 16 24 1780
1.3491318 -1.1175225 0.25275898 230 10764110 72 17 58 1770
1.3877732 -1.0664496 0.23564215 250 10764110 78 18 72 1766
1.4219393 -1.0121968 0.21823753 219 10764110 68 19 74 1759
1.377915 -1.2290964 0.21576303 14 10764110 5 20 85 1859
1.4730797 -1.2205821 0.20491955 46 10764110 17 21 84 1924
1.4271029 -1.097743 0.17555337 115 10764110 38 22 63 1809
1.457749 -1.0388764 0.15783736 205 10764110 66 23 154 1797
1.9069703 -1.7016698 0.2046487 18 10764110 12 24 74 2564
1.5827252 -1.3121325 0.14495224 14 10764110 6 25 98 2061
1.5363997 -1.1819006 0.11811647 24 10764110 9 26 130 1942
1.4657289 -1.0458754 0.09269616 22 10764110 7 27 114 1803
1.7390623 -1.5533657 0.10135999 20 10764110 11 28 57 2334
1.6098987 -1.3356087 0.070890673 43 10764110 19 29 54 2093
0 -0 0 3 10764110 0 30 44 0
0 -0 0 0 10764110 0 31 76 0
1.5481772 -1.3830091 0.014493098 19 10764110 8 32 81 2076
0 -0 -0 4 10764110 0 33 53 0
0 -0 -0 5 10764110 0 34 94 0
1.7012979 -1.2165674 -0.044870161 30 10764110 13 35 81 2092
0 -0 -0 7 10764110 0 36 140 0
1.6457711 -1.3684272 -0.083720967 80 10764110 36 37 57 2142
1.8456538 -1.4241627 -0.11348643 161 10764110 88 38 106 2334
1.6054517 -1.1479871 -0.11480306 56 10764110 22 39 71 1977
1.7623256 -1.5783527 -0.15701155 60 10764110 34 40 106 2371
1.7827262 -1.4836715 -0.17573641 273 10764110 148 41 113 2326
1.6845886 -1.3006307 -0.18170767 95 10764110 43 42 150 2136
1.8059624 -1.2928408 -0.21076973 223 10764110 111 43 75 2231
1.7681683 -1.5846981 -0.24511716 56 10764110 32 44 122 2387
1.743934 -1.4525722 -0.25570425 40 10764110 21 45 45 2284
1.8817514 -1.4544287 -0.29062921 224 10764110 129 46 119 2396
1.8980926 -1.359496 -0.30828568 211 10764110 117 47 138 2355
1.6329806 -1.4660065 -0.30798629 115 10764110 57 48 98 2216
1.6057788 -1.3386859 -0.31367326 94 10764110 42 49 61 2114
0 -0 -0 8 10764110 0 50 53 0
0 -0 -0 5 10764110 0 51 60 0
1.2934362 -1.1632618 -0.3100552 16 10764110 5 52 99 1767
0 -0 -0 9 10764110 0 53 90 0
1.6576174 -1.2834125 -0.41463977 43 10764110 20 54 72 2137
2.3825245 -1.7074109 -0.61021501 325 10764110 292 55 77 2994
1.7459401 -1.5719894 -0.50966507 179 10764110 103 56 115 2404
1.6398278 -1.3699361 -0.4844805 132 10764110 64 57 71 2191
1.8855162 -1.4604424 -0.56510079 91 10764110 55 58 60 2451
1.9085326 -1.3679818 -0.58111167 215 10764110 126 59 93 2419
1.6653767 -1.5029826 -0.57569176 160 10764110 86 60 47 2316
1.7717345 -1.4826548 -0.61609489 199 10764110 114 61 35 2391
1.875385 -1.4531715 -0.65777528 330 10764110 200 62 82 2462
1.9255812 -1.3789811 -0.68320864 23 10764110 14 63 39 2465
1.1744448 -1.0623634 0.49431241 263 10861690 72 0 12 1659
1.1997657 -1.0049201 0.4697383 162 10861690 43 1 55 1634
1.3221835 -1.025496 0.48451331 128 10861690 39 2 42 1742
1.2515939 -0.89735699 0.43019098 18 10861690 5 3 70 1599
1.1968913 -1.0815668 0.43578172 192 10861690 54 4 70 1671
1.223169 -1.025431 0.41418609 352 10861690 96 5 1 1649
1.3046209 -1.0126767 0.41140518 310 10861690 90 6 101 1702
1.3340667 -0.9585337 0.39268386 210 10861690 60 7 69 1689
1.2387108 -1.1189249 0.38467112 231 10861690 68 8 53 1713
1.2660146 -1.0605227 0.3632904 312 10861690 89 9 2 1691
1.3113912 -1.0190697 0.3486532 412 10861690 119 10 59 1697
1.3385549 -0.96353072 0.33015716 333 10861690 94 11 25 1682
1.2558719 -1.1340684 0.32465973 249 10861690 74 12 72 1723
1.3247838 -1.1106188 0.31388396 293 10861690 90 13 24 1757
1.3437924 -1.0446621 0.29228836 284 10861690 85 14 87 1727
1.3656563 -0.98354572 0.27321428 292 10861690 85 15 53 1705
1.3144538 -1.1870102 0.27291423 99 10861690 32 16 33 1792
1.3604494 -1.1410444 0.25618622 184 10861690 59 17 55 1794
1.4093592 -1.0968575 0.24044572 249 10861690 81 18 57 1802
1.4253597 -1.0278672 0.21972635 182 10861690 57 19 75 1771
1.3880389 -1.2535048 0.21854857 17 10861690 6 20 59 1883
1.4381404 -1.2065908 0.20108528 40 10861690 14 21 75 1888
1.4391841 -1.1211585 0.17788242 97 10861690 33 22 77 1833
1.4804226 -1.0687925 0.16099939 211 10861690 71 23 113 1833
1.5947111 -1.4407014 0.17208371 11 10861690 5 24 77 2156
2.0605605 -1.7297167 0.18968275 11 10861690 8 25 76 2697
1.6802982 -1.3090864 0.1297943 12 10861690 6 26 96 2134
1.4981334 -1.0829319 0.095163941 30 10861690 10 27 86 1851
2.005151 -1.8132833 0.11751504 17 10861690 13 28 64 2706
1.5924901 -1.3377476 0.070484228 34 10861690 15 29 50 2081
0 -0 0 0 10861690 0 30 49 0
0 -0 0 0 10861690 0 31 69 0
1.4417645 -1.303943 0.013571571 13 10861690 5 32 102 1944
0 -0 -0 3 10861690 0 33 76 0
0 -0 -0 3 10861690 0 34 94 0
1.7423806 -1.2621742 -0.046157073 37 10861690 17 35 74 2152
0 -0 -0 4 10861690 0 36 132 0
1.6465163 -1.3862222 -0.084189989 42 10861690 20 37 69 2154
1.8085481 -1.4133199 -0.11173599 123 10861690 65 38 80 2298
1.7536069 -1.27026 -0.12595238 115 10861690 54 39 76 2169
1.6993865 -1.5408791 -0.15224358 44 10861690 23 40 111 2299
1.773589 -1.4945822 -0.17573641 225 10861690 122 41 87 2326
1.6577383 -1.2962129 -0.179666 92 10861690 41 42 157 2112
1.7979958 -1.3038977 -0.21076973 216 10861690 108 43 61 2231
1.696532 -1.5393703 -0.23649134 61 10861690 32 44 97 2303
1.6894108 -1.4248065 -0.24898697 54 10861690 27 45 69 2224
1.8915509 -1.4806315 -0.29354033 231 10861690 135 46 98 2420
1.8993444 -1.3781035 -0.30985656 223 10861690 125 47 134 2367
1.6327486 -1.4839916 -0.30965412 123 10861690 61 48 103 2228
1.6247395 -1.3714778 -0.31901491 103 10861690 48 49 67 2150
1.385852 -1.0859609 -0.28141201 13 10861690 4 50 44 1783
0 -0 -0 7 10861690 0 51 78 0
0 -0 -0 4 10861690 0 52 88 0
0 -0 -0 8 10861690 0 53 106 0
1.6219202 -1.271768 -0.40765473 34 10861690 15 54 66 2101
2.3339748 -1.6943904 -0.60043204 308 10861690 268 55 68 2946
1.7535956 -1.5984733 -0.51475328 168 10861690 99 56 115 2428
1.577781 -1.3346239 -0.46855965 190 10861690 85 57 71 2119
1.8030205 -1.4143299 -0.54296708 100 10861690 55 58 44 2355
1.9095289 -1.3865107 -0.58399445 120 10861690 71 59 79 2431
1.6475422 -1.5053325 -0.5727089 153 10861690 81 60 45 2304
1.8156809 -1.5384717 -0.63464731 139 10861690 84 61 55 2463
1.8664333 -1.4646512 -0.65777528 327 10861690 198 62 72 2462
1.9170836 -1.3907703 -0.68320864 22 10861690 13 63 42 2465
1.1594564 -1.0618134 0.49073693 261 10960180 71 0 14 1647
1.176046 -0.9973948 0.46283889 76 10960180 20 1 78 1610
1.2796082 -1.0051093 0.4711628 101 10960180 29 2 41 1694
1.2460643 -0.9050197 0.43019098 52 10960180 13 3 37 1599
1.2329696 -1.1279888 0.45142916 116 10960180 35 4 61 1731
1.216854 -1.0329169 0.41418609 321 10960180 87 5 1 1649
1.2617655 -0.99187785 0.39980268 401 10960180 110 6 98 1654
1.3470327 -0.98043776 0.39826372 137 10960180 40 7 73 1713
1.2404511 -1.1343958 0.38736582 242 10960180 72 8 30 1725
1.2684213 -1.0758517 0.36586845 290 10960180 84 9 20 1703
1.3143426 -1.0343599 0.35111865 390 10960180 114 10 51 1709
1.3326175 -0.97172576 0.33015716 385 10960180 109 11 32 1682
1.2401918 -1.133801 0.3223986 190 10960180 56 12 84 1711
1.3089429 -1.1110859 0.31174019 302 10960180 92 13 16 1745
1.3559422 -1.0675197 0.29635027 278 10960180 85 14 100 1751
1.3883026 -1.0128503 0.27898303 301 10960180 91 15 60 1741
1.2633797 -1.1550403 0.26377648 77 10960180 23 16 50 1732
1.3262635 -1.1263062 0.25104538 148 10960180 46 17 71 1758
1.3932623 -1.0981228 0.23884453 247 10960180 79 18 71 1790
1.4574865 -1.0646889 0.22568169 74 10960180 25 19 90 1819
1.2659665 -1.1574458 0.20044258 15 10960180 5 20 83 1727
1.4307098 -1.2153924 0.20108528 26 10960180 9 21 78 1888
1.4322777 -1.129968 0.17788242 120 10960180 40 22 78 1833
1.4738368 -1.0778561 0.16099939 224 10960180 75 23 150 1833
1.8771179 -1.71687 0.2036909 9 10960180 6 24 70 2552
1.4296914 -1.2151717 0.13229264 24 10960180 9 25 75 1881
1.4841666 -1.170989 0.115197 12 10960180 4 26 127 1894
1.5881516 -1.1629047 0.1013334 26 10960180 10 27 102 1971
1.8790345 -1.7203102 0.11074035 24 10960180 16 28 62 2550
1.4837612 -1.2620208 0.066013336 32 10960180 12 29 49 1949
0 -0 0 3 10960180 0 30 50 0
0 -0 0 4 10960180 0 31 67 0
1.5753402 -1.4424208 0.014911973 14 10960180 6 32 107 2136
0 -0 -0 3 10960180 0 33 60 0
0 -0 -0 5 10960180 0 34 97 0
1.6862407 -1.2373533 -0.044870161 57 10960180 25 35 69 2092
0 -0 -0 8 10960180 0 36 110 0
1.5649778 -1.3340684 -0.080437794 13 10960180 6 37 78 2058
1.8280381 -1.4467046 -0.11348643 156 10960180 85 38 109 2334
1.7554382 -1.288083 -0.1266492 215 10960180 102 39 54 2181
1.6457963 -1.5107918 -0.14827029 62 10960180 31 40 103 2239
1.8098979 -1.5442698 -0.1802696 127 10960180 72 41 133 2386
1.7247427 -1.3657403 -0.18783265 83 10960180 40 42 141 2208
1.8188447 -1.3361231 -0.21417077 101 10960180 52 43 83 2267
1.678264 -1.5416759 -0.23525907 82 10960180 43 44 100 2291
1.6897047 -1.4428891 -0.25033042 44 10960180 22 45 59 2236
1.8917648 -1.4996094 -0.29499593 239 10960180 141 46 149 2432
1.8812666 -1.3826861 -0.30828568 236 10960180 131 47 125 2355
1.6585913 -1.5261682 -0.31632528 117 10960180 61 48 93 2276
1.634336 -1.3968418 -0.32257599 97 10960180 46 49 72 2174
1.4534191 -1.1533707 -0.29656374 9 10960180 3 50 41 1879
0 -0 -0 5 10960180 0 51 50 0
1.4962223 -1.3792244 -0.36269614 12 10960180 5 52 88 2067
0 -0 -0 8 10960180 0 53 90 0
1.6786191 -1.3329394 -0.42395318 22 10960180 11 54 73 2185
2.332999 -1.7156396 -0.6028778 303 10960180 265 55 83 2958
1.7265179 -1.5932964 -0.50966507 160 10960180 92 56 136 2404
1.551785 -1.3290544 -0.46325266 240 10960180 106 57 67 2095
1.7668794 -1.4035773 -0.53466696 79 10960180 43 58 68 2319
1.947904 -1.4327105 -0.5984081 40 10960180 25 59 93 2491
1.680938 -1.5548772 -0.58762318 124 10960180 69 60 39 2364
1.823807 -1.5646831 -0.64083153 83 10960180 51 61 49 2487
1.8302516 -1.4544923 -0.64815712 351 10960180 207 62 89 2426
1.9921324 -1.4639556 -0.71314234 170 10960180 113 63 67 2573
1.1109186 -1.0299674 0.47285947 260 11059600 65 0 27 1587
1.1786237 -1.0120797 0.4662886 124 11059600 33 1 73 1622
1.2192929 -0.96988893 0.45113698 63 11059600 16 2 54 1622
1.1380836 -0.83730781 0.39467803 178 11059600 38 3 51 1467
1.217526 -1.127661 0.44829968 70 11059600 21 4 61 1719
1.2104932 -1.0403639 0.41418609 311 11059600 85 5 1 1649
1.2556558 -0.99960124 0.39980268 379 11059600 104 6 77 1654
1.3128095 -0.96790653 0.38989392 121 11059600 34 7 62 1677
1.2077254 -1.1181531 0.3792817 223 11059600 64 8 63 1689
1.2795783 -1.0988855 0.37102458 269 11059600 80 9 18 1727
1.3079711 -1.0424051 0.35111865 388 11059600 113 10 43 1709
1.3077008 -0.96590263 0.32544625 390 11059600 107 11 15 1658
1.2764568 -1.1814146 0.33370423 198 11059600 62 12 66 1771
1.2841922 -1.1037049 0.30745265 281 11059600 83 13 31 1721
1.3401191 -1.0684466 0.29431933 278 11059600 84 14 76 1739
1.3534838 -1.0002304 0.27321428 293 11059600 85 15 46 1705
1.3346041 -1.2352757 0.28022444 36 11059600 12 16 44 1840
1.3553503 -1.1653968 0.25789985 138 11059600 45 17 75 1806
1.3772031 -1.0992322 0.23724335 263 11059600 83 18 80 1778
1.4222108 -1.0523639 0.2212152 47 11059600 15 19 83 1783
1.2938288 -1.197577 0.20601365 12 11059600 4 20 82 1775
1.3960876 -1.2008063 0.19725104 13 11059600 5 21 99 1852
1.4439794 -1.1536449 0.18021148 55 11059600 19 22 95 1857
1.4383798 -1.0655328 0.15783736 209 11059600 67 23 142 1797
2.077193 -1.9234051 0.22667797 10 11059600 8 24 76 2840
0 -0 0 7 11059600 0 25 80 0
1.9261222 -1.5389556 0.15023051 17 11059600 10 26 120 2470
1.5136079 -1.1226525 0.097014785 36 11059600 13 27 111 1887
1.8420655 -1.7073582 0.10917695 22 11059600 14 28 71 2514
1.4759896 -1.2711012 0.066013336 27 11059600 10 29 42 1949
0 -0 0 5 11059600 0 30 39 0
0 -0 0 0 11059600 0 31 73 0
1.7160656 -1.5907396 0.01633615 14 11059600 8 32 89 2340
0 -0 -0 5 11059600 0 33 76 0
0 -0 -0 4 11059600 0 34 90 0
1.6593591 -1.233363 -0.0443554 58 11059600 25 35 85 2068
0 -0 -0 5 11059600 0 36 133 0
0 -0 -0 4 11059600 0 37 78 0
1.865891 -1.4953719 -0.11640382 99 11059600 57 38 98 2394
1.7763462 -1.3202686 -0.1287397 233 11059600 115 39 69 2217
1.6277244 -1.5127106 -0.14747563 72 11059600 36 40 92 2227
1.8003883 -1.555346 -0.1802696 143 11059600 81 41 114 2386
1.7256579 -1.3837771 -0.18885347 68 11059600 33 42 133 2220
1.6380967 -1.2188913 -0.19376454 58 11059600 25 43 61 2051
1.6949954 -1.5763313 -0.23895586 77 11059600 42 44 126 2327
1.6717991 -1.4454309 -0.24898697 67 11059600 33 45 68 2224
1.8732389 -1.5037322 -0.29354033 239 11059600 140 46 114 2420
1.8727472 -1.3942033 -0.30828568 231 11059600 128 47 127 2355
1.701367 -1.5849169 -0.32633203 127 11059600 70 48 93 2348
1.5808659 -1.3680162 -0.31367326 80 11059600 36 49 58 2114
0 -0 -0 8 11059600 0 50 51 0
1.4824728 -1.1042994 -0.31372389 12 11059600 4 51 54 1875
1.5222795 -1.42062 -0.37111866 11 11059600 5 52 99 2115
1.3943187 -1.2078207 -0.34666124 17 11059600 6 53 86 1877
1.5603223 -1.254691 -0.39601299 18 11059600 8 54 78 2041
2.2847416 -1.7018504 -0.59309477 240 11059600 204 55 68 2910
1.6995707 -1.5878483 -0.50457692 112 11059600 63 56 133 2380
1.5524426 -1.3462181 -0.46590617 240 11059600 107 57 83 2107
1.6854482 -1.3558406 -0.51253325 115 11059600 57 58 61 2223
1.9017116 -1.4167985 -0.58687711 355 11059600 212 59 73 2443
1.6119772 -1.5095471 -0.5667432 137 11059600 71 60 53 2280
1.8054184 -1.5682406 -0.63773942 152 11059600 93 61 28 2475
1.8122836 -1.4584452 -0.64495105 349 11059600 204 62 66 2414
1.9738634 -1.4692671 -0.70981634 270 11059600 177 63 57 2561
1.1546911 -1.083801 0.49431241 247 11156830 68 0 1 1659
1.1897389 -1.0343746 0.47318804 130 11156830 35 1 56 1646
1.1863894 -0.95565993 0.44112408 70 11156830 18 2 59 1586
1.1699936 -0.87189972 0.40759182 177 11156830 41 3 22 1515
1.1767805 -1.1034144 0.43578172 85 11156830 24 4 60 1671
1.2040869 -1.0477718 0.41418609 260 11156830 71 5 1 1649
1.2313682 -0.99267101 0.39400145 362 11156830 96 6 75 1630
1.3255485 -0.9899106 0.39547381 127 11156830 37 7 86 1701
1.2349687 -1.1575295 0.39006057 234 11156830 70 8 42 1737
1.2728117 -1.1067162 0.37102458 248 11156830 74 9 48 1727
1.3015505 -1.0504111 0.35111865 337 11156830 98 10 45 1709
1.3205926 -0.98800588 0.33015716 428 11156830 121 11 22 1682
1.2433845 -1.1650507 0.32692087 166 11156830 50 12 116 1735
1.3308371 -1.1580673 0.32031527 278 11156830 89 13 16 1793
1.3519423 -1.0915083 0.29838124 256 11156830 80 14 90 1763
1.3662863 -1.0227126 0.27706012 262 11156830 78 15 50 1729
1.2577648 -1.1785662 0.26560405 34 11156830 10 16 45 1744
1.339216 -1.1658925 0.25618622 118 11156830 38 17 73 1794
1.3611832 -1.100186 0.23564215 227 11156830 71 18 84 1766
1.4252549 -1.0682118 0.22270402 48 11156830 16 19 90 1795
1.321245 -1.2380925 0.21158472 16 11156830 5 20 89 1823
1.4606774 -1.2720375 0.20747571 14 11156830 5 21 86 1948
1.3811629 -1.1174113 0.17322429 56 11156830 18 22 76 1785
1.4318147 -1.0743386 0.15783736 191 11156830 62 23 135 1797
1.5330149 -1.4370875 0.16825251 15 11156830 7 24 63 2108
1.8568977 -1.6179428 0.17364728 14 11156830 9 25 89 2469
2.4287827 -1.9651142 0.19037308 13 11156830 13 26 114 3130
1.5737613 -1.1823062 0.1013334 18 11156830 7 27 90 1971
1.7179019 -1.6119835 0.10240224 20 11156830 11 28 79 2358
1.6218337 -1.4141243 0.072922893 12 11156830 5 29 41 2153
1.2898974 -1.0456617 0.040958606 12 11156830 3 30 53 1661
0 -0 0 0 11156830 0 31 80 0
1.7237729 -1.6176622 0.016503699 11 11156830 6 32 100 2364
0 -0 -0 6 11156830 0 33 80 0
0 -0 -0 5 11156830 0 34 85 0
1.6325908 -1.2290899 -0.043840639 58 11156830 24 35 81 2044
0 -0 -0 4 11156830 0 36 130 0
0 -0 -0 3 11156830 0 37 53 0
1.7450004 -1.4161584 -0.10940208 51 11156830 26 38 80 2250
1.7394992 -1.3095279 -0.1266492 237 11156830 113 39 72 2181
1.6968981 -1.5965126 -0.15462756 85 11156830 46 40 94 2335
1.7998176 -1.5742414 -0.18117622 193 11156830 111 41 139 2398
1.6985712 -1.3792657 -0.18681182 66 11156830 32 42 118 2196
1.6592077 -1.25049 -0.19716558 51 11156830 22 43 72 2087
1.7982717 -1.6930729 -0.25497523 138 11156830 85 44 115 2483
1.7526233 -1.5342044 -0.26242152 49 11156830 27 45 77 2344
1.8547342 -1.5076846 -0.29208478 251 11156830 146 46 127 2408
1.8831552 -1.4199934 -0.31142747 224 11156830 127 47 128 2379
1.8385814 -1.7339324 -0.35468456 231 11156830 151 48 83 2552
1.6170715 -1.4167924 -0.32257599 71 11156830 34 49 64 2174
1.6321669 -1.3281829 -0.33633706 9 11156830 4 50 41 2131
0 -0 -0 5 11156830 0 51 72 0
1.3847227 -1.3082373 -0.3395341 12 11156830 5 52 95 1935
1.3868814 -1.2163533 -0.34666124 10 11156830 4 53 93 1877
1.5160805 -1.2345091 -0.38669962 20 11156830 8 54 78 1993
2.1429589 -1.6167787 -0.55885422 158 11156830 119 55 63 2742
1.6386759 -1.5498965 -0.48931244 46 11156830 24 56 140 2308
1.5529475 -1.3634396 -0.46855965 242 11156830 109 57 74 2119
1.6499376 -1.3440328 -0.50423312 152 11156830 73 58 66 2187
1.8929825 -1.4284405 -0.58687711 171 11156830 102 59 77 2443
1.5605085 -1.4794251 -0.55182886 227 11156830 112 60 35 2220
1.8044686 -1.5869461 -0.64083153 159 11156830 98 61 48 2487
1.8301933 -1.4914529 -0.65456921 252 11156830 152 62 65 2450
1.9371916 -1.4605274 -0.69983846 322 11156830 206 63 69 2525
1.1314116 -1.0750847 0.48716143 227 11254250 61 0 22 1635
1.1833696 -1.0416552 0.47318804 225 11254250 61 1 71 1646
1.2519587 -1.0212067 0.46782514 107 11254250 30 2 61 1682
1.2753184 -0.96261668 0.4463332 182 11254250 50 3 27 1659
1.2204002 -1.1584684 0.45455864 193 11254250 59 4 42 1743
1.2499274 -1.1012107 0.43227065 260 11254250 77 5 1 1721
1.2432945 -1.0149348 0.39980268 346 11254250 95 6 120 1654
1.3101413 -0.99098462 0.39268386 271 11254250 77 7 56 1689
1.244808 -1.1811831 0.39545 184 11254250 57 8 54 1761
1.2396067 -1.0912728 0.3632904 269 11254250 77 9 20 1691
1.3041743 -1.065809 0.35358408 304 11254250 90 10 57 1721
1.3145055 -0.99609029 0.33015716 422 11254250 119 11 22 1682
1.2789633 -1.2132111 0.33822647 151 11254250 49 12 78 1795
1.3148472 -1.1584063 0.3181715 245 11254250 78 13 20 1781
1.3269067 -1.0848114 0.29431933 260 11254250 79 14 102 1739
1.3788631 -1.0453889 0.28090596 267 11254250 82 15 59 1753
1.3107406 -1.2433981 0.27839687 23 11254250 8 16 52 1828
1.340947 -1.1819413 0.25789985 100 11254250 33 17 90 1806
1.3728133 -1.1235822 0.23884453 207 11254250 66 18 97 1790
1.4281579 -1.0841364 0.22419284 73 11254250 24 19 88 1807
0 -0 0 9 11254250 0 20 101 0
1.5602419 -1.3756684 0.22281271 17 11254250 7 21 109 2092
1.4297137 -1.1712779 0.18021148 45 11254250 16 22 59 1857
1.4727815 -1.1192675 0.1631074 126 11254250 43 23 121 1857
1.7324038 -1.6440867 0.19123958 23 11254250 13 24 70 2396
1.5507076 -1.3679837 0.14579621 14 11254250 6 25 85 2073
0 -0 0 8 11254250 0 26 114 0
1.5569401 -1.1846836 0.10071646 16 11254250 6 27 91 1959
1.8470508 -1.7546055 0.11074035 16 11254250 11 28 72 2550
1.6940448 -1.4954829 0.07658089 13 11254250 6 29 48 2261
1.6079916 -1.3199587 0.051315386 28 11254250 12 30 41 2081
0 -0 0 5 11254250 0 31 78 0
1.9574025 -1.8596292 0.018849403 15 11254250 11 32 88 2700
0 -0 -0 3 11254250 0 33 68 0
0 -0 -0 3 11254250 0 34 93 0
1.6250185 -1.2390841 -0.043840639 69 11254250 29 35 65 2044
0 -0 -0 6 11254250 0 36 126 0
0 -0 -0 0 11254250 0 37 64 0
1.7270181 -1.4192293 -0.10881861 41 11254250 21 38 103 2238
1.7600107 -1.3419677 -0.1287397 235 11254250 116 39 92 2217
1.6437193 -1.5656039 -0.15065427 71 11254250 37 40 104 2275
1.8080406 -1.6011212 -0.18298951 151 11254250 89 41 85 2422
1.7270178 -1.4200372 -0.19089514 70 11254250 35 42 163 2244
1.6704954 -1.2751442 -0.19943292 57 11254250 26 43 68 2111
1.7964898 -1.7123107 -0.2562075 252 11254250 157 44 106 2495
1.6807077 -1.489565 -0.25301731 58 11254250 30 45 72 2260
1.8086618 -1.4887568 -0.28626248 173 11254250 96 46 113 2360
1.8838614 -1.4387423 -0.31299832 223 11254250 127 47 109 2391
1.8536931 -1.7697996 -0.35968795 181 11254250 121 48 90 2588
1.6704919 -1.481813 -0.33503985 84 11254250 43 49 61 2258
1.4776678 -1.2176054 -0.30603358 14 11254250 5 50 52 1939
0 -0 -0 5 11254250 0 51 74 0
1.5901066 -1.5208502 -0.39217508 20 11254250 10 52 104 2235
1.405848 -1.248332 -0.35331005 17 11254250 6 53 91 1913
1.3631548 -1.1239653 -0.34944606 12 11254250 4 54 74 1801
1.8809592 -1.4373055 -0.49281898 46 11254250 27 55 53 2418
1.5190203 -1.4544854 -0.45623934 21 11254250 10 56 124 2152
1.5795398 -1.4040427 -0.47917351 181 11254250 85 57 84 2167
1.6596754 -1.3689915 -0.50976658 125 11254250 61 58 71 2211
1.8841821 -1.4400287 -0.58687711 101 11254250 60 59 83 2443
1.5346297 -1.4728754 -0.54586315 273 11254250 132 60 35 2196
1.8033568 -1.6056987 -0.64392352 175 11254250 109 61 41 2499
1.8299267 -1.5100147 -0.65777528 174 11254250 106 62 58 2462
1.9098661 -1.4583914 -0.69318652 315 11254250 197 63 65 2501
1.1578151 -1.113772 0.50146341 219 11352080 62 0 48 1683
1.1769558 -1.0488966 0.47318804 307 11352080 83 1 36 1646
1.219008 -1.0068485 0.45781222 202 11352080 55 2 50 1646
1.2785697 -0.97744316 0.44956169 200 11352080 56 3 42 1671
1.1965631 -1.1498806 0.44829968 268 11352080 79 4 38 1719
1.2171427 -1.0856642 0.42322835 257 11352080 73 5 1 1685
1.2460186 -1.0299631 0.40270334 329 11352080 91 6 91 1666
1.2669764 -0.9706139 0.38152409 435 11352080 117 7 59 1641
1.2038051 -1.1563956 0.38467112 183 11352080 54 8 43 1713
1.2503855 -1.1144543 0.3684465 230 11352080 68 9 28 1715
1.3066579 -1.0812784 0.35604951 340 11352080 102 10 42 1733
1.2990345 -0.99697334 0.3278017 404 11352080 113 11 43 1670
1.2204936 -1.1720582 0.32465973 83 11352080 25 12 103 1723
1.2900923 -1.1507336 0.31388396 232 11352080 72 13 25 1757
1.3566664 -1.1231 0.30244315 275 11352080 88 14 84 1787
1.353633 -1.039402 0.27706012 284 11352080 85 15 43 1729
1.2432072 -1.1939123 0.26560405 30 11352080 9 16 50 1744
1.3070847 -1.1664231 0.25275898 111 11352080 35 17 59 1770
1.384207 -1.147162 0.24204692 137 11352080 45 18 82 1814
1.4592382 -1.1219096 0.23014818 210 11352080 72 19 64 1855
0 -0 0 9 11352080 0 20 85 0
1.5606729 -1.3931618 0.2240908 16 11352080 7 21 76 2104
1.4133077 -1.172403 0.17904694 42 11352080 14 22 79 1845
1.4658861 -1.1282833 0.1631074 117 11352080 40 23 156 1857
1.4893868 -1.4309301 0.16537914 18 11352080 8 24 62 2072
1.8993982 -1.6964246 0.1795551 15 11352080 10 25 96 2553
1.6393516 -1.3600132 0.1297943 14 11352080 6 26 113 2134
0 -0 0 5 11352080 0 27 91 0
1.6029382 -1.5415318 0.096669801 23 11352080 12 28 70 2226
1.7563734 -1.5697862 0.079832442 10 11352080 5 29 55 2357
1.6275388 -1.352805 0.052203111 40 11352080 18 30 45 2117
0 -0 0 5 11352080 0 31 61 0
1.729738 -1.6636485 0.016755026 18 11352080 11 32 86 2400
0 -0 -0 6 11352080 0 33 78 0
0 -0 -0 5 11352080 0 34 88 0
1.5699079 -1.2123673 -0.04255373 74 11352080 29 35 106 1984
0 -0 -0 7 11352080 0 36 133 0
0 -0 -0 3 11352080 0 37 75 0
1.7182773 -1.4297993 -0.10881861 48 11352080 24 38 84 2238
1.799152 -1.3893518 -0.13222386 148 11352080 77 39 93 2277
1.6168433 -1.5590378 -0.14906496 48 11352080 24 40 97 2251
1.82491 -1.6361481 -0.18570942 157 11352080 95 41 118 2458
1.7274606 -1.4382573 -0.19191596 53 11352080 27 42 149 2256
1.6720912 -1.2926769 -0.20056662 62 11352080 28 43 70 2123
1.7773597 -1.7150129 -0.25497523 278 11352080 171 44 132 2483
1.707038 -1.5317048 -0.25839114 68 11352080 36 45 58 2308
1.6622435 -1.385433 -0.26442891 114 11352080 54 46 92 2180
1.9126393 -1.4793891 -0.31928188 219 11352080 130 47 124 2439
1.8684329 -1.8059167 -0.36469135 86 11352080 59 48 105 2624
1.6613683 -1.492035 -0.33503985 95 11352080 49 49 61 2258
1.6339422 -1.3632951 -0.34012502 16 11352080 7 50 44 2155
0 -0 -0 3 11352080 0 51 65 0
1.6910787 -1.6374105 -0.41954836 69 11352080 40 52 76 2391
0 -0 -0 9 11352080 0 53 78 0
0 -0 -0 7 11352080 0 54 82 0
1.6584153 -1.2834458 -0.43656668 56 11352080 26 55 58 2142
1.6363738 -1.5862135 -0.49440059 11 11352080 6 56 110 2332
1.6056911 -1.4450225 -0.48978746 196 11352080 96 57 80 2215
1.6333201 -1.3641788 -0.50423312 109 11352080 52 58 56 2187
1.8568878 -1.4373026 -0.58111167 67 11352080 39 59 82 2419
1.4922177 -1.4498646 -0.53393167 286 11352080 132 60 49 2148
1.8020827 -1.6244971 -0.64701563 192 11352080 121 61 59 2511
1.8472487 -1.5434581 -0.66739345 188 11352080 118 62 66 2498
1.9008816 -1.4700826 -0.69318652 322 11352080 202 63 81 2501
1.1345463 -1.1048715 0.49431241 226 11449570 62 0 53 1659
1.1875646 -1.0714973 0.48008752 301 11449570 84 1 39 1670
1.2304908 -1.0290986 0.46448752 265 11449570 74 2 57 1670
1.2634095 -0.9781943 0.4463332 122 11449570 33 3 45 1659
1.1894851 -1.1572009 0.44829968 280 11449570 83 4 37 1719
1.2276993 -1.1086816 0.42925656 219 11449570 64 5 5 1709
1.2396754 -1.0375892 0.40270334 322 11449570 89 6 92 1666
1.2517757 -0.97121525 0.37873417 428 11449570 113 7 48 1629
1.2469856 -1.2126749 0.40083945 140 11449570 44 8 44 1785
1.2348229 -1.114254 0.36586845 233 11449570 68 9 34 1703
1.2819953 -1.0741904 0.35111865 300 11449570 88 10 56 1709
1.2928927 -1.0049253 0.3278017 391 11449570 109 11 10 1670
1.2893291 -1.2534593 0.34500986 104 11449570 35 12 90 1831
1.29177 -1.166541 0.31602773 184 11449570 58 13 24 1769
1.3225583 -1.1086105 0.29635027 245 11449570 75 14 104 1751
1.3565803 -1.0549595 0.27898303 284 11449570 86 15 57 1741
1.3634124 -1.3255279 0.2930173 23 11449570 8 16 38 1924
1.299903 -1.1744212 0.25275898 46 11449570 14 17 90 1770
1.4044725 -1.178568 0.24685051 132 11449570 45 18 60 1850
1.4523268 -1.1308422 0.23014818 243 11449570 84 19 87 1855
1.3665974 -1.3286707 0.22272688 22 11449570 8 20 89 1919
1.6140611 -1.4587135 0.23303741 16 11449570 8 21 96 2188
1.4518138 -1.2194611 0.18486962 16 11449570 6 22 75 1905
1.4589356 -1.1372565 0.1631074 142 11449570 49 23 131 1857
1.4805787 -1.4400419 0.16537914 15 11449570 7 24 81 2072
1.5249248 -1.3788817 0.14495224 13 11449570 6 25 91 2061
1.6676614 -1.4008631 0.13271376 11 11449570 5 26 121 2182
0 -0 0 7 11449570 0 27 111 0
1.8081999 -1.7604135 0.10969808 19 11449570 12 28 52 2526
1.8534229 -1.6770957 0.084709778 15 11449570 9 29 51 2501
1.5549593 -1.3086931 0.050131753 40 11449570 16 30 51 2033
0 -0 0 4 11449570 0 31 102 0
1.7280951 -1.6826018 0.0168388 26 11449570 15 32 117 2412
1.528457 -1.384065 -0.0052183545 9 11449570 4 33 70 2062
0 -0 -0 0 11449570 0 34 77 0
1.5435389 -1.2071953 -0.042038966 15 11449570 6 35 73 1960
0 -0 -0 9 11449570 0 36 141 0
0 -0 -0 5 11449570 0 37 81 0
1.7003058 -1.4325926 -0.10823513 59 11449570 29 38 89 2226
1.7717199 -1.3856049 -0.1308302 165 11449570 84 39 68 2253
0 -0 -0 6 11449570 0 40 102 0
1.8414166 -1.6714413 -0.18842933 82 11449570 51 41 110 2494
1.6911786 -1.4257102 -0.18885347 96 11449570 47 42 146 2220
1.6923468 -1.325006 -0.20396765 69 11449570 32 43 75 2159
1.8094968 -1.7675914 -0.26113656 219 11449570 142 44 126 2543
1.688781 -1.534132 -0.25704768 78 11449570 41 45 68 2296
1.6172994 -1.3648773 -0.25860664 52 11449570 24 46 101 2132
1.8660641 -1.4617518 -0.31299832 239 11449570 136 47 156 2391
1.8488232 -1.8090363 -0.36302358 257 11449570 175 48 91 2612
1.6434015 -1.4942174 -0.33325928 89 11449570 45 49 59 2246
1.5802875 -1.3350594 -0.33065516 47 11449570 21 50 64 2095
0 -0 -0 0 11449570 0 51 65 0
1.65569 -1.6229466 -0.41323143 150 11449570 83 52 101 2355
1.416589 -1.2893047 -0.35995886 11 11449570 4 53 77 1949
0 -0 -0 5 11449570 0 54 77 0
1.585783 -1.2428682 -0.41944641 39 11449570 17 55 59 2058
1.2332104 -1.2101735 -0.37482861 11 11449570 3 56 94 1768
1.6833024 -1.5336654 -0.5163222 145 11449570 79 57 82 2335
1.6784141 -1.4194154 -0.52083337 94 11449570 48 58 59 2259
1.8572013 -1.4558557 -0.58399445 73 11449570 43 59 75 2431
1.5164397 -1.4915967 -0.54586315 256 11449570 123 60 46 2196
1.8349024 -1.6746044 -0.66247594 193 11449570 127 61 49 2571
1.8377435 -1.5547636 -0.66739345 150 11449570 94 62 60 2498
1.855517 -1.4532809 -0.67988265 294 11449570 177 63 54 2453
1.1522174 -1.1359383 0.50503892 187 11547760 54 0 43 1695
1.1555097 -1.0555091 0.4697383 301 11547760 80 1 19 1634
1.2065606 -1.0217317 0.45781222 301 11547760 81 2 44 1646
1.2391937 -0.97166508 0.43987632 87 11547760 23 3 45 1635
1.1576008 -1.1400907 0.4389112 253 11547760 72 4 34 1683
1.1951557 -1.0926811 0.4202143 230 11547760 64 5 10 1673
1.2421687 -1.0527045 0.40560395 309 11547760 87 6 92 1678
1.2641472 -0.99329948 0.38431406 458 11547760 125 7 76 1653
1.2645199 -1.2449145 0.4089236 109 11547760 36 8 99 1821
1.2366153 -1.1297145 0.3684465 227 11547760 67 9 35 1715
1.2664248 -1.0744386 0.3486532 276 11547760 79 10 44 1697
1.3051938 -1.0273952 0.33251262 390 11547760 112 11 19 1694
1.1976193 -1.1786808 0.3223986 127 11547760 37 12 97 1711
1.2933019 -1.1824121 0.3181715 166 11547760 53 13 36 1781
1.315731 -1.1167047 0.29635027 266 11547760 82 14 92 1751
1.3686928 -1.0779208 0.28282887 272 11547760 85 15 49 1765
1.3806115 -1.3588266 0.29849994 20 11547760 8 16 47 1960
1.3014363 -1.1903913 0.25447261 36 11547760 12 17 74 1782
1.3518994 -1.1486609 0.23884453 151 11547760 49 18 64 1790
1.4079605 -1.1102405 0.22419284 258 11547760 84 19 87 1807
1.3754081 -1.3537526 0.2255124 13 11547760 5 20 88 1943
1.508247 -1.3799911 0.21897845 17 11547760 7 21 112 2056
1.3897161 -1.1819205 0.17788242 25 11547760 8 22 90 1833
1.4613124 -1.1535937 0.1641614 40 11547760 14 23 128 1869
1.4120508 -1.3903521 0.15867457 12 11547760 5 24 75 1988
2.1344876 -1.954005 0.20403029 14 11547760 12 25 76 2901
0 -0 0 8 11547760 0 26 112 0
1.5160662 -1.1982785 0.099482566 10 11547760 4 27 98 1935
1.6778245 -1.6536574 0.10240224 15 11547760 9 28 65 2358
1.9315307 -1.769449 0.088774219 20 11547760 13 29 49 2621
1.7569071 -1.4971695 0.056937639 25 11547760 13 30 51 2309
0 -0 0 4 11547760 0 31 72 0
1.8715655 -1.8448009 0.018346753 16 11547760 11 32 96 2628
1.6172353 -1.4826177 -0.0055524101 21 11547760 10 33 57 2194
0 -0 -0 4 11547760 0 34 92 0
0 -0 -0 5 11547760 0 35 72 0
0 -0 -0 5 11547760 0 36 145 0
0 -0 -0 4 11547760 0 37 62 0
1.6276541 -1.3885459 -0.10415079 60 11547760 28 38 72 2142
1.7913581 -1.4187633 -0.13292068 143 11547760 75 39 81 2289
0 -0 -0 7 11547760 0 40 112 0
1.8399366 -1.690805 -0.18933596 58 11547760 37 41 98 2506
1.7915274 -1.5292101 -0.20110342 265 11547760 148 42 116 2364
1.6935457 -1.3427871 -0.20510131 62 11547760 29 43 66 2171
1.8410538 -1.820627 -0.26729783 160 11547760 109 44 95 2603
1.7495522 -1.6090424 -0.26779535 78 11547760 45 45 58 2392
1.5726714 -1.3438233 -0.25278434 36 11547760 16 46 127 2084
1.8477396 -1.4657807 -0.31142747 230 11547760 130 47 125 2379
1.8292456 -1.8119832 -0.36135578 135 11547760 91 48 97 2600
1.6080085 -1.4801618 -0.32791764 96 11547760 47 49 54 2210
1.5540566 -1.3293258 -0.32686722 69 11547760 29 50 54 2071
1.6239657 -1.2890037 -0.35187274 12 11547760 5 51 57 2103
1.6373149 -1.6247538 -0.41112581 170 11547760 93 52 108 2343
0 -0 -0 9 11547760 0 53 77 0
0 -0 -0 7 11547760 0 54 87 0
1.7529633 -1.3913441 -0.46591565 29 11547760 15 55 57 2286
1.3588761 -1.3499583 -0.41553393 14 11547760 5 56 119 1960
1.7168719 -1.5836389 -0.52958959 139 11547760 80 57 69 2395
1.6608038 -1.4220927 -0.5180667 114 11547760 58 58 60 2247
1.86648 -1.481709 -0.58975989 78 11547760 47 59 66 2455
1.5484407 -1.5418807 -0.56077743 214 11547760 109 60 64 2256
1.8075604 -1.6700947 -0.65629184 161 11547760 104 61 50 2547
1.79304 -1.535919 -0.65456921 87 11547760 53 62 59 2450
1.8465649 -1.4646388 -0.67988265 256 11547760 154 63 63 2453
1.1127946 -1.1106191 0.49073693 197 11644370 53 0 45 1647
1.1574497 -1.0703828 0.47318804 269 11644370 73 1 50 1646
1.2002686 -1.0291158 0.45781222 243 11644370 66 2 55 1646
1.2060552 -0.95768887 0.43019098 113 11644370 29 3 46 1599
1.1833986 -1.17989 0.45142916 247 11644370 74 4 46 1731
1.1969529 -1.1078838 0.42322835 202 11644370 57 5 21 1685
1.2445229 -1.0678891 0.40850458 285 11644370 81 6 88 1690
1.2488959 -0.99377036 0.38152409 408 11644370 110 7 48 1641
1.2237278 -1.2196313 0.39814472 106 11644370 33 8 64 1773
1.2468684 -1.1531962 0.3736026 256 11644370 77 9 33 1739
1.2865337 -1.1051465 0.35604951 302 11644370 91 10 43 1733
1.3080661 -1.0427189 0.33486807 335 11644370 97 11 31 1706
