# .PCD v0.7 - Point Cloud Data file format
VERSION 0.7
FIELDS x y z intensity t reflectivity ring noise range
SIZE 4 4 4 4 4 2 1 2 4
TYPE F F F F U U U U U
COUNT 1 1 1 1 1 1 1 1 1
WIDTH 873
HEIGHT 1
VIEWPOINT 0 0 0 1 0 0 0
POINTS 873
DATA ascii
2.2199597 -0.88246727 0.50151002 125 6330480 74 10 43 2441
2.2967436 -0.81672996 0.48797306 223 6330480 138 11 48 2486
2.3488679 -1.1410841 0.50102741 31 6330480 22 12 92 2659
2.0246017 -0.8930639 0.40177861 210 6330480 107 13 61 2249
2.1090763 -0.83885837 0.38977426 74 6330480 39 14 96 2303
2.1435213 -0.7628336 0.36936009 256 6330480 136 15 60 2305
1.9130793 -0.9294185 0.32774079 86 6330480 40 16 41 2152
2.1242423 -0.93759173 0.33501276 195 6330480 108 17 79 2346
2.1010206 -0.83697116 0.30449343 159 6330480 83 18 59 2282
2.0702188 -0.73817194 0.27481306 231 6330480 114 19 72 2215
1.9395349 -0.94231313 0.251975 109 6330480 52 20 78 2171
2.0338283 -0.89806682 0.23814973 194 6330480 97 21 106 2236
1.99402 -0.79543495 0.20932481 213 6330480 99 22 63 2157
2.0009506 -0.71469361 0.18734953 226 6330480 103 23 130 2133
1.9221147 -0.93430579 0.1711259 112 6330480 52 24 63 2144
1.935234 -0.85513657 0.1491721 101 6330480 46 25 68 2121
1.8894153 -0.75378352 0.12395538 206 6330480 86 26 111 2038
1.8758723 -0.67127401 0.1025673 206 6330480 82 27 83 1995
1.8487345 -0.89975417 0.089373969 272 6330480 115 28 56 2058
1.836256 -0.81216669 0.068045557 199 6330480 80 29 14 2009
1.8313 -0.73259979 0.048652213 157 6330480 61 30 57 1973
1.7865938 -0.64006484 0.028355101 216 6330480 78 31 60 1898
1.7370989 -0.8455351 0.013487795 44 6330480 17 32 86 1932
1.7537971 -0.77646416 -0.0048539303 187 6330480 69 33 54 1918
1.7555121 -0.70253021 -0.02257432 166 6330480 59 34 85 1891
1.7426838 -0.62560368 -0.039722536 179 6330480 61 35 90 1852
0 -0 -0 8 6330480 0 36 108 0
0 -0 -0 5 6330480 0 37 50 0
0 -0 -0 0 6330480 0 38 83 0
1.7448523 -0.62634778 -0.10783474 231 6330480 80 39 66 1857
0 -0 -0 3 6330480 0 40 83 0
0 -0 -0 0 6330480 0 41 68 0
1.6535304 -0.66305822 -0.1521036 18 6330480 6 42 116 1788
1.6853116 -0.60600406 -0.1699573 54 6330480 18 43 59 1799
1.7685935 -0.8644188 -0.20322029 140 6330480 55 44 73 1979
1.8450618 -0.82037735 -0.22749169 158 6330480 65 45 45 2032
1.8532751 -0.74428159 -0.24405089 236 6330480 96 46 103 2012
1.8610032 -0.66969281 -0.26115921 239 6330480 95 47 120 1995
1.1170183 -0.54711437 -0.17456263 68 6330480 11 48 67 1256
1.1293215 -0.50272512 -0.18547377 59 6330480 9 49 40 1250
1.930305 -0.77639103 -0.33254912 233 6330480 104 50 67 2107
1.9395549 -0.69857192 -0.3498649 260 6330480 113 51 55 2091
0.99951249 -0.49066374 -0.19845638 69 6330480 9 52 59 1131
1.1463008 -0.51097894 -0.23584785 66 6330480 11 53 62 1277
1.2348986 -0.49714127 -0.26329723 95 6330480 18 54 77 1357
0 -0 -0 0 6330480 0 55 48 0
1.1190819 -0.55013657 -0.27052107 64 6330480 10 56 95 1276
1.1283224 -0.50367314 -0.28016284 58 6330480 9 57 50 1267
1.2157861 -0.48971829 -0.31056336 137 6330480 25 58 75 1347
0 -0 -0 7 6330480 0 59 72 0
1.0425075 -0.51400745 -0.29828587 78 6330480 11 60 33 1200
1.0716122 -0.47943529 -0.31307209 69 6330480 10 61 30 1215
4.538671 -1.8291882 -1.3566948 207 6330480 535 62 66 5078
5.0276461 -1.8088312 -1.5413076 189 6330480 583 63 45 5561
0 -0 0 7 6427640 0 0 62 0
2.5611193 -1.1472068 0.84230918 34 6427640 30 1 67 2930
2.2892079 -0.92383701 0.71481013 64 6427640 43 2 58 2570
2.3186619 -0.83564407 0.68846697 105 6427640 69 3 45 2559
2.4955168 -1.2323927 0.75186038 10 6427640 9 4 74 2883
2.6646047 -1.1949574 0.75779229 15 6427640 13 5 43 3017
2.3949883 -0.96759558 0.64345515 213 6427640 151 6 83 2662
4.8815093 -1.7648777 1.2408252 304 6427640 867 7 62 5337
0 -0 0 3 6427640 0 8 59 0
2.3307378 -1.0441581 0.56180036 73 6427640 50 9 44 2615
2.1818435 -0.88285679 0.49411374 131 6427640 76 10 55 2405
2.2474408 -0.81476587 0.47855124 72 6427640 43 11 34 2438
2.3418221 -1.155475 0.50102741 20 6427640 14 12 112 2659
2.0083106 -0.90063846 0.39963484 119 6427640 59 13 54 2237
2.1696644 -0.87841332 0.40195996 59 6427640 33 14 76 2375
2.1722045 -0.78809094 0.37512884 282 6427640 154 15 54 2341
1.8328902 -0.90440345 0.3149479 73 6427640 31 16 40 2068
2.0317607 -0.91170859 0.32130378 123 6427640 62 17 80 2250
2.0958455 -0.84984702 0.30449343 69 6427640 36 18 61 2282
2.0768411 -0.75492847 0.27630186 246 6427640 122 19 67 2227
1.9337164 -0.95419616 0.251975 152 6427640 72 20 82 2171
2.0173943 -0.90564275 0.23687166 207 6427640 103 21 83 2224
1.96697 -0.79866868 0.20699576 245 6427640 111 22 55 2133
1.9965276 -0.7269578 0.18734953 208 6427640 95 23 130 2133
1.8519908 -0.91431063 0.16537914 98 6427640 42 24 61 2072
1.9081124 -0.85718447 0.14748415 51 6427640 23 25 63 2097
1.9180475 -0.77888221 0.12614498 219 6427640 94 26 136 2074
1.8379427 -0.67045081 0.10071646 221 6427640 85 27 88 1959
1.8646736 -0.92170566 0.09041623 271 6427640 117 28 39 2082
1.8203 -0.8185001 0.067639112 206 6427640 82 29 32 1997
1.8378811 -0.74834675 0.048948124 168 6427640 66 30 47 1985
1.805174 -0.6592471 0.028713647 231 6427640 85 31 79 1922
1.7426351 -0.86149573 0.013571571 44 6427640 17 32 73 1944
1.7818277 -0.80198628 -0.0049450365 214 6427640 82 33 53 1954
1.7956191 -0.73139429 -0.023147335 164 6427640 62 34 81 1939
1.716279 -0.62803924 -0.039207771 186 6427640 62 35 72 1828
0 -0 -0 6 6427640 0 36 123 0
0 -0 -0 7 6427640 0 37 53 0
0 -0 -0 0 6427640 0 38 66 0
1.7409762 -0.63704222 -0.10783474 207 6427640 71 39 54 1857
0 -0 -0 0 6427640 0 40 87 0
0 -0 -0 6 6427640 0 41 74 0
0 -0 -0 10 6427640 0 42 130 0
1.5918282 -0.58344412 -0.16088787 62 6427640 18 43 59 1703
1.453194 -0.72134411 -0.16748473 43 6427640 11 44 112 1631
1.8725916 -0.84641755 -0.23152205 203 6427640 87 45 56 2068
1.8486733 -0.75563902 -0.24405089 237 6427640 96 46 87 2012
1.8791971 -0.68929279 -0.26430097 218 6427640 89 47 126 2019
1.0391611 -0.51690978 -0.16288806 40 6427640 6 48 74 1172
1.1262156 -0.50964504 -0.18547377 69 6427640 11 49 47 1250
1.8487405 -0.75679642 -0.31929135 233 6427640 95 50 93 2023
1.9574441 -0.7186141 -0.35388055 203 6427640 91 51 50 2115
1.1022106 -0.54949695 -0.21951276 47 6427640 7 52 96 1251
1.1109174 -0.50339979 -0.22919904 81 6427640 13 53 78 1241
1.1446803 -0.4690038 -0.24467045 57 6427640 9 54 77 1261
0 -0 -0 8 6427640 0 55 68 0
1.0422388 -0.52032554 -0.25271249 64 6427640 9 56 121 1192
1.1358677 -0.51542276 -0.28281632 64 6427640 10 57 57 1279
1.1587379 -0.47502336 -0.29672977 104 6427640 17 58 61 1287
1.2420013 -0.45606017 -0.32743084 13 6427640 2 59 53 1363
1.0809073 -0.54121023 -0.31021729 73 6427640 11 60 22 1248
1.1425322 -0.51960164 -0.33471656 65 6427640 11 61 30 1299
4.4845667 -1.8394493 -1.3438706 267 6427640 674 62 54 5030
4.929853 -1.8078883 -1.5146998 209 6427640 623 63 45 5465
0 -0 0 7 6525900 0 0 59 0
2.5331116 -1.1533744 0.83540976 29 6525900 25 1 75 2906
2.1129003 -0.86779964 0.66140795 56 6525900 31 2 45 2378
2.4111295 -0.88572264 0.71752298 161 6525900 114 3 34 2667
0 -0 0 7 6525900 0 4 72 0
2.6149464 -1.1920131 0.74573594 30 6525900 26 5 34 2969
2.4105449 -0.99112862 0.64925641 225 6525900 162 6 97 2686
4.8815398 -1.7988324 1.2436152 123 6525900 352 7 118 5349
0 -0 0 4 6525900 0 8 86 0
2.3989489 -1.0924393 0.57984674 36 6525900 26 9 40 2699
2.1438074 -0.8828122 0.48671746 131 6525900 73 10 38 2369
2.275511 -0.84077495 0.48561761 61 6525900 37 11 27 2474
2.0818148 -1.0431173 0.44676042 17 6525900 10 12 97 2371
2.0886939 -0.95212305 0.41678503 147 6525900 80 13 41 2333
2.1314287 -0.87819326 0.39586711 90 6525900 49 14 92 2339
2.1784377 -0.80551255 0.37705177 235 6525900 130 15 62 2353
2.1241994 -1.064401 0.36611933 59 6525900 34 16 43 2404
1.9612924 -0.89458507 0.3110221 137 6525900 65 17 79 2178
2.1345654 -0.88083696 0.31089821 180 6525900 98 18 69 2330
2.0498385 -0.75938463 0.27332422 215 6525900 105 19 67 2203
1.9704489 -0.98740214 0.25754607 213 6525900 105 20 79 2219
1.9466692 -0.88828462 0.22920315 160 6525900 74 21 72 2152
2.0172231 -0.83352786 0.21281841 216 6525900 104 22 55 2193
1.9808224 -0.7350359 0.18629552 217 6525900 98 23 102 2121
1.8142664 -0.90957415 0.16250575 90 6525900 37 24 71 2036
1.9572607 -0.89373678 0.15170401 196 6525900 91 25 70 2157
1.9243022 -0.79521108 0.12687485 193 6525900 84 26 128 2086
1.8674934 -0.69424331 0.1025673 210 6525900 84 27 91 1995
1.8375539 -0.92237324 0.089373969 282 6525900 119 28 45 2058
1.8697827 -0.85458088 0.06967134 193 6525900 82 29 31 2057
1.8000067 -0.74583334 0.048060399 168 6525900 64 30 31 1949
1.7673595 -0.65775573 0.028175827 210 6525900 75 31 67 1886
1.7480404 -0.87755591 0.013655346 109 6525900 42 32 73 1956
1.7550488 -0.80291975 -0.0048842989 192 6525900 71 33 56 1930
1.7135049 -0.71023661 -0.022144562 174 6525900 60 34 88 1855
1.7348754 -0.64694202 -0.039722536 174 6525900 59 35 53 1852
0 -0 -0 0 6525900 0 36 109 0
0 -0 -0 0 6525900 0 37 49 0
0 -0 -0 5 6525900 0 38 67 0
1.7370347 -0.64771265 -0.10783474 186 6525900 64 39 75 1857
0 -0 -0 5 6525900 0 40 84 0
0 -0 -0 7 6525900 0 41 89 0
0 -0 -0 7 6525900 0 42 120 0
1.6441745 -0.61410004 -0.16655627 56 6525900 18 43 71 1763
1.0969924 -0.55294615 -0.12682015 39 6525900 6 44 107 1235
1.813184 -0.8330012 -0.22480479 187 6525900 75 45 57 2008
1.8550001 -0.77154243 -0.24550648 226 6525900 93 46 100 2024
1.9083635 -0.71330619 -0.26901361 213 6525900 90 47 118 2055
0.98293394 -0.49648738 -0.15454909 38 6525900 5 48 69 1112
1.0799414 -0.49671042 -0.17835158 43 6525900 6 49 50 1202
1.5159048 -0.63143516 -0.26247233 176 6525900 49 50 66 1663
1.9862404 -0.74304718 -0.35990405 192 6525900 89 51 65 2151
1.0671976 -0.54024243 -0.21319585 58 6525900 9 52 91 1215
1.139944 -0.52500731 -0.23584785 68 6525900 11 53 75 1277
1.1852429 -0.49413824 -0.25398383 68 6525900 12 54 81 1309
0 -0 -0 9 6525900 0 55 53 0
0.9971866 -0.50550097 -0.24253614 57 6525900 7 56 106 1144
1.1326838 -0.52238262 -0.28281632 66 6525900 11 57 44 1279
1.209685 -0.504601 -0.31056336 95 6525900 17 58 48 1347
1.0973513 -0.41060346 -0.28995526 22 6525900 3 59 69 1207
1.0257602 -0.52149433 -0.29530302 75 6525900 11 60 24 1188
1.0972229 -0.50714356 -0.3223483 68 6525900 11 61 26 1251
4.3558078 -1.8179383 -1.3086041 237 6525900 568 62 45 4898
4.8322644 -1.8058145 -1.4880922 223 6525900 642 63 45 5369
0 -0 0 4 6622240 0 0 61 0
2.7763257 -1.2847395 0.91820335 23 6622240 24 1 71 3194
2.4265909 -1.0140823 0.76153702 106 6622240 79 2 51 2738
2.4056494 -0.90050042 0.71752298 153 6622240 109 3 43 2667
2.6453805 -1.347031 0.80193222 13 6622240 13 4 87 3075
2.776211 -1.2861574 0.79396141 18 6622240 18 5 43 3161
2.4473863 -1.0238768 0.66085887 253 6622240 189 6 102 2734
2.2917972 -0.86052841 0.58518964 155 6622240 98 7 75 2517
0 -0 0 6 6622240 0 8 78 0
2.4666524 -1.1415955 0.59789312 32 6622240 25 9 31 2783
2.1275187 -0.89141136 0.48425201 115 6622240 64 10 57 2357
2.2372732 -0.84228402 0.47855124 97 6622240 57 11 36 2438
1.7182461 -0.87417781 0.36988223 73 6622240 28 12 84 1963
2.1899436 -1.0145526 0.43822274 174 6622240 104 13 54 2453
2.1150928 -0.88668239 0.39383614 124 6622240 67 14 90 2327
2.1956229 -0.82721621 0.38089758 203 6622240 114 15 54 2377
2.2127631 -1.1258178 0.38256729 55 6622240 34 16 46 2512
1.9342151 -0.89661235 0.30759484 126 6622240 59 17 72 2154
2.1071894 -0.88471001 0.30769581 223 6622240 119 18 83 2306
2.1231215 -0.80138218 0.28374603 211 6622240 111 19 78 2287
1.9855989 -1.0102839 0.2603316 197 6622240 99 20 93 2243
1.9087089 -0.88515311 0.2253689 82 6622240 37 21 64 2116
2.0010607 -0.84126091 0.21165387 151 6622240 72 22 72 2181
1.9762751 -0.74717617 0.18629552 217 6622240 98 23 116 2121
1.6807309 -0.85557169 0.15101223 116 6622240 42 24 61 1892
1.9408821 -0.90069073 0.15086004 230 6622240 106 25 69 2145
1.9745942 -0.83021533 0.13052417 194 6622240 89 26 105 2146
1.8183696 -0.68870997 0.10009952 212 6622240 80 27 101 1947
1.8318597 -0.93363088 0.089373969 146 6622240 62 28 67 2058
1.8427496 -0.85593301 0.068858445 109 6622240 45 29 48 2033
1.8727763 -0.78948402 0.050131753 178 6622240 73 30 40 2033
1.7969481 -0.68134969 0.028713647 216 6622240 80 31 79 1922
1.7105502 -0.87191671 0.01340402 121 6622240 45 32 75 1920
1.7718519 -0.82379162 -0.0049450365 199 6622240 76 33 44 1954
1.7643961 -0.74404931 -0.022860827 154 6622240 57 34 66 1915
1.7308731 -0.65757483 -0.039722536 177 6622240 61 35 85 1852
0 -0 -0 10 6622240 0 36 135 0
0 -0 -0 0 6622240 0 37 49 0
0 -0 -0 0 6622240 0 38 69 0
1.7218287 -0.65410435 -0.10713791 170 6622240 58 39 65 1845
0 -0 -0 3 6622240 0 40 72 0
0 -0 -0 8 6622240 0 41 90 0
0.95819432 -0.40486059 -0.088812172 14 6622240 2 42 137 1044
1.5510526 -0.59018886 -0.15748683 47 6622240 13 43 51 1667
1.0510755 -0.53791457 -0.1218911 50 6622240 7 44 96 1187
1.7324036 -0.80879956 -0.21540061 58 6622240 22 45 71 1924
1.7953823 -0.75970119 -0.23822862 219 6622240 85 46 115 1964
1.8928328 -0.72076863 -0.26744273 196 6622240 82 47 109 2043
1.0115913 -0.51877743 -0.15955245 45 6622240 6 48 75 1148
1.1198766 -0.52342707 -0.18547377 45 6622240 7 49 45 1250
1.1410477 -0.48352948 -0.19807744 67 6622240 11 50 68 1255
2.0148094 -0.76786023 -0.36592755 181 6622240 86 51 52 2187
1.0218335 -0.52517927 -0.20477329 57 6622240 8 52 89 1167
1.1153378 -0.5219937 -0.2314153 60 6622240 9 53 71 1253
1.1605136 -0.49220848 -0.24932715 140 6622240 23 54 100 1285
1.1801326 -0.44973454 -0.26291829 12 6622240 2 55 53 1290
1.1191934 -0.57600856 -0.27306518 51 6622240 9 56 85 1288
1.1294571 -0.5293228 -0.28281632 52 6622240 9 57 62 1279
1.195817 -0.50745255 -0.30779663 84 6622240 15 58 73 1335
1.2363112 -0.4712671 -0.32743084 79 6622240 15 59 65 1363
1.0431983 -0.53844059 -0.30126873 52 6622240 8 60 34 1212
1.1045853 -0.51879561 -0.32544035 80 6622240 13 61 26 1263
4.3339272 -1.8401115 -1.305398 103 6622240 247 62 78 4886
4.7779913 -1.8190216 -1.4747882 224 6622240 633 63 50 5321
0 -0 0 5 6720130 0 0 64 0
2.7059846 -1.2724061 0.89750493 14 6720130 14 1 71 3122
2.5157921 -1.0695393 0.79157573 59 6720130 47 2 56 2846
2.4108779 -0.91936237 0.72075146 181 6720130 130 3 56 2679
2.6782293 -1.3845172 0.8144502 10 6720130 10 4 58 3123
2.6631761 -1.2536958 0.76382047 25 6720130 23 5 39 3041
2.4196291 -1.0297546 0.65505761 257 6720130 189 6 97 2710
2.1774642 -0.83287835 0.55729026 133 6720130 77 7 59 2397
1.8361938 -0.94877815 0.47629157 9 6720130 4 8 62 2121
2.300518 -1.081895 0.55922234 15 6720130 10 9 34 2603
2.067991 -0.88142508 0.47192484 125 6720130 66 10 53 2297
2.33094 -0.89391518 0.49975035 254 6720130 164 11 35 2546
1.6919082 -0.87388778 0.36535999 54 6720130 20 12 101 1939
2.1729949 -1.0229421 0.436079 194 6720130 116 13 62 2441
2.0443385 -0.87180769 0.38165042 124 6720130 63 14 95 2255
2.1573303 -0.82794064 0.37512884 73 6720130 40 15 49 2341
2.1847391 -1.1284882 0.37891218 42 6720130 26 16 45 2488
1.9394219 -0.91352469 0.30930847 112 6720130 53 17 68 2166
2.1345322 -0.91163599 0.31249937 248 6720130 136 18 72 2342
2.0848219 -0.80157483 0.27927953 207 6720130 105 19 86 2251
1.9581835 -1.0115082 0.25754607 188 6720130 93 20 90 2219
1.9032418 -0.89684808 0.2253689 106 6720130 48 21 83 2116
1.9848799 -0.84882724 0.21048935 52 6720130 25 22 66 2169
1.9939635 -0.76788002 0.18840355 232 6720130 107 23 121 2145
1.8029679 -0.93176955 0.16250575 113 6720130 47 24 61 2036
1.9028381 -0.89726675 0.14832813 215 6720130 96 25 74 2109
1.9143988 -0.81876534 0.12687485 208 6720130 90 26 121 2086
1.9035571 -0.73436171 0.10503507 169 6720130 71 27 91 2043
1.6770275 -0.86772251 0.082078137 103 6720130 37 28 68 1890
1.8591548 -0.87746161 0.06967134 64 6720130 27 29 41 2057
1.8568715 -0.79623258 0.04983585 190 6720130 77 30 34 2021
1.7927336 -0.69236273 0.028713647 215 6720130 80 31 60 1922
1.7264826 -0.893426 0.013571571 69 6720130 26 32 75 1944
1.7667639 -0.83464801 -0.0049450365 175 6720130 67 33 60 1954
1.7597975 -0.75486147 -0.022860827 166 6720130 61 34 94 1915
1.7156169 -0.66385335 -0.039465152 187 6720130 63 35 75 1840
0 -0 -0 0 6720130 0 36 113 0
0 -0 -0 2 6720130 0 37 61 0
0 -0 -0 0 6720130 0 38 72 0
1.7736456 -0.68627185 -0.11062207 40 6720130 15 39 75 1905
0 -0 -0 4 6720130 0 40 76 0
0 -0 -0 0 6720130 0 41 83 0
1.2632712 -0.54292208 -0.11739541 19 6720130 4 42 152 1380
1.5808192 -0.61264563 -0.16088787 52 6720130 15 43 47 1703
1.0053859 -0.52234113 -0.11696206 48 6720130 6 44 98 1139
1.1671678 -0.55365825 -0.14554094 37 6720130 6 45 76 1300
1.7140996 -0.73774028 -0.22803961 161 6720130 57 46 119 1880
1.8994664 -0.73667103 -0.26901361 209 6720130 88 47 113 2055
1.0821738 -0.56338751 -0.17122705 50 6720130 8 48 73 1232
1.0952044 -0.52010715 -0.18191269 44 6720130 7 49 50 1226
1.0836501 -0.46707046 -0.1886076 50 6720130 7 50 42 1195
1.9880017 -0.7716465 -0.36191189 165 6720130 77 51 67 2163
1.0395398 -0.54236859 -0.20898458 64 6720130 9 52 74 1191
1.1334155 -0.53895664 -0.23584785 57 6720130 9 53 63 1277
1.1142354 -0.48066837 -0.24001376 62 6720130 10 54 76 1237
1.199255 -0.46546891 -0.26780978 39 6720130 7 55 59 1314
0.98051411 -0.5122695 -0.23999207 55 6720130 7 56 107 1132
1.083923 -0.51611823 -0.2722024 52 6720130 8 57 57 1231
1.1712394 -0.50552595 -0.30226323 78 6720130 13 58 55 1311
1.2116785 -0.47041252 -0.32166538 139 6720130 25 59 68 1339
1.0707624 -0.56101453 -0.31021729 61 6720130 9 60 32 1248
1.1327746 -0.54054391 -0.33471656 65 6720130 11 61 20 1299
1.1695491 -0.50506282 -0.3532002 54 6720130 10 62 62 1322
4.6699901 -1.8107896 -1.4448546 220 6720130 597 63 50 5213
0 -0 0 2 6818180 0 0 68 0
2.6047895 -1.2443955 0.86645734 13 6818180 12 1 79 3014
2.4457033 -1.0575079 0.77154994 40 6818180 30 2 44 2774
2.4482856 -0.95087504 0.73366529 194 6818180 144 3 44 2727
0 -0 0 6 6818180 0 4 84 0
2.8021328 -1.340175 0.8060177 17 6818180 17 5 42 3209
2.413265 -1.0445819 0.65505761 90 6818180 66 6 88 2710
2.1396873 -0.83351409 0.54892039 113 6818180 63 7 61 2361
1.695716 -0.88941681 0.44126025 45 6818180 18 8 71 1965
2.3784342 -1.136411 0.57984674 11 6818180 8 9 36 2699
2.1595201 -0.93613601 0.49411374 146 6818180 85 10 60 2405
2.3254111 -0.90820074 0.49975035 282 6818180 183 11 34 2546
1.8430759 -0.96633911 0.39927685 21 6818180 9 12 100 2119
2.2305856 -1.0668215 0.44894159 97 6818180 62 13 59 2513
2.0606513 -0.89374703 0.38571233 175 6818180 91 14 88 2279
2.2294354 -0.87134486 0.38858926 70 6818180 41 15 58 2425
2.1777737 -1.1418723 0.37891218 42 6818180 26 16 31 2488
1.837359 -0.87926531 0.29388586 79 6818180 34 17 70 2058
2.1070821 -0.91523999 0.309297 246 6818180 132 18 59 2318
2.1131275 -0.82737577 0.28374603 214 6818180 112 19 92 2287
1.9624959 -1.0290394 0.25893885 200 6818180 100 20 72 2231
1.8546548 -0.88790029 0.22025655 101 6818180 43 21 75 2068
2.0563004 -0.89433426 0.21864107 109 6818180 56 22 66 2253
1.9780858 -0.77573603 0.18734953 207 6818180 94 23 127 2133
1.9031433 -0.99838352 0.17208371 198 6818180 92 24 51 2156
1.9512739 -0.93478388 0.15254799 247 6818180 116 25 70 2169
1.9422902 -0.84482908 0.12906444 221 6818180 99 26 129 2122
1.8878611 -0.74164599 0.10441814 199 6818180 82 27 87 2031
1.7141268 -0.90029454 0.08416266 124 6818180 46 28 32 1938
1.9078068 -0.91477931 0.071703561 134 6818180 60 29 40 2117
1.8519509 -0.80761117 0.04983585 166 6818180 68 30 37 2021
1.7772853 -0.6989584 0.028534375 201 6818180 73 31 79 1910
1.7528379 -0.92074347 0.013822896 38 6818180 15 32 78 1980
1.7724278 -0.85066521 -0.0049754051 183 6818180 71 33 48 1966
1.7661307 -0.7704429 -0.023004081 179 6818180 67 34 86 1927
1.7226734 -0.67876577 -0.039722536 155 6818180 53 35 56 1852
0 -0 -0 4 6818180 0 36 106 0
0 -0 -0 0 6818180 0 37 64 0
0 -0 -0 0 6818180 0 38 69 0
0 -0 -0 7 6818180 0 39 62 0
0 -0 -0 0 6818180 0 40 92 0
0 -0 -0 0 6818180 0 41 77 0
1.1174909 -0.48841429 -0.10412462 28 6818180 4 42 123 1224
1.6437047 -0.6486451 -0.16768993 51 6818180 16 43 68 1775
1.0655119 -0.56190848 -0.12435563 50 6818180 7 44 87 1211
1.0026141 -0.48315886 -0.12538911 51 6818180 6 45 76 1120
1.1312068 -0.49511459 -0.1508943 77 6818180 12 46 99 1244
1.9391713 -0.76579094 -0.27529716 233 6818180 103 47 120 2103
1.0576829 -0.55891275 -0.16789144 49 6818180 7 48 80 1208
1.0813041 -0.52166098 -0.18013215 52 6818180 8 49 40 1214
1.1350281 -0.49749547 -0.19807744 93 6818180 15 50 48 1255
1.9722269 -0.77948147 -0.35990405 175 6818180 81 51 58 2151
0.94223028 -0.49897736 -0.19003382 61 6818180 7 52 91 1083
1.1619456 -0.56129056 -0.24249665 48 6818180 8 53 67 1313
1.1975071 -0.52532929 -0.25864053 76 6818180 14 54 63 1333
1.1854506 -0.46850067 -0.26536405 93 6818180 16 55 55 1302
0.96699172 -0.51278204 -0.23744796 67 6818180 8 56 101 1120
1.0912709 -0.52785528 -0.27485588 65 6818180 10 57 55 1243
1.1253469 -0.49393126 -0.29119635 79 6818180 13 58 54 1263
1.230435 -0.48640305 -0.32743084 88 6818180 16 59 61 1363
1.0878249 -0.57848895 -0.31618303 67 6818180 11 60 29 1272
1.0772686 -0.52219635 -0.31925622 73 6818180 11 61 26 1239
1.1558403 -0.50757992 -0.34999415 78 6818180 13 62 51 1310
4.648067 -1.8351759 -1.4415287 216 6818180 583 63 44 5201
2.8427742 -1.51592 1.0056084 9 6915290 11 0 59 3375
0 -0 0 9 6915290 0 1 78 0
2.7029574 -1.1884817 0.85499078 19 6915290 18 2 34 3074
2.4316573 -0.96162921 0.7304368 141 6915290 104 3 58 2715
0 -0 0 3 6915290 0 4 72 0
2.6058004 -1.2659796 0.75176406 14 6915290 12 5 41 2993
2.4387827 -1.0734426 0.66375947 33 6915290 25 6 96 2746
2.1670797 -0.85953647 0.55729026 143 6915290 82 7 56 2397
1.6489387 -0.87782478 0.43048134 102 6915290 38 8 68 1917
0 -0 0 4 6915290 0 9 38 0
2.2504518 -0.99200165 0.51630259 241 6915290 153 10 58 2513
2.3307288 -0.92679989 0.50210583 273 6915290 178 11 52 2558
0 -0 0 8 6915290 0 12 100 0
2.2239978 -1.080488 0.44894159 38 6915290 24 13 60 2513
2.0875921 -0.92069161 0.39180517 128 6915290 69 14 96 2315
2.2350523 -0.88938737 0.39051214 245 6915290 145 15 43 2437
2.2230749 -1.1830721 0.38804993 22 6915290 14 16 48 2548
1.8319293 -0.8905226 0.29388586 84 6915290 35 17 56 2058
2.1340632 -0.94256634 0.31410056 256 6915290 142 18 79 2354
2.0748284 -0.82709843 0.27927953 195 6915290 99 19 92 2251
1.9982313 -1.06346 0.26450992 237 6915290 123 20 92 2279
1.8384416 -0.89404535 0.21897845 77 6915290 33 21 73 2056
2.0180054 -0.892443 0.21514747 209 6915290 103 22 72 2217
1.9954916 -0.79672354 0.18945754 211 6915290 98 23 129 2157
1.9075398 -1.015664 0.17304151 176 6915290 83 24 72 2168
1.8593936 -0.90483642 0.14579621 170 6915290 73 25 82 2073
1.8713446 -0.82766175 0.12468525 201 6915290 84 26 109 2050
1.894402 -0.75766599 0.10503507 193 6915290 81 27 90 2043
1.6768323 -0.89387643 0.082599267 119 6915290 43 28 51 1902
1.8698113 -0.91071343 0.070484228 209 6915290 90 29 44 2081
1.8579271 -0.8238219 0.050131753 188 6915290 78 30 41 2033
1.8175193 -0.72768956 0.029251469 214 6915290 82 31 76 1958
1.6518559 -0.88067329 0.01306892 35 6915290 12 32 92 1872
1.7024564 -0.82997334 -0.0047931927 120 6915290 43 33 64 1894
1.7833073 -0.79099554 -0.023290588 180 6915290 69 34 76 1951
1.7741503 -0.71165538 -0.041009441 180 6915290 66 35 69 1912
0 -0 -0 7 6915290 0 36 132 0
0 -0 -0 0 6915290 0 37 52 0
0 -0 -0 5 6915290 0 38 80 0
1.3759366 -0.55189425 -0.086232953 13 6915290 3 39 64 1485
0 -0 -0 4 6915290 0 40 92 0
0 -0 -0 5 6915290 0 41 93 0
1.070768 -0.47583982 -0.10004129 38 6915290 5 42 138 1176
1.5842674 -0.6364519 -0.16202155 34 6915290 10 43 56 1715
1.0515201 -0.56280297 -0.12312336 53 6915290 8 44 93 1199
1.0853133 -0.53124183 -0.13613676 41 6915290 6 45 52 1216
1.0737351 -0.47783175 -0.14361642 94 6915290 13 46 104 1184
1.879245 -0.75548738 -0.26744273 221 6915290 92 47 122 2043
1.001871 -0.53730965 -0.15955245 40 6915290 5 48 86 1148
1.0887394 -0.53350782 -0.18191269 64 6915290 10 49 37 1226
1.1103072 -0.49480364 -0.19428951 147 6915290 22 50 56 1231
1.9454554 -0.78273618 -0.3558884 180 6915290 82 51 59 2127
0.95996302 -0.51593494 -0.19424509 63 6915290 8 52 81 1107
1.0420141 -0.51126558 -0.21811771 59 6915290 8 53 84 1181
1.1620082 -0.51828152 -0.25165549 67 6915290 11 54 72 1297
1.1498563 -0.46261084 -0.25802678 63 6915290 10 55 54 1266
0.98448068 -0.52982092 -0.24253614 53 6915290 7 56 84 1144
1.0670041 -0.52422029 -0.26954895 63 6915290 9 57 48 1219
1.1542845 -0.51510233 -0.29949647 82 6915290 14 58 57 1299
1.1517825 -0.46350259 -0.30725166 96 6915290 16 59 79 1279
0.98196667 -0.52994972 -0.28635445 57 6915290 8 60 31 1152
1.126056 -0.55440408 -0.33471656 67 6915290 11 61 26 1299
1.1315858 -0.50523353 -0.34358203 70 6915290 12 62 60 1286
4.5618329 -1.8335618 -1.4182469 215 6915290 562 63 52 5117
0 -0 0 3 7012510 0 0 65 0
0 -0 0 5 7012510 0 1 76 0
2.506202 -1.1203698 0.79491335 19 7012510 15 2 42 2858
2.1791193 -0.87725973 0.65618247 92 7012510 55 3 40 2439
1.8064116 -0.97637683 0.5547024 13 7012510 6 4 65 2127
2.8583896 -1.4104391 0.82711637 10 7012510 10 5 43 3293
2.4852927 -1.1121677 0.67826265 25 7012510 20 6 88 2806
2.2158766 -0.89466494 0.57123989 163 7012510 98 7 55 2457
1.6332333 -0.88236773 0.42778662 35 7012510 13 8 67 1905
0 -0 0 4 7012510 0 9 30 0
2.2657568 -1.0153972 0.5212335 211 7012510 136 10 41 2537
2.1832078 -0.88369149 0.47148484 126 7012510 72 11 41 2402
0 -0 0 6 7012510 0 12 97 0
2.3549716 -1.1620334 0.47681063 20 7012510 15 13 60 2669
1.9955698 -0.89477319 0.37555754 129 7012510 64 14 95 2219
2.2075963 -0.89419097 0.38666633 273 7012510 159 15 38 2413
2.1322911 -1.1516032 0.37342954 22 7012510 13 16 48 2452
2.0820246 -1.0279382 0.33501276 136 7012510 75 17 81 2346
2.0631447 -0.92641342 0.30449343 146 7012510 76 18 90 2282
2.0586808 -0.83533669 0.2777907 91 7012510 46 19 68 2239
2.0126426 -1.0870291 0.26729548 73 7012510 39 20 101 2303
1.8971092 -0.93701243 0.22664696 101 7012510 46 21 88 2128
2.0124915 -0.90480846 0.21514747 197 7012510 97 22 85 2217
1.9905654 -0.80895263 0.18945754 218 7012510 101 23 108 2157
1.9117955 -1.0330356 0.17399928 175 7012510 83 24 64 2180
1.8323441 -0.90562075 0.14410825 97 7012510 41 25 77 2049
1.7897608 -0.80474466 0.11957619 62 7012510 24 26 86 1966
1.9119169 -0.77831262 0.10626898 189 7012510 81 27 88 2067
1.6818606 -0.90985286 0.083120398 138 7012510 50 28 32 1914
1.8641881 -0.92216921 0.070484228 204 7012510 88 29 50 2081
1.8309642 -0.82534671 0.049539939 196 7012510 79 30 60 2009
1.8019086 -0.73429996 0.029072195 197 7012510 75 31 72 1946
1.5092194 -0.81655961 0.011979843 38 7012510 11 32 78 1716
1.7188395 -0.85105306 -0.0048539303 45 7012510 17 33 60 1918
1.7456048 -0.78712565 -0.022860827 167 7012510 61 34 77 1915
1.7364285 -0.70892388 -0.040237296 180 7012510 63 35 71 1876
0 -0 -0 0 7012510 0 36 110 0
0 -0 -0 0 7012510 0 37 43 0
0 -0 -0 6 7012510 0 38 67 0
0 -0 -0 4 7012510 0 39 56 0
0 -0 -0 5 7012510 0 40 100 0
0 -0 -0 0 7012510 0 41 86 0
1.1876866 -0.53654802 -0.11127043 56 7012510 10 42 153 1308
1.4144666 -0.5783422 -0.14501637 19 7012510 4 43 55 1535
1.0270686 -0.55785006 -0.12065884 51 7012510 7 44 63 1175
1.1140672 -0.5538156 -0.14016713 62 7012510 10 45 60 1252
1.1358982 -0.51386851 -0.15234986 94 7012510 15 46 76 1256
1.8745742 -0.76700401 -0.26744273 212 7012510 88 47 118 2043
1.0298688 -0.56048876 -0.16455585 51 7012510 7 48 76 1184
1.0748211 -0.53489095 -0.18013215 49 7012510 7 49 61 1214
1.0748693 -0.48693779 -0.1886076 68 7012510 10 50 46 1195
1.590265 -0.6511941 -0.29163772 153 7012510 47 51 78 1743
0.92566454 -0.50484592 -0.1879282 50 7012510 6 52 87 1071
1.0599688 -0.52816916 -0.22255023 57 7012510 8 53 61 1205
1.1266419 -0.51081848 -0.24467045 63 7012510 10 54 91 1261
1.1796122 -0.48301271 -0.26536405 67 7012510 11 55 49 1302
1.0429658 -0.5695765 -0.25780067 40 7012510 6 56 90 1216
1.0114081 -0.50463319 -0.25628155 58 7012510 8 57 43 1159
1.1085671 -0.50288004 -0.28842965 64 7012510 10 58 62 1251
1.1920348 -0.48822087 -0.31878263 103 7012510 18 59 60 1327
1.0092808 -0.55271393 -0.29530302 61 7012510 9 60 32 1188
1.0707793 -0.53537679 -0.31925622 59 7012510 9 61 28 1239
1.1179345 -0.50738817 -0.34037599 55 7012510 9 62 47 1274
4.4757962 -1.8309598 -1.3949652 225 7012510 569 63 42 5033
0 -0 0 3 7110090 0 0 62 0
0 -0 0 9 7110090 0 1 78 0
2.4258237 -1.1023462 0.77154994 13 7110090 10 2 34 2774
2.3234212 -0.95196015 0.70138079 124 7110090 85 3 59 2607
1.6175548 -0.88716614 0.49837157 60 7110090 22 4 93 1911
2.9119885 -1.4591728 0.8452009 12 7110090 13 5 27 3365
2.5738134 -1.1707884 0.70436823 18 7110090 16 6 72 2914
2.3075032 -0.94816732 0.59634936 180 7110090 119 7 82 2565
0 -0 0 2 7110090 0 8 66 0
0 -0 0 7 7110090 0 9 30 0
2.2594838 -1.0292805 0.5212335 190 7110090 123 10 60 2537
2.1342258 -0.87914425 0.46206298 123 7110090 68 11 41 2354
0 -0 0 4 7110090 0 12 76 0
1.7355578 -0.86967337 0.35247186 47 7110090 18 13 38 1973
1.9792801 -0.90209597 0.37352657 123 7110090 60 14 92 2207
2.180166 -0.89869142 0.38282052 269 7110090 154 15 70 2389
2.2083893 -1.2102636 0.38804993 16 7110090 10 16 35 2548
2.1287644 -1.0673102 0.34358087 216 7110090 125 17 82 2406
1.9708692 -0.89955068 0.29168388 132 7110090 63 18 63 2186
2.0535164 -0.84795284 0.2777907 76 7110090 38 19 89 2239
2.0581954 -1.1279995 0.2742593 46 7110090 26 20 87 2363
1.9873123 -0.99678028 0.23814973 168 7110090 84 21 80 2236
1.9851763 -0.90721142 0.21281841 96 7110090 46 22 58 2193
2.0297494 -0.83942449 0.19367357 220 7110090 107 23 129 2205
1.8320011 -1.0044905 0.16729474 88 7110090 39 24 63 2096
1.8160546 -0.91147733 0.14326429 102 7110090 42 25 67 2037
1.8392589 -0.8406058 0.12322551 77 7110090 32 26 100 2026
1.8406749 -0.76251012 0.1025673 201 7110090 80 27 91 1995
1.6447181 -0.90284848 0.081557006 140 7110090 49 28 43 1878
1.9120793 -0.96050781 0.072516441 192 7110090 88 29 47 2141
1.880396 -0.86155027 0.051019475 176 7110090 75 30 24 2069
1.7973691 -0.74534243 0.029072195 220 7110090 83 31 63 1946
1.4831431 -0.81425488 0.011812293 43 7110090 12 32 84 1692
1.670701 -0.84002161 -0.0047324556 56 7110090 19 33 56 1870
1.7625583 -0.8078205 -0.023147335 173 7110090 65 34 87 1939
1.7209668 -0.7149623 -0.039979916 194 7110090 68 35 74 1864
0 -0 -0 5 7110090 0 36 126 0
0 -0 -0 5 7110090 0 37 64 0
0 -0 -0 5 7110090 0 38 61 0
0 -0 -0 5 7110090 0 39 62 0
0 -0 -0 0 7110090 0 40 87 0
0 -0 -0 0 7110090 0 41 99 0
1.0865798 -0.49892241 -0.10208296 47 7110090 7 42 126 1200
1.5542784 -0.64666736 -0.15975419 17 7110090 5 43 48 1691
1.0549885 -0.58142585 -0.12435563 48 7110090 7 44 89 1211
1.0361317 -0.52302611 -0.13076295 57 7110090 8 45 53 1168
1.1110795 -0.51087648 -0.14943872 82 7110090 12 46 106 1232
1.8917985 -0.78763705 -0.27058452 221 7110090 94 47 127 2067
1.1096328 -0.61275399 -0.17789823 39 7110090 6 48 59 1280
1.0079691 -0.50936192 -0.16944885 51 7110090 7 49 42 1142
1.0072805 -0.46378854 -0.17724378 54 7110090 7 50 41 1123
1.1384885 -0.47437483 -0.20931658 129 7110090 20 51 70 1251
0.98456949 -0.54483652 -0.20056202 58 7110090 8 52 71 1143
0.98304546 -0.49739194 -0.20703636 57 7110090 7 53 86 1121
1.0486467 -0.48323441 -0.22837202 47 7110090 7 54 77 1177
1.1766262 -0.49024159 -0.26536405 100 7110090 17 55 50 1302
0.98816252 -0.54754597 -0.24508022 52 7110090 7 56 111 1156
1.0813699 -0.54785258 -0.27485588 58 7110090 9 57 43 1243
1.1160645 -0.51456153 -0.29119635 69 7110090 11 58 57 1263
1.1782645 -0.49104488 -0.31589988 92 7110090 16 59 64 1315
1.0363513 -0.57583261 -0.30425161 79 7110090 12 60 33 1224
1.0467967 -0.5314393 -0.31307209 61 7110090 9 61 25 1215
1.1148002 -0.51423812 -0.34037599 76 7110090 12 62 61 1274
4.4006104 -1.831803 -1.3750094 259 7110090 636 63 49 4961
0 -0 0 5 7206500 0 0 64 0
0 -0 0 3 7206500 0 1 72 0
2.6701591 -1.2332 0.8516531 17 7206500 16 2 34 3062
2.4562154 -1.0240148 0.74335068 279 7206500 213 3 48 2763
1.5412201 -0.85764277 0.47646511 63 7206500 21 4 54 1827
2.706285 -1.376936 0.78793317 14 7206500 13 5 35 3137
0 -0 0 7 7206500 0 6 98 0
2.4093213 -1.0073284 0.6242488 218 7206500 157 7 62 2685
0 -0 0 2 7206500 0 8 64 0
0 -0 0 7 7206500 0 9 40 0
2.306412 -1.0677949 0.53356063 87 7206500 59 10 60 2597
2.0853834 -0.87402982 0.45264113 132 7206500 70 11 47 2306
0 -0 0 0 7206500 0 12 87 0
1.8038514 -0.91778505 0.36747828 61 7206500 26 13 55 2057
2.1132178 -0.97884482 0.39992902 148 7206500 83 14 101 2363
2.2073801 -0.9257955 0.38858926 266 7206500 156 15 48 2425
1.7863054 -0.99324971 0.3149479 10 7206500 4 16 45 2068
2.0375001 -1.0372456 0.32987189 63 7206500 34 17 79 2310
1.9113699 -0.88660502 0.28367794 118 7206500 54 18 65 2126
2.0482748 -0.86053699 0.2777907 97 7206500 49 19 59 2239
2.1137362 -1.1753612 0.2826159 32 7206500 19 20 91 2435
1.9811587 -1.0089554 0.23814973 173 7206500 87 21 99 2236
2.0553975 -0.95459068 0.22097015 168 7206500 87 22 70 2277
1.9915066 -0.83795506 0.19051155 199 7206500 94 23 122 2169
1.6167417 -0.89940953 0.14813884 102 7206500 35 24 60 1856
1.7037749 -0.86825252 0.13482456 117 7206500 43 25 69 1917
1.8775192 -0.87205815 0.12614498 75 7206500 32 26 114 2074
1.8801348 -0.79240733 0.10503507 198 7206500 83 27 83 2043
1.5344095 -0.85458952 0.076345697 83 7206500 26 28 68 1758
1.8313639 -0.93407792 0.06967134 203 7206500 86 29 37 2057
1.8750743 -0.87307191 0.051019475 156 7206500 67 30 43 2069
1.8259271 -0.77034909 0.029610017 213 7206500 84 31 53 1982
1.6039164 -0.89341146 0.012817594 36 7206500 12 32 82 1836
1.7723932 -0.90481895 -0.0050361427 122 7206500 48 33 41 1990
1.7466912 -0.81355387 -0.023004081 168 7206500 63 34 81 1927
1.7496997 -0.73952049 -0.040752061 193 7206500 70 35 64 1900
0 -0 -0 0 7206500 0 36 116 0
1.1903368 -0.6087755 -0.052296288 9 7206500 2 37 62 1338
0 -0 -0 6 7206500 0 38 69 0
0 -0 -0 4 7206500 0 39 59 0
0 -0 -0 6 7206500 0 40 91 0
0 -0 -0 8 7206500 0 41 85 0
1.061828 -0.49546853 -0.10004129 50 7206500 7 42 138 1176
1.6052881 -0.67947501 -0.16542257 19 7206500 6 43 49 1751
1.0409826 -0.58206272 -0.12312336 52 7206500 8 44 90 1199
1.085963 -0.55656767 -0.13748021 63 7206500 9 45 51 1228
1.0971323 -0.51264191 -0.14798315 65 7206500 10 46 108 1220
1.8650206 -0.78995019 -0.26744273 197 7206500 82 47 121 2043
1.0747501 -0.60212612 -0.17289484 59 7206500 9 48 73 1244
1.0048248 -0.51553714 -0.16944885 41 7206500 5 49 50 1142
1.1224772 -0.52520061 -0.19807744 65 7206500 10 50 45 1255
1.0919859 -0.46288243 -0.20128526 83 7206500 12 51 57 1203
1.032715 -0.57978445 -0.21109021 61 7206500 9 52 81 1203
1.0219364 -0.52497005 -0.21590143 54 7206500 7 53 71 1169
1.0883056 -0.50962883 -0.2376854 60 7206500 9 54 83 1225
1.1627795 -0.4928672 -0.26291829 79 7206500 13 55 64 1290
0.95411623 -0.53635877 -0.23744796 58 7206500 7 56 101 1120
1.0259532 -0.52771264 -0.26158851 63 7206500 9 57 56 1183
1.1234601 -0.52635384 -0.29396307 61 7206500 10 58 52 1275
1.1752294 -0.49826533 -0.31589988 67 7206500 12 59 69 1315
0.95179468 -0.53651941 -0.28038871 106 7206500 13 60 33 1128
1.043516 -0.53785235 -0.31307209 63 7206500 9 61 30 1215
1.1011534 -0.51616073 -0.33716995 76 7206500 12 62 62 1262
4.3574362 -1.8452817 -1.3650315 241 7206500 584 63 45 4925
1.518286 -0.85813707 0.5443694 24 7303920 8 0 75 1827
0 -0 0 4 7303920 0 1 80 0
0 -0 0 6 7303920 0 2 43 0
2.5350068 -1.0751687 0.76917827 76 7303920 62 3 44 2859
1.5661932 -0.88416868 0.48585355 24 7303920 8 4 70 1863
2.728745 -1.4095074 0.79697543 14 7303920 14 5 29 3173
0 -0 0 5 7303920 0 6 95 0
2.392355 -1.0175246 0.62145883 216 7303920 155 7 81 2673
0 -0 0 0 7303920 0 8 69 0
0 -0 0 7 7303920 0 9 30 0
2.3635776 -1.1119224 0.54835325 36 7303920 25 10 57 2669
2.0583336 -0.87757951 0.44793022 138 7303920 72 11 34 2282
0 -0 0 3 7303920 0 12 97 0
1.8925974 -0.97760332 0.38677222 13 7303920 6 13 61 2165
2.1178725 -0.99682939 0.40195996 192 7303920 108 14 84 2375
2.1471839 -0.91608131 0.37897465 193 7303920 108 15 54 2365
2.8544817 -1.6102028 0.50501317 11 7303920 12 16 43 3316
2.1155066 -1.093353 0.34358087 45 7303920 26 17 74 2406
1.8843784 -0.88817531 0.28047553 82 7303920 36 18 67 2102
1.9772604 -0.84501266 0.26885772 197 7303920 93 19 70 2167
2.1999137 -1.241014 0.29515085 20 7303920 13 20 90 2543
2.0067275 -1.0375323 0.24198398 183 7303920 95 21 97 2272
2.0062971 -0.94679576 0.21631201 193 7303920 96 22 75 2229
1.975338 -0.84545541 0.18945754 138 7303920 64 23 121 2157
1.6111926 -0.90931278 0.14813884 94 7303920 32 24 49 1856
1.7196789 -0.88969117 0.13651252 127 7303920 48 25 76 1941
1.8504691 -0.87333757 0.12468525 80 7303920 34 26 108 2050
1.9303106 -0.82753903 0.10811982 219 7303920 97 27 84 2103
1.3621322 -0.76962787 0.068007603 67 7303920 16 28 44 1566
1.8255981 -0.94529736 0.06967134 112 7303920 47 29 40 2057
1.7937741 -0.84864819 0.048948124 48 7303920 19 30 50 1985
1.8321922 -0.78627002 0.029789289 214 7303920 85 31 67 1994
1.6924282 -0.95636767 0.013571571 87 7303920 33 32 76 1944
1.766808 -0.91567713 -0.0050361427 144 7303920 57 33 52 1990
1.8067417 -0.85505342 -0.023863601 168 7303920 67 34 93 1999
1.7341074 -0.74550414 -0.04049468 167 7303920 60 35 71 1888
0 -0 -0 3 7303920 0 36 120 0
0 -0 -0 0 7303920 0 37 57 0
0 -0 -0 8 7303920 0 38 71 0
0 -0 -0 0 7303920 0 39 59 0
0 -0 -0 9 7303920 0 40 96 0
0.93254042 -0.4847092 -0.079632916 11 7303920 1 41 71 1054
1.0587679 -0.50197446 -0.10004129 56 7303920 8 42 143 1176
1.3816363 -0.59483188 -0.14274901 25 7303920 6 43 46 1511
1.0893043 -0.61788559 -0.12928466 45 7303920 7 44 79 1259
1.0613707 -0.55221301 -0.13479331 65 7303920 9 45 48 1204
1.0616852 -0.50403863 -0.14361642 52 7303920 7 46 89 1184
1.7836572 -0.7684294 -0.25644657 67 7303920 26 47 143 1959
1.1226928 -0.63806832 -0.18123381 49 7303920 8 48 76 1304
1.0332179 -0.53813857 -0.1747905 43 7303920 6 49 51 1178
1.0443205 -0.49646491 -0.18481965 64 7303920 9 50 40 1171
1.1217175 -0.4836261 -0.20730875 88 7303920 14 51 61 1239
0.93674654 -0.53349173 -0.19213946 60 7303920 7 52 80 1095
1.0709816 -0.55849659 -0.22698277 67 7303920 10 53 71 1229
1.063898 -0.50618178 -0.23302872 58 7303920 8 54 73 1201
1.192098 -0.51394588 -0.27025557 68 7303920 12 55 49 1326
0.89987117 -0.51315647 -0.22472756 61 7303920 7 56 96 1060
1.1160612 -0.58274823 -0.28546977 56 7303920 9 57 46 1291
1.1096661 -0.52821863 -0.29119635 61 7303920 10 58 50 1263
1.1828463 -0.51007962 -0.31878263 91 7303920 16 59 80 1327
0.9686653 -0.5538888 -0.28635445 97 7303920 13 60 26 1152
0.97855496 -0.51199353 -0.29451963 78 7303920 10 61 25 1143
1.1397265 -0.54279625 -0.34999415 66 7303920 11 62 47 1310
4.2507281 -1.8309331 -1.3350978 156 7303920 363 63 62 4817
1.532867 -0.87883186 0.55152035 93 7401500 32 0 52 1851
0 -0 0 5 7401500 0 1 67 0
2.6860375 -1.280757 0.86166602 10 7401500 9 2 40 3098
2.4965253 -1.076969 0.75949287 52 7401500 41 3 45 2823
0 -0 0 5 7401500 0 4 80 0
2.5760274 -1.3507102 0.75477821 11 7401500 10 5 44 3005
2.4467416 -1.1678091 0.67536199 11 7401500 9 6 68 2794
2.3753545 -1.0275508 0.61866885 185 7401500 131 7 69 2661
0 -0 0 3 7401500 0 8 69 0
1.6809537 -0.88056594 0.41742948 92 7401500 35 9 30 1943
2.2719431 -1.085889 0.52862978 22 7401500 14 10 56 2573
2.0637054 -0.89487386 0.4502857 146 7401500 77 11 33 2294
0 -0 0 5 7401500 0 12 87 0
0 -0 0 6 7401500 0 13 45 0
2.1650651 -1.0353166 0.41211477 173 7401500 103 14 92 2435
2.0437279 -0.8868044 0.36166844 116 7401500 59 15 55 2257
3.1739528 -1.816177 0.5634948 15 7401500 20 16 30 3700
2.2244503 -1.1670084 0.36243069 28 7401500 18 17 95 2538
1.8788933 -0.89972091 0.28047553 74 7401500 33 18 76 2102
1.9938791 -0.86662197 0.27183539 90 7401500 43 19 78 2191
1.8922553 -1.082817 0.25476053 28 7401500 14 20 61 2195
1.9580631 -1.0276465 0.23687166 196 7401500 97 21 89 2224
1.871215 -0.89712834 0.20233761 89 7401500 39 22 69 2085
1.9481927 -0.84801823 0.18734953 48 7401500 22 23 131 2133
1.5640591 -0.89540982 0.14430767 90 7401500 29 24 54 1808
1.7565784 -0.92248833 0.13988841 118 7401500 46 25 53 1989
1.9314791 -0.92610407 0.13052417 49 7401500 23 26 109 2146
1.914211 -0.83457804 0.10750287 237 7401500 104 27 84 2091
1.4822011 -0.84950882 0.074261166 50 7401500 15 28 40 1710
1.7242192 -0.90626246 0.066013336 91 7401500 34 29 32 1949
1.8750315 -0.90121305 0.051315386 72 7401500 31 30 28 2081
1.8053393 -0.7878986 0.029430743 250 7401500 97 31 76 1970
1.6657068 -0.95479918 0.01340402 118 7401500 44 32 74 1920
1.7930163 -0.94326162 -0.0051272484 133 7401500 55 33 71 2026
1.7798328 -0.85572463 -0.023577094 167 7401500 65 34 91 1975
1.7624781 -0.77054816 -0.041266825 179 7401500 66 35 65 1924
0 -0 -0 8 7401500 0 36 110 0
0 -0 -0 7 7401500 0 37 44 0
0 -0 -0 9 7401500 0 38 75 0
0 -0 -0 0 7401500 0 39 60 0
0 -0 -0 6 7401500 0 40 82 0
0 -0 -0 7 7401500 0 41 77 0
1.1418449 -0.5499686 -0.10820793 46 7401500 7 42 114 1272
1.5639988 -0.68474948 -0.16202155 37 7401500 11 43 44 1715
1.0544538 -0.60669911 -0.12558788 54 7401500 8 44 101 1223
1.026329 -0.54200929 -0.13076295 75 7401500 10 45 51 1168
0.99419993 -0.47949699 -0.134883 65 7401500 8 46 107 1112
1.0706142 -0.46904773 -0.15433921 48 7401500 7 47 130 1179
1.0158036 -0.58559424 -0.16455585 46 7401500 6 48 80 1184
1.0403879 -0.5500145 -0.17657104 47 7401500 7 49 54 1190
1.0199138 -0.49255708 -0.18103173 49 7401500 6 50 45 1147
1.0645531 -0.46674669 -0.19726959 164 7401500 23 51 71 1179
1.0357519 -0.59832311 -0.21319585 57 7401500 8 52 59 1215
1.0154173 -0.53747129 -0.21590143 55 7401500 7 53 54 1169
1.071371 -0.51782292 -0.23535706 52 7401500 8 54 66 1213
1.1351247 -0.49766475 -0.25802678 61 7401500 10 55 50 1266
1.0083708 -0.5832572 -0.25271249 51 7401500 7 56 90 1192
1.0297406 -0.54574317 -0.26424199 62 7401500 9 57 54 1195
1.0748677 -0.51976758 -0.28289625 61 7401500 9 58 63 1227
1.1690264 -0.51264966 -0.31589988 69 7401500 12 59 59 1315
0.93508446 -0.54232752 -0.27740586 91 7401500 11 60 20 1116
1.0880392 -0.57780838 -0.32853243 75 7401500 12 61 22 1275
1.0947363 -0.52963471 -0.33716995 67 7401500 11 62 54 1262
1.2189305 -0.53392529 -0.38387179 34 7401500 7 63 77 1385
1.5472505 -0.89973742 0.55867136 56 7498770 20 0 64 1875
0 -0 0 7 7498770 0 1 85 0
0 -0 0 6 7498770 0 2 42 0
2.5851254 -1.1340543 0.78854895 28 7498770 24 3 40 2931
0 -0 0 3 7498770 0 4 72 0
0 -0 0 7 7498770 0 5 30 0
0 -0 0 7 7498770 0 6 86 0
2.4437876 -1.0750027 0.63819844 55 7498770 42 7 86 2745
0 -0 0 4 7498770 0 8 70 0
1.6962152 -0.90186751 0.42258561 60 7498770 23 9 32 1967
2.4448366 -1.1870072 0.57054216 19 7498770 14 10 36 2777
2.1550734 -0.95024508 0.47148484 167 7498770 96 11 42 2402
0 -0 0 3 7498770 0 12 94 0
0 -0 0 3 7498770 0 13 45 0
2.1161187 -1.0279115 0.40399092 103 7498770 59 14 101 2387
1.9840633 -0.87542003 0.35205382 131 7498770 63 15 49 2197
3.3473852 -1.9427781 0.59639072 15 7498770 22 16 41 3916
2.269665 -1.2085464 0.37099877 15 7498770 10 17 86 2598
1.8947266 -0.92163688 0.28367794 66 7498770 30 18 64 2126
2.0865433 -0.92216003 0.28523484 64 7498770 34 19 76 2299
1.5350904 -0.89098203 0.20740642 62 7498770 20 20 64 1787
1.9938442 -1.0620799 0.24198398 191 7498770 99 21 103 2272
1.8227243 -0.88767582 0.19767949 98 7498770 41 22 49 2037
1.9648142 -0.86963218 0.18945754 49 7498770 23 23 110 2157
1.3930273 -0.80888468 0.12898296 70 7498770 18 24 73 1616
1.8565193 -0.98955381 0.14832813 149 7498770 66 25 71 2109
1.8288441 -0.89073509 0.12395538 93 7498770 39 26 119 2038
1.9200101 -0.85116464 0.10811982 186 7498770 82 27 85 2103
1.5391486 -0.89473855 0.077387959 50 7498770 16 28 53 1782
1.6551366 -0.88295567 0.063574672 97 7498770 34 29 16 1877
1.8694664 -0.91270107 0.051315386 163 7498770 70 30 49 2081
1.8114382 -0.80382788 0.029610017 240 7498770 94 31 55 1982
1.6183215 -0.94087678 0.01306892 140 7498770 49 32 52 1872
1.6072404 -0.85816169 -0.0046109809 52 7498770 17 33 72 1822
1.7529845 -0.85609812 -0.023290588 153 7498770 58 34 98 1951
1.7467539 -0.77647471 -0.041009441 193 7498770 71 35 74 1912
0 -0 -0 0 7498770 0 36 116 0
0 -0 -0 0 7498770 0 37 53 0
0 -0 -0 0 7498770 0 38 60 0
0 -0 -0 0 7498770 0 39 56 0
0 -0 -0 5 7498770 0 40 100 0
0 -0 -0 9 7498770 0 41 85 0
1.0740083 -0.52543813 -0.10208296 56 7498770 8 42 126 1200
1.5379403 -0.68461651 -0.15975419 33 7498770 10 43 59 1691
1.122878 -0.65527159 -0.1342137 62 7498770 11 44 94 1307
1.022984 -0.54829651 -0.13076295 77 7498770 11 45 62 1168
1.0447232 -0.51178902 -0.14216086 65 7498770 9 46 94 1172
1.002512 -0.4465633 -0.1449139 45 7498770 6 47 121 1107
0.98141515 -0.57382166 -0.15955245 46 7498770 6 48 89 1148
0.94287968 -0.50589216 -0.16054609 42 7498770 5 49 53 1082
0.96367931 -0.47271311 -0.17156188 57 7498770 7 50 58 1087
1.1265039 -0.50217187 -0.20931658 82 7498770 13 51 60 1251
1.0116749 -0.59272313 -0.20898458 68 7498770 10 52 93 1191
1.0328791 -0.55485386 -0.22033398 49 7498770 7 53 76 1193
1.0153371 -0.49844858 -0.22371532 53 7498770 7 54 70 1153
1.0998588 -0.49027097 -0.25068954 60 7498770 9 55 63 1230
0.94408196 -0.55383009 -0.23744796 49 7498770 6 56 91 1120
0.98514593 -0.52987683 -0.25362808 46 7498770 6 57 48 1147
1.082139 -0.53150076 -0.28566295 58 7498770 9 58 56 1239
1.1126637 -0.49609536 -0.30148622 69 7498770 11 59 57 1255
0.94175786 -0.55394793 -0.28038871 99 7498770 13 60 33 1128
0.98240525 -0.5294643 -0.29761174 61 7498770 8 61 33 1155
1.1433581 -0.56184149 -0.3532002 54 7498770 9 62 49 1322
1.1524361 -0.51324975 -0.36391601 55 7498770 9 63 43 1313
1.7390383 -1.0255936 0.63018125 9 7596300 4 0 62 2115
0 -0 0 5 7596300 0 1 78 0
0 -0 0 7 7596300 0 2 47 0
2.6308947 -1.1734343 0.8046912 17 7596300 15 3 38 2991
0 -0 0 3 7596300 0 4 75 0
1.6292382 -0.8799293 0.48049608 41 7596300 15 5 33 1913
0 -0 0 3 7596300 0 6 87 0
2.4371455 -1.0899773 0.63819844 53 7596300 40 7 56 2745
0 -0 0 4 7596300 0 8 67 0
1.8556747 -1.0013044 0.4638344 10 7596300 5 9 37 2159
0 -0 0 9 7596300 0 10 52 0
2.2243614 -0.99714309 0.48797306 206 7596300 127 11 36 2486
0 -0 0 3 7596300 0 12 94 0
0 -0 0 5 7596300 0 13 45 0
1.876433 -0.92575645 0.35930991 62 7596300 28 14 116 2123
2.0110767 -0.90212137 0.3578226 113 7596300 57 15 58 2233
3.2842975 -1.9331999 0.58725297 12 7596300 17 16 42 3856
2.000982 -1.0812895 0.32815829 12 7596300 7 17 71 2298
2.0489728 -1.0122595 0.30769581 154 7596300 82 18 59 2306
2.1134298 -0.94958574 0.28970131 94 7596300 51 19 66 2335
1.4987801 -0.88224572 0.2032281 91 7596300 28 20 59 1751
2.0187786 -1.0913161 0.24581824 129 7596300 69 21 91 2308
1.7958324 -0.88825285 0.19535041 107 7596300 44 22 68 2013
1.9049367 -0.85714674 0.18418752 85 7596300 37 23 115 2097
1.3777307 -0.81134701 0.12802516 59 7596300 15 24 63 1604
1.7556546 -0.94966996 0.14073238 93 7596300 37 25 80 2001
1.8662885 -0.9231829 0.12687485 116 7596300 50 26 107 2086
1.9256769 -0.86785346 0.10873675 114 7596300 51 27 72 2115
1.5233021 -0.89807707 0.076866828 152 7596300 48 28 42 1770
1.6496876 -0.89309478 0.063574672 94 7596300 33 29 37 1877
1.8745788 -0.92948389 0.051611297 193 7596300 84 30 56 2093
1.8174092 -0.81986147 0.029789289 231 7596300 92 31 68 1994
1.5815079 -0.93250448 0.012817594 158 7596300 53 32 64 1836
1.5386405 -0.83370632 -0.0044287685 46 7596300 14 33 55 1750
1.8014464 -0.89349645 -0.024006855 60 7596300 24 34 83 2011
1.7638223 -0.79705888 -0.041524205 179 7596300 67 35 66 1936
0 -0 -0 7 7596300 0 36 135 0
1.2488073 -0.67784601 -0.055579465 9 7596300 2 37 59 1422
0 -0 -0 8 7596300 0 38 58 0
0 -0 -0 4 7596300 0 39 57 0
0 -0 -0 0 7596300 0 40 95 0
1.2178465 -0.66175622 -0.10501875 10 7596300 2 41 77 1390
1.13501 -0.56393933 -0.10820793 58 7596300 9 42 132 1272
1.5554781 -0.70389056 -0.16202155 32 7596300 10 43 58 1715
1.1701982 -0.69254619 -0.14037502 57 7596300 11 44 85 1367
1.15578 -0.62863147 -0.14822786 82 7596300 14 45 54 1324
1.1055501 -0.55002391 -0.1508943 49 7596300 8 46 89 1244
1.1514771 -0.52140963 -0.16690627 44 7596300 7 47 110 1275
1.0698711 -0.63438141 -0.17456263 51 7596300 8 48 85 1256
1.0439824 -0.56841493 -0.17835158 65 7596300 9 49 46 1202
1.0774308 -0.53673822 -0.19239554 57 7596300 8 50 51 1219
