# .PCD v0.7 - Point Cloud Data file format
VERSION 0.7
FIELDS x y z intensity t reflectivity ring noise range
SIZE 4 4 4 4 4 2 1 2 4
TYPE F F F F U U U U U
COUNT 1 1 1 1 1 1 1 1 1
WIDTH 770
HEIGHT 1
VIEWPOINT 0 0 0 1 0 0 0
POINTS 770
DATA ascii
0.48984042 -2.2608728 -0.32466426 390 20677430 213 48 84 2336
0.5700627 -2.232578 -0.34572315 368 20677430 200 49 59 2330
0.65472817 -2.2231786 -0.37042847 383 20677430 211 50 43 2347
0.74847764 -2.2353108 -0.40006071 376 20677430 215 51 74 2391
0.50136656 -2.3240666 -0.42375967 409 20677430 239 52 96 2415
0.5806917 -2.2790167 -0.44196075 383 20677430 219 53 113 2393
0.67465979 -2.2935164 -0.47284842 389 20677430 231 54 73 2437
0.70318162 -2.0999136 -0.46102417 329 20677430 169 55 72 2262
0.51140785 -2.3770523 -0.52747375 384 20677430 238 56 114 2488
0.59571195 -2.3430932 -0.54816389 404 20677430 249 57 62 2479
0.6890713 -2.344171 -0.57893431 403 20677430 254 58 64 2511
0.72693402 -2.1714747 -0.56669801 76 20677430 42 59 57 2359
0.52033323 -2.4323673 -0.63833177 399 20677430 263 60 43 2568
0.61294013 -2.4193416 -0.66556805 406 20677430 271 61 50 2583
0.71102262 -2.4205651 -0.69945395 417 20677430 286 62 42 2618
0.73080856 -2.1800146 -0.66325283 64 20677430 36 63 34 2393
0.21986996 -1.0335919 0.32983956 328 20776040 40 0 52 1107
0.28224102 -1.1161275 0.345548 198 20776040 29 1 75 1202
0.32488486 -1.1079189 0.33431974 331 20776040 48 2 44 1202
0.35666376 -1.0658822 0.31396678 347 20776040 47 3 34 1167
0.23255499 -1.0905107 0.30121359 373 20776040 50 4 31 1155
0.30819327 -1.2209975 0.32677752 148 20776040 25 5 20 1301
0.3430419 -1.1715034 0.3040821 262 20776040 42 6 65 1258
0.55292803 -1.6579893 0.4177933 368 20776040 119 7 48 1797
0.2483757 -1.1636029 0.27418765 367 20776040 55 8 44 1221
0.29851213 -1.180732 0.26790252 394 20776040 61 9 31 1247
0.33408889 -1.1432216 0.25003591 376 20776040 56 10 45 1217
0.56867325 -1.7101737 0.36077815 358 20776040 121 11 18 1838
0.2599414 -1.2168502 0.23873703 438 20776040 70 12 35 1267
0.30460975 -1.2068003 0.22598931 532 20776040 85 13 5 1265
0.51690888 -1.7700771 0.31665984 317 20776040 111 14 82 1871
0.59040308 -1.7769719 0.30398095 327 20776040 118 15 33 1897
0.26095432 -1.2216964 0.19250201 382 20776040 61 16 15 1264
0.3180002 -1.2610562 0.18764141 285 20776040 49 17 49 1314
0.53629178 -1.8401504 0.25805885 328 20776040 123 18 61 1934
0.6017884 -1.8149436 0.23908114 307 20776040 114 19 74 1927
0.2736387 -1.2811896 0.15308845 354 20776040 62 20 14 1319
0.46456435 -1.8434898 0.20364144 329 20776040 120 21 20 1912
0.5496608 -1.8893368 0.19185682 314 20776040 123 22 75 1977
0.63006216 -1.9036621 0.17680946 302 20776040 122 23 97 2013
0.27874315 -1.3063166 0.10695369 298 20776040 54 24 12 1340
0.48725268 -1.9356604 0.14073238 308 20776040 123 25 59 2001
0.57153094 -1.9647664 0.12468525 301 20776040 126 26 119 2050
0.64369333 -1.9487231 0.10565203 322 20776040 136 27 80 2055
0.43057799 -2.0227265 0.089895107 341 20776040 146 28 30 2070
0.50991905 -2.0286958 0.070890673 280 20776040 123 29 34 2093
0.58920968 -2.0326819 0.052203111 272 20776040 122 30 36 2117
0.64344543 -1.9503725 0.030685658 338 20776040 142 31 57 2054
0.43461475 -2.0422149 0.014576872 282 20776040 123 32 87 2088
0.51652515 -2.0581686 -0.0053701983 297 20776040 134 33 66 2122
0.59299427 -2.0466733 -0.025439385 273 20776040 124 34 82 2131
0.66524315 -2.0208297 -0.045642305 312 20776040 141 35 66 2128
0.44609883 -2.1012206 -0.063790254 328 20776040 151 36 120 2149
0.52238494 -2.0879996 -0.084189989 314 20776040 146 37 71 2154
0.60452402 -2.0897417 -0.10590123 351 20776040 166 38 159 2178
0.67710781 -2.0567505 -0.12595238 327 20776040 154 39 78 2169
0.44738445 -2.1154535 -0.14350232 366 20776040 172 40 108 2167
0.53000748 -2.1225576 -0.16576339 303 20776040 146 41 81 2194
0.62072021 -2.1479764 -0.19089514 338 20776040 170 42 150 2244
0.69337815 -2.1100154 -0.21076973 368 20776040 183 43 77 2231
0.46580964 -2.2063811 -0.23279455 366 20776040 188 44 88 2267
0.5431993 -2.1791091 -0.25301731 352 20776040 180 45 67 2260
0.6227594 -2.1592712 -0.27461791 343 20776040 176 46 92 2264
0.70977968 -2.1617074 -0.30043128 359 20776040 189 47 119 2295
0.47351372 -2.2522066 -0.32299647 403 20776040 218 48 72 2324
0.56781441 -2.2820981 -0.35284531 330 20776040 187 49 59 2378
0.64107466 -2.2271543 -0.37042847 355 20776040 196 50 61 2347
0.73843557 -2.2511027 -0.40206856 406 20776040 235 51 63 2403
0.48225614 -2.3039725 -0.41954836 395 20776040 226 52 105 2391
0.566697 -2.282537 -0.44196075 378 20776040 217 53 88 2393
0.66057432 -2.2976129 -0.47284842 354 20776040 210 54 72 2437
0.73422736 -2.2381423 -0.49037319 362 20776040 210 55 63 2406
0.49441671 -2.3686657 -0.52492964 390 20776040 239 56 130 2476
0.58695179 -2.3694234 -0.55347085 370 20776040 232 57 60 2503
0.67467481 -2.3483548 -0.57893431 392 20776040 247 58 47 2511
0.68092644 -2.076277 -0.54075336 101 20776040 51 59 76 2251
0.51012206 -2.4582758 -0.64429748 424 20776040 285 60 42 2592
0.59808379 -2.4230568 -0.66556805 423 20776040 282 61 49 2583
0.69934785 -2.4359972 -0.70266002 398 20776040 275 62 56 2630
0.7354064 -2.239229 -0.67988265 24 20776040 14 63 36 2453
0.22741155 -1.1022334 0.35129255 367 20874180 51 0 15 1179
0.27813658 -1.1289982 0.34899777 177 20874180 26 1 65 1214
0.31172967 -1.0877306 0.3276445 286 20874180 40 2 45 1178
0.36091745 -1.1009982 0.32365212 359 20874180 52 3 26 1203
0.22585936 -1.0919172 0.30121359 363 20874180 48 4 41 1155
0.29514852 -1.2003068 0.32074934 158 20874180 26 5 18 1277
0.3326436 -1.1623915 0.30118147 253 20874180 39 6 76 1246
0.52824706 -1.6169741 0.40663356 372 20874180 114 7 65 1749
0.24834377 -1.199457 0.2822718 389 20874180 61 8 31 1257
0.29126167 -1.1825414 0.26790252 477 20874180 74 9 18 1247
0.34319288 -1.2017127 0.26236311 382 20874180 62 10 43 1277
0.55816913 -1.7136308 0.36077815 344 20874180 116 11 20 1838
0.25486124 -1.2299621 0.24099815 327 20874180 53 12 56 1279
0.30565709 -1.2430429 0.23242064 492 20874180 83 13 26 1301
0.49954706 -1.7504698 0.31259793 325 20874180 111 14 94 1847
0.56849152 -1.7467707 0.2982122 332 20874180 115 15 45 1861
0.2558594 -1.2348878 0.19432956 376 20874180 61 16 4 1276
0.30458975 -1.2399155 0.18421417 367 20874180 61 17 52 1290
0.51521838 -1.8090926 0.25325528 328 20874180 118 18 72 1898
0.59064078 -1.8186018 0.23908114 328 20874180 122 19 74 1927
0.26577231 -1.2828445 0.15308845 343 20874180 60 20 13 1319
0.42195326 -1.718841 0.18958253 314 20874180 100 21 68 1780
0.53152585 -1.8696975 0.18952775 278 20874180 106 22 61 1953
0.61468345 -1.8961213 0.17575547 285 20874180 114 23 107 2001
0.2731469 -1.319716 0.10791149 368 20874180 67 24 20 1352
0.46681419 -1.903736 0.13820046 319 20874180 123 25 50 1965
0.54963988 -1.9336721 0.12249566 287 20874180 116 26 96 2014
0.62065738 -1.9184293 0.10380119 293 20874180 119 27 93 2019
0.39634171 -1.9196609 0.085204922 358 20874180 138 28 39 1962
0.48320082 -1.9735411 0.068858445 275 20874180 114 29 32 2033
0.57018805 -2.0131745 0.051611297 297 20874180 130 30 44 2093
0.63884443 -1.9771187 0.031044204 317 20874180 137 31 65 2078
0.42207578 -2.0448432 0.014576872 299 20874180 130 32 57 2088
0.49533823 -2.026329 -0.0052790921 290 20874180 126 33 61 2086
0.58042496 -2.0502734 -0.025439385 281 20874180 128 34 103 2131
0.64914972 -2.0134552 -0.045384929 309 20874180 138 35 77 2116
0.43319759 -2.1039183 -0.063790254 311 20874180 144 36 130 2149
0.51524103 -2.1144657 -0.085128047 299 20874180 142 37 55 2178
0.58191019 -2.0588098 -0.10415079 295 20874180 135 38 118 2142
0.66079885 -2.0494647 -0.12525554 313 20874180 146 39 70 2157
0.43199039 -2.1064293 -0.14270768 376 20874180 175 40 86 2155
0.51980132 -2.1373966 -0.16667004 347 20874180 169 41 108 2206
0.59128469 -2.0942111 -0.18579097 338 20874180 161 42 141 2184
0.68407804 -2.1256018 -0.21190339 355 20874180 178 43 54 2243
0.44747478 -2.1858096 -0.23033002 390 20874180 196 44 92 2243
0.53263152 -2.1939893 -0.2543608 356 20874180 184 45 61 2272
0.62565142 -2.2203765 -0.28189576 363 20874180 196 46 95 2324
0.70014417 -2.1773477 -0.30200216 377 20874180 201 47 101 2307
0.45968553 -2.2550697 -0.32299647 393 20874180 212 48 95 2324
0.54821181 -2.2624722 -0.34928423 336 20874180 186 49 53 2354
0.63381267 -2.25386 -0.37421641 349 20874180 196 50 59 2371
0.71013498 -2.2105358 -0.39403719 378 20874180 210 51 60 2355
0.46811017 -2.3068881 -0.41954836 395 20874180 226 52 94 2391
0.5609954 -2.3203611 -0.44860956 360 20874180 213 53 93 2429
0.6432808 -2.2902896 -0.47052011 370 20874180 218 54 66 2425
0.72766739 -2.2649753 -0.49526468 257 20874180 151 55 53 2430
0.48685071 -2.4061377 -0.5325619 401 20874180 253 56 109 2512
0.5751465 -2.384357 -0.55612433 394 20874180 249 57 68 2515
0.65709752 -2.341208 -0.57616758 421 20874180 263 58 60 2499
0.73228997 -2.2800472 -0.59264261 119 20874180 72 59 55 2467
0.49502876 -2.4613597 -0.64429748 440 20874180 295 60 41 2592
0.58320493 -2.426681 -0.66556805 406 20874180 271 61 48 2583
0.67814237 -2.417974 -0.69624794 422 20874180 287 62 60 2606
0.74283475 -2.3095558 -0.69983846 195 20874180 124 63 47 2525
0.22064409 -1.1036081 0.35129255 362 20970890 50 0 32 1179
0.27924621 -1.1642127 0.35934693 118 20970890 18 1 51 1250
0.31747949 -1.1340218 0.34099501 238 20970890 36 2 36 1226
0.35062236 -1.0921876 0.32042369 391 20970890 55 3 27 1191
0.22143216 -1.1046412 0.30434307 324 20970890 44 4 46 1167
0.29859504 -1.2472796 0.33280569 157 20970890 28 5 6 1325
0.33490968 -1.1980534 0.30988336 326 20970890 54 6 58 1282
0.48275357 -1.5090231 0.37873417 391 20970890 104 7 69 1629
0.23637831 -1.1780282 0.27688235 408 20970890 62 8 34 1233
0.28400025 -1.1843063 0.26790252 465 20970890 72 9 9 1247
0.32950157 -1.1811717 0.25743222 409 20970890 64 10 49 1253
0.54764396 -1.7170234 0.36077815 348 20970890 117 11 25 1838
0.24498919 -1.2199484 0.23873703 317 20970890 51 12 67 1267
0.29252639 -1.2219299 0.22813308 445 20970890 73 13 41 1277
0.46656689 -1.6737543 0.29838124 313 20970890 97 14 92 1763
0.56135935 -1.7615119 0.30013514 331 20970890 116 15 34 1873
0.24827747 -1.2364346 0.19432956 348 20970890 57 16 1 1276
0.30802628 -1.2879661 0.19106865 359 20970890 64 17 31 1338
0.50410831 -1.81222 0.25325528 306 20970890 110 18 68 1898
0.58668804 -1.8448864 0.2420588 314 20970890 120 19 77 1951
0.25554964 -1.2727654 0.15169568 361 20970890 62 20 34 1307
0.36424965 -1.5241139 0.16785508 280 20970890 69 21 45 1576
0.53282505 -1.9189557 0.1941859 304 20970890 122 22 45 2001
0.60303748 -1.8998573 0.17575547 306 20970890 123 23 106 2001
0.26504412 -1.3213671 0.10791149 340 20970890 62 24 29 1352
0.46624181 -1.9531369 0.14157633 301 20970890 122 25 57 2013
0.54096884 -1.9485493 0.12322551 284 20970890 117 26 100 2026
0.60887444 -1.9222014 0.10380119 295 20970890 120 27 103 2019
0.35868317 -1.7927439 0.079472482 289 20970890 97 28 38 1830
0.4710823 -1.9764688 0.068858445 268 20970890 111 29 39 2033
0.56422114 -2.0397594 0.052203111 270 20970890 121 30 40 2117
0.626701 -1.9810014 0.031044204 297 20970890 128 31 67 2078
0.40952089 -2.0473945 0.014576872 293 20970890 128 32 51 2088
0.48845142 -2.0526781 -0.0053398297 295 20970890 132 33 67 2110
0.56783378 -2.0537963 -0.025439385 277 20970890 126 34 75 2131
0.63317192 -2.0059595 -0.045127545 331 20970890 147 35 72 2104
0.42262685 -2.1182995 -0.064146452 352 20970890 164 36 123 2161
0.50225717 -2.1175873 -0.085128047 332 20970890 158 37 70 2178
0.57564491 -2.085449 -0.10531774 340 20970890 159 38 131 2166
0.64821112 -2.0534806 -0.12525554 327 20970890 152 39 72 2157
0.4283914 -2.1560166 -0.14588632 370 20970890 180 40 91 2203
0.50943291 -2.1521897 -0.16757669 343 20970890 169 41 109 2218
0.59113634 -2.1439054 -0.18987431 378 20970890 188 42 128 2232
0.66025281 -2.0955768 -0.20850235 382 20970890 186 43 61 2207
0.43637669 -2.2002227 -0.23156229 377 20970890 192 44 98 2255
0.53012764 -2.2436361 -0.2597346 362 20970890 195 45 67 2320
0.60253519 -2.1897199 -0.27752906 367 20970890 192 46 82 2288
0.67962641 -2.1589069 -0.29886037 345 20970890 180 47 147 2283
0.44353792 -2.2461894 -0.32132867 418 20970890 224 48 82 2312
0.53704304 -2.277344 -0.35106477 329 20970890 184 49 54 2366
0.6136958 -2.2348535 -0.37042847 391 20970890 215 50 54 2347
0.7001074 -2.2261374 -0.39604506 397 20970890 222 51 52 2367
0.45622483 -2.3213091 -0.42165402 405 20970890 234 52 101 2403
0.54674739 -2.3237596 -0.44860956 391 20970890 231 53 86 2429
0.63544297 -2.3168991 -0.47517678 372 20970890 223 54 71 2449
0.71375602 -2.2693975 -0.49526468 482 20970890 284 55 55 2430
0.46305719 -2.3630464 -0.52238554 389 20970890 236 56 119 2464
0.55515677 -2.3650546 -0.55081743 391 20970890 243 57 59 2491
0.65197861 -2.3789802 -0.58446777 395 20970890 254 58 42 2535
0.73924947 -2.3511713 -0.60993898 376 20970890 242 59 55 2539
0.47769502 -2.4529419 -0.64131463 422 20970890 281 60 45 2580
0.57622474 -2.4640844 -0.67484426 409 20970890 280 61 44 2619
0.66634744 -2.4332426 -0.69945395 400 20970890 274 62 59 2618
0.75981557 -2.4130485 -0.72977215 386 20970890 267 63 54 2633
0.20951478 -1.0824487 0.34414157 334 21067200 45 0 59 1155
0.2720975 -1.1659043 0.35934693 118 21067200 19 1 61 1250
0.31659386 -1.1581855 0.34767029 233 21067200 36 2 42 1250
0.33698395 -1.0722667 0.31396678 365 21067200 50 3 34 1167
0.22347884 -1.1514692 0.31686103 221 21067200 33 4 45 1215
0.29357114 -1.2604008 0.33581978 231 21067200 41 5 19 1337
0.31835422 -1.166386 0.30118147 389 21067200 60 6 63 1246
0.36884767 -1.1778227 0.29503602 351 21067200 57 7 72 1269
0.23137574 -1.1909354 0.27957708 406 21067200 63 8 22 1245
0.27406514 -1.1746132 0.26532444 460 21067200 70 9 26 1235
0.32533401 -1.1945025 0.25989768 439 21067200 70 10 44 1265
0.53008497 -1.6978877 0.35606724 328 21067200 108 11 17 1814
0.23075092 -1.1867235 0.23195365 360 21067200 55 12 62 1231
0.28234491 -1.2122027 0.22598931 454 21067200 73 13 42 1265
0.41280746 -1.5168201 0.26994786 233 21067200 59 14 104 1595
0.5470131 -1.7536155 0.2982122 325 21067200 112 15 43 1861
0.23842268 -1.2262927 0.19250201 370 21067200 59 16 9 1264
0.28396785 -1.2204238 0.18078694 388 21067200 62 17 53 1266
0.48986238 -1.8038019 0.25165406 328 21067200 117 18 73 1886
0.58243465 -1.8711902 0.24503647 315 21067200 123 19 52 1975
0.24773531 -1.2743095 0.15169568 371 21067200 63 20 49 1307
0.29003781 -1.2473987 0.13718107 329 21067200 55 21 68 1288
0.50854176 -1.8760793 0.18952775 298 21067200 114 22 69 1953
0.58782238 -1.8921062 0.17470145 298 21067200 118 23 107 1989
0.24780954 -1.2759991 0.1040803 433 21067200 74 24 9 1304
0.45424882 -1.955961 0.14157633 331 21067200 134 25 52 2013
0.52900261 -1.9518319 0.12322551 291 21067200 119 26 97 2026
0.59351993 -1.9144547 0.10318425 284 21067200 114 27 87 2007
0.25192288 -1.3005749 0.057584979 366 21067200 64 28 35 1326
0.46436402 -2.0026886 0.06967134 300 21067200 127 29 22 2057
0.54856759 -2.0316014 0.0519072 255 21067200 113 30 44 2105
0.61453402 -1.9848094 0.031044204 320 21067200 138 31 69 2078
0.39923197 -2.0616498 0.014660648 294 21067200 130 32 83 2100
0.48125967 -2.0790181 -0.0054005668 295 21067200 135 33 62 2134
0.56147438 -2.0804112 -0.025725894 286 21067200 133 34 74 2155
0.63147455 -2.0441952 -0.045899689 314 21067200 144 35 71 2140
0.41417053 -2.144407 -0.064858869 313 21067200 149 36 138 2185
0.48116761 -2.0855775 -0.083720967 334 21067200 153 37 79 2142
0.56907445 -2.112088 -0.1064847 313 21067200 150 38 119 2190
0.64620709 -2.0917573 -0.12734604 334 21067200 161 39 70 2193
0.41515425 -2.1586046 -0.14588632 381 21067200 185 40 95 2203
0.4962177 -2.1552751 -0.16757669 329 21067200 162 41 82 2218
0.56554097 -2.1013093 -0.18579097 350 21067200 167 42 132 2184
0.66146213 -2.1452525 -0.21303707 369 21067200 188 43 61 2255
0.42286816 -2.2028589 -0.23156229 403 21067200 205 44 100 2255
0.50566781 -2.2003603 -0.2543608 362 21067200 187 45 56 2272
0.58908802 -2.1933758 -0.27752906 369 21067200 193 46 98 2288
0.66986942 -2.1744061 -0.30043128 364 21067200 192 47 124 2295
0.42974719 -2.2488685 -0.32132867 391 21067200 209 48 76 2312
0.52571225 -2.2921629 -0.35284531 343 21067200 194 49 49 2378
0.60610664 -2.2614682 -0.37421641 379 21067200 213 50 42 2371
0.69339496 -2.253006 -0.40006071 389 21067200 223 51 72 2391
0.44197297 -2.3240647 -0.42165402 399 21067200 231 52 89 2403
0.53247875 -2.3270705 -0.44860956 372 21067200 220 53 62 2429
0.62121481 -2.3207543 -0.47517678 370 21067200 222 54 89 2449
0.71364146 -2.3186479 -0.50504774 399 21067200 245 55 59 2478
0.45073354 -2.3773651 -0.52492964 369 21067200 226 56 120 2476
0.54584342 -2.3912354 -0.55612433 357 21067200 226 57 63 2515
0.62831777 -2.3490953 -0.57616758 386 21067200 241 58 53 2499
0.73166037 -2.3779299 -0.61570454 446 21067200 293 59 73 2563
0.46478683 -2.4672492 -0.64429748 400 21067200 269 60 48 2592
0.56109458 -2.4675736 -0.67484426 384 21067200 264 61 59 2619
0.65737647 -2.4596288 -0.7058661 393 21067200 275 62 66 2642
0.74159974 -2.4066465 -0.72644615 389 21067200 267 63 49 2621
0.20286906 -1.083714 0.34414157 304 21164970 41 0 36 1155
0.26748195 -1.1787604 0.36279666 126 21164970 20 1 61 1262
0.29759732 -1.1155583 0.33431974 298 21164970 43 2 37 1202
0.32700089 -1.0632672 0.31073833 367 21164970 49 3 25 1155
0.23350836 -1.2439058 0.34189698 191 21164970 33 4 40 1311
0.2730048 -1.2055361 0.32074934 295 21164970 48 5 1 1277
0.30519736 -1.1458137 0.2953802 377 21164970 56 6 75 1222
0.33767712 -1.1019508 0.27550644 386 21164970 54 7 69 1185
0.21974465 -1.1693479 0.27418765 403 21164970 60 8 30 1221
0.26685268 -1.1762727 0.26532444 453 21164970 69 9 16 1235
0.31196538 -1.1737763 0.2549668 451 21164970 69 10 44 1241
0.51278162 -1.6786019 0.3513563 370 21164970 118 11 20 1790
0.22564334 -1.1996989 0.23421477 373 21164970 58 12 76 1243
0.27750942 -1.2254276 0.22813308 417 21164970 68 13 38 1277
0.33367199 -1.2564194 0.22323586 322 21164970 56 14 2133 1319
0.54315841 -1.7795969 0.30205804 315 21164970 112 15 47 1885
0.23089381 -1.2277325 0.19250201 394 21164970 63 16 1 1264
0.28171536 -1.245312 0.18421417 407 21164970 68 17 27 1290
0.46355349 -1.7492942 0.24364811 329 21164970 110 18 68 1826
0.56400424 -1.8519471 0.2420588 314 21164970 120 19 92 1951
0.23330349 -1.2406648 0.14751737 502 21164970 81 20 41 1271
0.29290187 -1.2957072 0.14229341 366 21164970 65 21 23 1336
0.49702081 -1.8791643 0.18952775 328 21164970 125 22 71 1953
0.5831542 -1.9185512 0.17680946 297 21164970 120 23 110 2013
0.23114204 -1.2304713 0.10024913 587 21164970 93 24 23 1256
0.41851205 -1.8536241 0.1339806 324 21164970 117 25 39 1905
0.51395416 -1.9434615 0.12249566 298 21164970 121 26 104 2014
0.5817619 -1.9180604 0.10318425 275 21164970 111 27 76 2007
0.24835311 -1.3256634 0.058627237 448 21164970 82 28 8 1350
0.45734149 -2.0288992 0.070484228 275 21164970 119 29 40 2081
0.53609157 -2.034929 0.0519072 286 21164970 127 30 44 2105
0.60234392 -1.9885428 0.031044204 311 21164970 134 31 68 2078
0.37994739 -2.0286767 0.014409322 289 21164970 123 32 67 2064
0.4632251 -2.0585175 -0.0053398297 317 21164970 141 33 65 2110
0.54258776 -2.0606098 -0.025439385 263 21164970 120 34 74 2131
0.61891973 -2.0480313 -0.045899689 317 21164970 145 35 98 2140
0.39439794 -2.1115355 -0.063790254 317 21164970 146 36 123 2149
0.46573779 -2.0767903 -0.083251946 314 21164970 143 37 61 2130
0.55915135 -2.1271319 -0.10706817 336 21164970 163 38 142 2202
0.62296295 -2.0612805 -0.12525554 332 21164970 155 39 80 2157
0.39752311 -2.1375675 -0.144297 363 21164970 172 40 85 2179
0.4855969 -2.169956 -0.1684833 324 21164970 161 41 105 2230
0.55870986 -2.1278691 -0.18783265 370 21164970 180 42 136 2208
0.64138693 -2.1263962 -0.21076973 380 21164970 189 43 68 2231
0.40934372 -2.2054119 -0.23156229 361 21164970 184 44 101 2255
0.49475658 -2.2150593 -0.25570425 360 21164970 188 45 59 2284
0.5786376 -2.2084715 -0.27898464 350 21164970 185 46 97 2300
0.65994769 -2.1898661 -0.30200216 386 21164970 205 47 135 2307
0.41594031 -2.2514629 -0.32132867 412 21164970 220 48 78 2312
0.50647426 -2.2721798 -0.34928423 340 21164970 188 49 43 2354
0.58922184 -2.2536805 -0.37232247 384 21164970 214 50 71 2359
0.67955768 -2.2572181 -0.40006071 377 21164970 216 51 73 2391
0.42770445 -2.3267329 -0.42165402 393 21164970 227 52 71 2403
0.51307011 -2.3072693 -0.44417703 353 21164970 204 53 103 2405
0.60101509 -2.3017423 -0.47052011 365 21164970 215 54 92 2425
0.69940108 -2.322983 -0.50504774 398 21164970 244 55 57 2478
0.43613783 -2.3800859 -0.52492964 386 21164970 237 56 107 2476
0.52862644 -2.3831141 -0.55347085 393 21164970 246 57 54 2503
0.61684006 -2.3642049 -0.57893431 407 21164970 256 58 51 2511
0.70362681 -2.3377573 -0.60417354 437 21164970 277 59 79 2515
0.45172101 -2.4814901 -0.64728034 433 21164970 293 60 35 2604
0.54344177 -2.4596484 -0.67175215 407 21164970 276 61 46 2607
0.63643765 -2.4412365 -0.69945395 404 21164970 277 62 62 2618
0.74012959 -2.4553084 -0.73975003 386 21164970 275 63 63 2669
0.1982543 -1.0962104 0.34771705 245 21262150 33 0 54 1167
0.26519334 -1.2028272 0.36969611 191 21262150 32 1 63 1286
0.29364944 -1.1285183 0.33765739 326 21262150 48 2 47 1214
0.32712975 -1.0873888 0.31719521 351 21262150 49 3 31 1179
0.21346666 -1.1769226 0.32312003 295 21262150 45 4 63 1239
0.26310676 -1.1958447 0.31773525 371 21262150 59 5 7 1265
0.28937727 -1.1138548 0.28667837 262 21262150 37 6 76 1186
0.33761129 -1.1263616 0.28108633 396 21262150 58 7 53 1209
0.21256553 -1.1706742 0.27418765 384 21262150 57 8 45 1221
0.26215294 -1.1893332 0.26790252 474 21262150 74 9 23 1247
0.30475736 -1.1756684 0.2549668 502 21262150 77 10 42 1241
0.47889256 -1.6027981 0.33486807 390 21262150 113 11 22 1706
0.21617062 -1.1894658 0.23195365 385 21262150 58 12 53 1231
0.27252215 -1.2386385 0.23027685 391 21262150 65 13 28 1289
0.32595646 -1.2584431 0.22323586 355 21262150 62 14 85 1319
0.5288406 -1.7715462 0.30013514 346 21262150 121 15 38 1873
0.22335623 -1.2291262 0.19250201 432 21262150 69 16 1 1264
0.27916789 -1.2702173 0.18764141 405 21262150 70 17 35 1314
0.42007795 -1.6254474 0.226035 339 21262150 97 18 76 1694
0.54583216 -1.8325492 0.23908114 289 21262150 107 19 69 1927
0.21716335 -1.1951654 0.1419463 744 21262150 111 20 4 1223
0.28494605 -1.2974801 0.14229341 394 21262150 70 21 54 1336
0.48249814 -1.8706138 0.18836322 299 21262150 113 22 88 1941
0.56455904 -1.8991772 0.17470145 327 21262150 129 23 109 1989
0.23426862 -1.2907135 0.10503811 334 21262150 58 24 25 1316
0.36609691 -1.6690799 0.12047704 365 21262150 107 25 43 1713
0.50201964 -1.9465785 0.12249566 276 21262150 112 26 119 2014
0.57679784 -1.9445726 0.10441814 293 21262150 121 27 81 2031
0.23594385 -1.3035685 0.057584979 428 21262150 75 28 5 1326
0.439753 -2.0082362 0.06967134 296 21262150 125 29 31 2057
0.52061057 -2.0265613 0.051611297 288 21262150 126 30 44 2093
0.57649958 -1.9461833 0.030327111 316 21262150 130 31 83 2030
0.37390229 -2.0663936 0.014660648 300 21262150 132 32 63 2100
0.44033524 -2.0144284 -0.0052183545 290 21262150 124 33 60 2062
0.52993393 -2.0639002 -0.025439385 299 21262150 136 34 93 2131
0.60294151 -2.0402849 -0.045642305 309 21262150 140 35 77 2128
0.38569421 -2.1375239 -0.064502664 296 21262150 140 36 139 2173
0.46064219 -2.1147573 -0.084659018 317 21262150 149 37 72 2166
0.54608899 -2.130523 -0.10706817 311 21262150 151 38 138 2202
0.61709404 -2.0880411 -0.1266492 337 21262150 161 39 61 2181
0.39075056 -2.1753216 -0.14668098 378 21262150 186 40 84 2215
0.47735596 -2.1962802 -0.17029659 353 21262150 179 41 107 2254
0.54267752 -2.1196742 -0.18681182 326 21262150 157 42 145 2196
0.62494791 -2.1188333 -0.20963603 370 21262150 182 43 65 2219
0.39791015 -2.2196314 -0.23279455 372 21262150 191 44 100 2267
0.47862795 -2.2063999 -0.2543608 321 21262150 165 45 54 2272
0.56507581 -2.2119806 -0.27898464 355 21262150 188 46 86 2300
0.65322411 -2.2166972 -0.30514392 363 21262150 197 47 117 2331
0.40420491 -2.2656717 -0.32299647 374 21262150 202 48 85 2324
0.49001211 -2.2636461 -0.34750366 340 21262150 186 49 57 2342
0.57538241 -2.2572534 -0.37232247 398 21262150 221 50 44 2359
0.65567189 -2.2272975 -0.39403719 365 21262150 203 51 63 2355
0.40929082 -2.3060496 -0.41744274 355 21262150 201 52 95 2379
0.50388193 -2.3334296 -0.44860956 348 21262150 205 53 107 2429
0.58688051 -2.3053868 -0.47052011 387 21262150 228 54 85 2425
0.67849869 -2.3046911 -0.50015622 401 21262150 241 55 54 2454
0.42561156 -2.405813 -0.53001779 361 21262150 226 56 120 2500
0.52138662 -2.4206347 -0.56143129 349 21262150 225 57 60 2539
0.61383587 -2.4132106 -0.59000117 395 21262150 259 58 59 2559
0.69584686 -2.3643799 -0.60993898 471 21262150 304 59 77 2539
0.43849784 -2.4956632 -0.65026319 403 21262150 276 60 49 2616
0.52833945 -2.4629364 -0.67175215 398 21262150 270 61 47 2607
0.61859804 -2.4338882 -0.69624794 386 21262150 262 62 52 2606
0.72831005 -2.4708631 -0.74307603 388 21262150 279 63 45 2681
0.20924897 -1.1989657 0.37989655 164 21360030 27 0 38 1275
0.25540227 -1.193193 0.3662464 289 21360030 47 1 73 1274
0.28955358 -1.1414715 0.34099501 285 21360030 43 2 39 1226
0.31718993 -1.0782878 0.31396678 288 21360030 39 3 8 1167
0.19825122 -1.1325653 0.31060207 378 21360030 54 4 46 1191
0.24605933 -1.1520001 0.30567887 411 21360030 61 5 1 1217
0.30254841 -1.1946239 0.30698273 147 21360030 24 6 68 1270
0.33069372 -1.1284119 0.28108633 400 21360030 58 7 55 1209
0.20335995 -1.1604385 0.27149293 430 21360030 63 8 29 1209
0.25239792 -1.1794589 0.26532444 447 21360030 68 9 6 1235
0.29466078 -1.1661301 0.25250137 499 21360030 75 10 38 1229
0.42615822 -1.4588773 0.30424708 380 21360030 91 11 31 1550
0.21294029 -1.2139856 0.23647591 384 21360030 60 12 55 1255
0.25751811 -1.2056478 0.22384553 398 21360030 63 13 24 1253
0.31243831 -1.2374854 0.21917397 390 21360030 65 14 79 1295
0.52459759 -1.7974989 0.30398095 333 21360030 120 15 56 1897
0.21376142 -1.2187918 0.19067447 475 21360030 74 16 21 1252
0.26393399 -1.2370597 0.18250057 415 21360030 68 17 53 1278
0.32875502 -1.3050863 0.18120161 315 21360030 58 18 86 1358
0.53457761 -1.8358638 0.23908114 302 21360030 112 19 57 1927
0.21806106 -1.2434344 0.14751737 398 21360030 64 20 37 1271
0.27697951 -1.2992041 0.14229341 408 21360030 73 21 37 1336
0.47392315 -1.8851221 0.18952775 306 21360030 117 22 72 1953
0.5428881 -1.8681692 0.17153944 284 21360030 108 23 99 1953
0.22015274 -1.2567798 0.10216472 235 21360030 38 24 36 1280
0.28355724 -1.3317672 0.096001841 369 21360030 69 25 54 1365
0.49298614 -1.9612385 0.12322551 302 21360030 124 26 117 2026
0.56151789 -1.936565 0.10380119 299 21360030 122 27 100 2019
0.22381523 -1.2813718 0.056542717 254 21360030 43 28 38 1302
0.4274224 -2.0108967 0.06967134 316 21360030 134 29 18 2057
0.50233895 -2.006443 0.051019475 281 21360030 120 30 29 2069
0.57455879 -1.9842594 0.03086493 319 21360030 136 31 82 2066
0.34263927 -1.9622613 0.013906672 274 21360030 109 32 71 1992
0.43792906 -2.0640471 -0.0053398297 299 21360030 133 33 64 2110
0.52308565 -2.0903935 -0.025725894 294 21360030 137 34 89 2155
0.58708191 -2.0324202 -0.045384929 327 21360030 147 35 69 2116
0.37051389 -2.1280334 -0.064146452 307 21360030 143 36 143 2161
0.4451775 -2.1058123 -0.084189989 311 21360030 145 37 63 2154
0.52429211 -2.098948 -0.10531774 321 21360030 151 38 126 2166
0.60759521 -2.1032975 -0.12734604 306 21360030 147 39 65 2193
0.37535107 -2.1658804 -0.14588632 392 21360030 190 40 108 2203
0.45399246 -2.1523356 -0.16667004 310 21360030 151 41 104 2206
0.5383442 -2.1577668 -0.18987431 344 21360030 171 42 145 2232
0.6119352 -2.122628 -0.20963603 371 21360030 183 43 62 2219
0.38224909 -2.2102692 -0.23156229 403 21360030 205 44 91 2255
0.47244996 -2.2443016 -0.25839114 348 21360030 185 45 56 2308
0.54286063 -2.1807301 -0.27461791 373 21360030 191 46 104 2264
0.63302499 -2.1977997 -0.30200216 352 21360030 187 47 125 2307
0.39029539 -2.2681091 -0.32299647 390 21360030 211 48 82 2324
0.47367391 -2.2549965 -0.34572315 330 21360030 179 49 48 2330
0.56152135 -2.2607415 -0.37232247 392 21360030 218 50 53 2359
0.64526439 -2.2426484 -0.39604506 384 21360030 215 51 67 2367
0.40111277 -2.343451 -0.42375967 390 21360030 228 52 103 2415
0.4847177 -2.3133917 -0.44417703 366 21360030 212 53 77 2405
0.56988978 -2.2975185 -0.46819174 353 21360030 206 54 91 2413
0.66109592 -2.2975206 -0.49771047 399 21360030 238 55 51 2442
0.41281378 -2.4199395 -0.5325619 387 21360030 244 56 122 2512
0.50652409 -2.4237883 -0.56143129 379 21360030 245 57 70 2539
0.59620816 -2.4055979 -0.5872345 369 21360030 240 58 61 2547
0.68454635 -2.3797998 -0.61282176 444 21360030 289 59 68 2551
0.42317647 -2.4983068 -0.65026319 410 21360030 280 60 46 2616
0.51557952 -2.4774835 -0.67484426 388 21360030 266 61 49 2619
0.61199135 -2.4713123 -0.7058661 392 21360030 273 62 47 2642
0.70994347 -2.4642062 -0.73975003 367 21360030 261 63 42 2669
0.19618794 -1.1663383 0.36917004 226 21457620 35 0 32 1239
0.23171949 -1.1159637 0.3420983 375 21457620 53 1 42 1190
0.27977866 -1.1320369 0.33765739 256 21457620 38 2 47 1214
0.32972869 -1.1468593 0.33333749 201 21457620 31 3 26 1239
0.19322562 -1.1451837 0.31373155 400 21457620 58 4 30 1203
0.24134265 -1.164862 0.30869299 427 21457620 64 5 1 1229
0.29242319 -1.1851526 0.3040821 156 21457620 25 6 78 1258
0.3237637 -1.1304197 0.28108633 417 21457620 61 7 63 1209
0.20207903 -1.1962548 0.27957708 383 21457620 59 8 22 1245
0.24753824 -1.1924607 0.26790252 418 21457620 65 9 5 1247
0.2931143 -1.1907232 0.25743222 496 21457620 78 10 30 1253
0.33322063 -1.167286 0.24300508 456 21457620 70 11 30 1238
0.20352258 -1.203649 0.23421477 413 21457620 64 12 79 1243
0.24532484 -1.1840824 0.219558 400 21457620 60 13 25 1229
0.30483937 -1.2393793 0.21917397 375 21457620 63 14 75 1295
0.50706118 -1.7779025 0.30013514 345 21457620 121 15 37 1873
0.20232479 -1.1966923 0.18701935 666 21457620 100 16 1 1228
0.25874549 -1.2502865 0.18421417 489 21457620 81 17 29 1290
0.30373555 -1.2377787 0.17159444 380 21457620 63 18 85 1286
0.52330285 -1.8391094 0.23908114 314 21457620 117 19 61 1927
0.21241413 -1.2565012 0.14891015 228 21457620 37 20 53 1283
0.26900253 -1.3008791 0.14229341 442 21457620 79 21 35 1336
0.43962058 -1.79519 0.18021148 310 21457620 107 22 83 1857
0.53794551 -1.8944632 0.17364745 280 21457620 109 23 122 1977
0.21044554 -1.2463121 0.10120692 256 21457620 41 24 35 1268
0.27295938 -1.3217591 0.095157869 408 21457620 75 25 52 1353
0.47239706 -1.9293242 0.12103593 283 21457620 112 26 128 1990
0.5496248 -1.939974 0.10380119 291 21457620 119 27 78 2019
0.21594867 -1.282721 0.056542717 286 21457620 48 28 37 1302
0.41265428 -2.0017352 0.069264889 293 21457620 122 29 27 2045
0.49286026 -2.0211425 0.051315386 268 21457620 116 30 63 2081
0.56890571 -2.0108387 0.03122348 323 21457620 141 31 83 2090
0.25093174 -1.490995 0.010555666 156 21457620 36 32 69 1512
0.42283753 -2.0549414 -0.0053094607 304 21457620 134 33 74 2098
0.50740808 -2.0819058 -0.02558264 286 21457620 131 34 101 2143
0.57460016 -2.0359843 -0.045384929 314 21457620 141 35 84 2116
0.35744953 -2.1302667 -0.064146452 313 21457620 146 36 121 2161
0.42984006 -2.0967579 -0.083720967 307 21457620 141 37 65 2142
0.51140332 -2.1021254 -0.10531774 330 21457620 155 38 120 2166
0.59467816 -2.106986 -0.12734604 346 21457620 167 39 65 2193
0.36205441 -2.1681428 -0.14588632 384 21457620 186 40 110 2203
0.44317517 -2.1668038 -0.16757669 357 21457620 176 41 101 2218
0.52227116 -2.149411 -0.18885347 352 21457620 173 42 152 2220
0.61185455 -2.1723385 -0.21417077 345 21457620 177 43 52 2267
0.36867994 -2.2125731 -0.23156229 371 21457620 189 44 115 2255
0.45390075 -2.2237909 -0.25570425 363 21457620 190 45 71 2284
0.54350156 -2.2419004 -0.28189576 377 21457620 204 46 102 2324
0.60986006 -2.1672866 -0.29728952 365 21457620 188 47 113 2271
0.37831458 -2.2821848 -0.32466426 406 21457620 222 48 92 2336
0.46693325 -2.2927458 -0.35106477 346 21457620 193 49 48 2366
0.54763913 -2.2641442 -0.37232247 394 21457620 219 50 54 2359
0.62829012 -2.2351758 -0.39403719 375 21457620 208 51 65 2355
0.3828828 -2.3225548 -0.41954836 387 21457620 221 52 88 2391
0.47286153 -2.3278797 -0.44639328 372 21457620 218 53 69 2417
0.56130958 -2.3238578 -0.47284842 384 21457620 228 54 85 2437
0.65334475 -2.3241532 -0.50260192 420 21457620 256 55 82 2466
0.39795756 -2.4224269 -0.5325619 384 21457620 242 56 93 2512
0.48931885 -2.4153807 -0.55877781 372 21457620 237 57 50 2527
0.57595766 -2.3865092 -0.58170104 392 21457620 250 58 59 2523
0.66993129 -2.3839555 -0.61282176 442 21457620 288 59 70 2551
0.40596837 -2.4893844 -0.64728034 407 21457620 276 60 42 2604
0.49578297 -2.4578686 -0.6686601 376 21457620 253 61 39 2595
0.5913946 -2.4525375 -0.69945395 375 21457620 257 62 56 2618
0.69168603 -2.4574172 -0.73642403 414 21457620 293 63 66 2657
0.1762123 -1.0883663 0.34414157 309 21555590 41 0 40 1155
0.21579742 -1.0722944 0.32829937 368 21555590 48 1 51 1142
0.28091776 -1.167352 0.34767029 137 21555590 21 2 22 1250
0.32893604 -1.1711148 0.33979437 235 21555590 37 3 20 1263
0.1917672 -1.1806524 0.32312003 408 21555590 63 4 33 1239
0.23419064 -1.1663209 0.30869299 399 21555590 60 5 1 1229
0.29058573 -1.2095687 0.30988336 126 21555590 21 6 80 1282
0.3136768 -1.1211454 0.27829638 427 21555590 61 7 46 1197
0.19661213 -1.2090143 0.2822718 478 21555590 76 8 11 1257
0.24252839 -1.2054466 0.27048054 466 21555590 74 9 16 1259
0.2830655 -1.1810788 0.2549668 473 21555590 73 10 35 1241
0.32921246 -1.1806427 0.24536054 476 21555590 74 11 22 1250
0.19802679 -1.2165072 0.23647591 441 21555590 69 12 41 1255
0.24502796 -1.2202932 0.22598931 413 21555590 66 13 33 1265
0.29722893 -1.2412264 0.21917397 347 21555590 58 14 82 1295
0.48978519 -1.7581594 0.29628929 335 21555590 114 15 50 1849
0.19116758 -1.1744994 0.18336426 558 21555590 81 16 1 1204
0.25340453 -1.2634956 0.18592779 459 21555590 78 17 22 1302
0.30718824 -1.285888 0.17799923 404 21555590 72 18 65 1334
0.50882006 -1.8308133 0.23759231 314 21555590 115 19 76 1915
0.20278579 -1.2460167 0.14751737 314 21555590 51 20 43 1271
0.26101542 -1.3025051 0.14229341 402 21555590 72 21 34 1336
0.38705307 -1.6235867 0.16274349 355 21555590 100 22 108 1677
0.52631116 -1.8977283 0.17364745 308 21555590 120 23 136 1977
0.21047111 -1.294807 0.10503811 276 21555590 48 24 44 1316
0.26249516 -1.3116716 0.094313897 417 21555590 75 25 35 1341
0.45499569 -1.9088837 0.11957619 301 21555590 116 26 114 1966
0.54090691 -1.9548601 0.10441814 324 21555590 134 27 81 2031
0.20232077 -1.2485189 0.054979321 286 21555590 46 28 45 1266
0.36982286 -1.8513397 0.063981116 316 21555590 113 29 20 1889
0.47767898 -2.0124564 0.051019475 271 21555590 116 30 28 2069
0.55655676 -2.0142915 0.03122348 327 21555590 143 31 64 2090
0.2206708 -1.3622085 0.0096341399 162 21555590 31 32 77 1380
0.41022068 -2.0574973 -0.0053094607 311 21555590 137 33 71 2098
0.48077565 -2.0266047 -0.024866374 288 21555590 125 34 93 2083
0.57165986 -2.0741696 -0.046157073 349 21555590 162 35 71 2152
0.34437174 -2.1324198 -0.064146452 321 21555590 150 36 124 2161
0.4169665 -2.0993557 -0.083720967 324 21555590 149 37 65 2142
0.50678051 -2.1402137 -0.10706817 328 21555590 159 38 121 2202
0.58173877 -2.1105952 -0.12734604 329 21555590 158 39 81 2193
0.35064378 -2.1821456 -0.14668098 412 21555590 202 40 93 2215
0.43452299 -2.1929572 -0.16938995 343 21555590 172 41 93 2242
0.5035693 -2.1293039 -0.18681182 342 21555590 165 42 132 2196
0.5890094 -2.1414962 -0.21076973 340 21555590 169 43 56 2231
0.3588762 -2.2383657 -0.2340268 355 21555590 184 44 115 2279
0.4402473 -2.2265341 -0.25570425 342 21555590 179 45 64 2284
0.52426475 -2.222007 -0.27898464 344 21555590 182 46 97 2300
0.60600692 -2.2054024 -0.30200216 339 21555590 180 47 133 2307
0.36617565 -2.2961984 -0.32633203 380 21555590 210 48 81 2348
0.45515323 -2.3072104 -0.35284531 318 21555590 180 49 68 2378
0.53102118 -2.2559276 -0.37042847 352 21555590 194 50 68 2347
0.62708968 -2.2846246 -0.40206856 372 21555590 215 51 61 2403
0.37232482 -2.3481967 -0.42375967 393 21555590 229 52 106 2415
0.46084577 -2.3423092 -0.44860956 353 21555590 208 53 97 2429
0.54973382 -2.3387179 -0.47517678 350 21555590 210 54 78 2449
0.63285202 -2.3054602 -0.49771047 418 21555590 249 55 47 2442
0.38125628 -2.4132395 -0.53001779 390 21555590 244 56 105 2500
0.47674233 -2.4298215 -0.56143129 369 21555590 238 57 61 2539
0.5586338 -2.3786309 -0.57893431 373 21555590 235 58 64 2511
0.65837353 -2.3992546 -0.61570454 435 21555590 286 59 82 2563
0.39248654 -2.5033116 -0.65026319 409 21555590 280 60 51 2616
0.48291531 -2.4722443 -0.67175215 392 21555590 266 61 45 2607
0.57633501 -2.4561203 -0.69945395 383 21555590 263 62 68 2618
0.68270618 -2.4838502 -0.74307603 401 21555590 288 63 52 2681
0.16776951 -1.0781082 0.34056604 316 21653390 41 0 42 1143
0.21141227 -1.0848795 0.33174908 314 21653390 42 1 45 1154
0.28688973 -1.2251683 0.36435845 87 21653390 15 2 30 1310
0.31257319 -1.1396734 0.33010903 330 21653390 50 3 27 1227
0.18094502 -1.1589146 0.31686103 423 21653390 62 4 31 1215
0.22924654 -1.1791377 0.31170708 438 21653390 67 5 1 1241
0.28315848 -1.2113289 0.30988336 198 21653390 33 6 71 1282
0.31294292 -1.1455663 0.28387627 428 21653390 64 7 46 1221
0.18919006 -1.2101979 0.2822718 495 21653390 78 8 39 1257
0.23736843 -1.2184155 0.27305859 445 21653390 72 9 19 1271
0.28648126 -1.228542 0.2648285 470 21653390 78 10 54 1289
0.32505283 -1.193994 0.24771601 502 21653390 80 11 12 1262
0.19238079 -1.2293427 0.23873703 434 21653390 70 12 54 1267
0.24204236 -1.2449535 0.23027685 454 21653390 75 13 41 1289
0.28960732 -1.2430267 0.21917397 373 21653390 63 14 66 1295
0.45722771 -1.6811235 0.28282887 343 21653390 107 15 66 1765
0.19862509 -1.2693897 0.19798467 330 21653390 56 16 1 1300
0.2456471 -1.2650267 0.18592779 484 21653390 82 17 25 1302
0.29390782 -1.2645807 0.17479683 409 21653390 70 18 71 1310
0.50693071 -1.8683764 0.2420588 292 21653390 111 19 62 1951
0.19513656 -1.2472376 0.14751737 282 21653390 46 20 36 1271
0.24165536 -1.2455156 0.13590297 422 21653390 69 21 58 1276
0.30423027 -1.3117976 0.13130111 293 21653390 54 22 69 1353
0.52090472 -1.9239985 0.17575547 301 21653390 121 23 96 2001
0.19698223 -1.2606192 0.10216472 284 21653390 47 24 26 1280
0.25444195 -1.3132576 0.094313897 516 21653390 93 25 43 1341
0.46221396 -1.993317 0.12468525 323 21653390 136 26 106 2050
0.52577692 -1.9465727 0.10380119 290 21653390 118 27 83 2019
0.18912095 -1.2141993 0.053415928 250 21653390 38 28 19 1230
0.29925123 -1.5474252 0.053413562 235 21653390 58 29 28 1577
0.46532178 -2.0153496 0.051019475 269 21653390 115 30 37 2069
0.53793776 -1.994499 0.03086493 325 21653390 139 31 68 2066
0.21415445 -1.3753936 0.0097179152 202 21653390 39 32 65 1392
0.3975884 -2.0599756 -0.0053094607 286 21653390 126 33 69 2098
0.47372761 -2.0529001 -0.025152879 295 21653390 131 34 83 2107
0.55268884 -2.0544672 -0.045642305 323 21653390 146 35 64 2128
0.33128098 -2.1344926 -0.064146452 308 21653390 144 36 147 2161
0.40634096 -2.1136498 -0.084189989 313 21653390 145 37 63 2154
0.49094874 -2.1316028 -0.1064847 333 21653390 160 38 124 2190
0.57188976 -2.1256936 -0.12804288 327 21653390 159 39 84 2205
0.33359367 -2.1605892 -0.14509167 369 21653390 177 40 91 2191
0.41880542 -2.1838305 -0.1684833 328 21653390 163 41 79 2230
0.49585527 -2.1556582 -0.18885347 337 21653390 166 42 136 2220
0.57276094 -2.133532 -0.20963603 353 21653390 174 43 77 2219
0.34695238 -2.2523229 -0.23525907 378 21653390 199 44 102 2291
0.42881843 -2.2409055 -0.25704768 367 21653390 193 45 53 2296
0.51594907 -2.2484012 -0.28189576 361 21653390 195 46 95 2324
0.58938169 -2.1975887 -0.30043128 351 21653390 185 47 110 2295
0.3502802 -2.2866557 -0.32466426 375 21653390 205 48 93 2336
0.43876258 -2.2983031 -0.35106477 338 21653390 189 49 61 2366
0.52510184 -2.2937956 -0.37611037 397 21653390 225 50 47 2383
0.60387528 -2.2541456 -0.39604506 368 21653390 206 51 75 2367
0.35968795 -2.3621161 -0.42586526 389 21653390 229 52 92 2427
0.44867063 -2.3566782 -0.45082584 360 21653390 215 53 108 2441
0.53799665 -2.353523 -0.47750515 367 21653390 222 54 84 2461
0.62477458 -2.3319957 -0.50260192 396 21653390 241 55 60 2466
0.36995962 -2.4387226 -0.535106 380 21653390 242 56 118 2524
0.45745882 -2.4097059 -0.55612433 385 21653390 243 57 56 2515
0.54662812 -2.3933973 -0.58170104 383 21653390 244 58 58 2523
0.63761246 -2.3807449 -0.60993898 438 21653390 283 59 86 2539
0.37538922 -2.4941788 -0.64728034 394 21653390 267 60 46 2604
0.46988982 -2.4865539 -0.67484426 387 21653390 265 61 38 2619
0.56897146 -2.4934323 -0.70907211 409 21653390 288 62 65 2654
0.65849024 -2.4545844 -0.73309815 390 21653390 273 63 71 2645
0.15945934 -1.067788 0.33699057 269 21750250 34 0 41 1131
0.20900987 -1.1087453 0.33864856 317 21750250 44 1 52 1178
0.2665714 -1.1707114 0.34767029 104 21750250 16 2 35 1250
0.29362038 -1.0969117 0.31719521 397 21750250 55 3 38 1179
0.17039697 -1.1370895 0.31060207 411 21750250 58 4 37 1191
0.21556701 -1.1462766 0.30266479 427 21750250 62 5 1 1205
0.27830142 -1.224398 0.31278396 236 21750250 40 6 76 1294
0.29989502 -1.1249104 0.27829638 416 21750250 60 7 64 1197
0.18176086 -1.211336 0.2822718 379 21750250 60 8 11 1257
0.225547 -1.196815 0.26790252 394 21750250 61 9 9 1247
0.27374411 -1.2073702 0.25989768 487 21750250 78 10 44 1265
0.31167826 -1.1732217 0.24300508 437 21750250 67 11 19 1238
0.18658465 -1.2421542 0.24099815 474 21750250 77 12 46 1279
0.23003463 -1.2232082 0.22598931 475 21750250 76 13 30 1265
0.27674899 -1.221711 0.21511205 393 21750250 63 14 91 1271
0.36486605 -1.3747853 0.23091015 289 21750250 60 15 73 1441
0.18202485 -1.2119422 0.1888469 315 21750250 48 16 5 1240
0.23788042 -1.2665101 0.18592779 479 21750250 81 17 26 1302
0.27827948 -1.2315595 0.16999327 430 21750250 70 18 79 1274
0.48022002 -1.813898 0.23461466 320 21750250 115 19 72 1891
0.18747997 -1.2484114 0.14751737 281 21750250 45 20 39 1271
0.23400848 -1.2469749 0.13590297 626 21750250 102 21 30 1276
0.29092184 -1.2903379 0.12897204 382 21750250 68 22 78 1329
0.49993047 -1.8924869 0.17259344 298 21750250 115 23 117 1965
0.18214689 -1.2144865 0.098333545 237 21750250 36 24 43 1232
0.23756023 -1.2677321 0.090938017 659 21750250 110 25 14 1293
0.4315365 -1.9143234 0.11957619 301 21750250 116 26 125 1966
0.51382309 -1.9497621 0.10380119 297 21750250 121 27 97 2019
0.17103304 -1.1441953 0.050289147 189 21750250 25 28 45 1158
0.2544736 -1.3606131 0.046910454 356 21750250 68 29 1 1385
0.45557413 -2.0298719 0.051315386 262 21750250 113 30 48 2081
0.52263623 -1.9861587 0.030685658 354 21750250 150 31 67 2054
0.19507092 -1.305474 0.0092152636 246 21750250 43 32 31 1320
0.39154643 -2.0977652 -0.0054005668 291 21750250 133 33 63 2134
0.46637478 -2.0791845 -0.025439385 287 21750250 131 34 61 2131
0.55225456 -2.1042368 -0.046671834 318 21750250 151 35 81 2176
0.27224001 -1.8280247 -0.054885145 170 21750250 58 36 138 1849
0.39774713 -2.1396811 -0.085128047 310 21750250 147 37 57 2178
0.47786021 -2.1345751 -0.1064847 319 21750250 153 38 136 2190
0.55275339 -2.1059878 -0.1266492 334 21750250 159 39 86 2181
0.3238391 -2.1862843 -0.14668098 357 21750250 175 40 99 2215
0.4032163 -2.1745942 -0.16757669 330 21750250 162 41 102 2218
0.48261908 -2.1586602 -0.18885347 383 21750250 189 42 133 2220
0.56571209 -2.1601195 -0.21190339 348 21750250 175 43 54 2243
0.33487076 -2.2662179 -0.23649134 379 21750250 201 44 108 2303
0.41289115 -2.2317691 -0.25570425 342 21750250 179 45 69 2284
0.49695781 -2.2282732 -0.27898464 366 21750250 194 46 80 2300
0.57588643 -2.2011635 -0.30043128 337 21750250 178 47 106 2295
0.3379702 -2.300519 -0.32633203 388 21750250 214 48 88 2348
0.43111351 -2.3359625 -0.35640642 322 21750250 186 49 60 2402
0.50587082 -2.2738409 -0.37232247 367 21750250 204 50 44 2359
0.59601527 -2.2807014 -0.40006071 375 21750250 215 51 63 2391
0.34518752 -2.3642786 -0.42586526 395 21750250 233 52 103 2427
0.43847096 -2.3825846 -0.45525837 356 21750250 217 53 78 2465
0.52099276 -2.3452878 -0.47517678 358 21750250 215 54 85 2449
0.6134246 -2.3471518 -0.50504774 384 21750250 236 55 67 2478
0.35667667 -2.4525518 -0.53765005 358 21750250 230 56 111 2536
0.44266456 -2.4124675 -0.55612433 354 21750250 224 57 64 2515
0.52940226 -2.3853071 -0.57893431 387 21750250 244 58 61 2511
0.62888139 -2.4071531 -0.61570454 449 21750250 295 59 73 2563
0.36505619 -2.5309482 -0.6562289 399 21750250 278 60 52 2640
0.45462376 -2.4893904 -0.67484426 384 21750250 263 61 38 2619
0.54615122 -2.4630077 -0.69945395 369 21750250 253 62 66 2618
0.64341682 -2.4585786 -0.73309815 395 21750250 276 63 50 2645
0.15939382 -1.1141043 0.35129255 153 21847870 21 0 51 1179
0.21456152 -1.1778511 0.35934693 256 21847870 40 1 48 1250
0.26187313 -1.1835793 0.35100794 121 21847870 19 2 37 1262
0.28980428 -1.1098754 0.32042369 395 21847870 56 3 18 1191
0.16506322 -1.1495807 0.31373155 411 21847870 59 4 40 1203
0.22098938 -1.2161467 0.32074934 437 21847870 71 5 1 1277
0.26576117 -1.2033423 0.30698273 323 21847870 52 6 87 1270
0.29298705 -1.1267292 0.27829638 353 21847870 51 7 56 1197
0.17598902 -1.2240028 0.28496653 421 21847870 68 8 45 1269
0.21399972 -1.1751159 0.26274639 446 21847870 67 9 28 1223
0.26127777 -1.1860889 0.2549668 483 21847870 74 10 30 1241
0.3074249 -1.1865025 0.24536054 447 21847870 70 11 23 1250
0.17224321 -1.1966164 0.23195365 569 21847870 86 12 59 1231
0.22252484 -1.2245966 0.22598931 465 21847870 74 13 34 1265
0.27433166 -1.2464871 0.21917397 412 21847870 69 14 80 1295
0.32377413 -1.2508608 0.20975806 298 21847870 51 15 38 1309
0.17120603 -1.1895581 0.18519181 338 21847870 50 16 22 1216
0.23010479 -1.2679459 0.18592779 460 21847870 78 17 50 1302
0.27071756 -1.2332438 0.16999327 431 21847870 70 18 91 1274
0.43931392 -1.7015183 0.21972635 359 21847870 113 19 76 1771
0.18490949 -1.2849303 0.15169568 285 21847870 49 20 48 1307
0.21996665 -1.2131664 0.13206872 614 21847870 94 21 17 1240
0.27788842 -1.2687651 0.12664297 413 21847870 70 22 77 1305
0.4823449 -1.8723674 0.17048544 312 21847870 118 23 122 1941
0.15427302 -1.0735003 0.086840011 149 21847870 18 24 58 1088
0.23190959 -1.2809446 0.091781981 320 21847870 54 25 27 1305
0.39415976 -1.79993 0.11227755 323 21847870 110 26 125 1846
0.50184989 -1.9528782 0.10380119 282 21847870 115 27 94 2019
0.14871298 -1.0384148 0.045598965 185 21847870 20 28 49 1050
0.24398777 -1.3503468 0.046504006 357 21847870 67 29 1 1373
0.44822085 -2.0560713 0.0519072 290 21847870 128 30 32 2105
0.51640379 -2.0125723 0.031044204 321 21847870 139 31 58 2078
0.19215856 -1.3422823 0.0094665894 237 21847870 44 32 73 1356
0.36802071 -2.0410805 -0.0052487236 297 21847870 128 33 52 2074
0.45616275 -2.0937312 -0.02558264 291 21847870 134 34 88 2143
0.52446151 -2.0494723 -0.045384929 335 21847870 150 35 73 2116
0.20003407 -1.4021791 -0.042061791 196 21847870 39 36 102 1417
0.3846108 -2.1420815 -0.085128047 268 21847870 127 37 60 2178
0.4698469 -2.1608913 -0.10765164 321 21847870 157 38 135 2214
0.54279101 -2.1209457 -0.12734604 332 21847870 160 39 74 2193
0.31209993 -2.2000849 -0.14747563 362 21847870 180 40 96 2227
0.39197493 -2.1888053 -0.1684833 344 21847870 171 41 97 2230
0.4642905 -2.1382124 -0.18681182 330 21847870 159 42 137 2196
0.5524472 -2.1635499 -0.21190339 394 21847870 198 43 73 2243
0.32263157 -2.2800486 -0.23772359 379 21847870 203 44 107 2315
0.40338412 -2.2577376 -0.25839114 381 21847870 203 45 62 2308
0.48327604 -2.2312806 -0.27898464 377 21847870 200 46 109 2300
0.57119101 -2.2392385 -0.30514392 349 21847870 190 47 124 2331
0.32550323 -2.3143172 -0.32799986 381 21847870 212 48 70 2360
0.41260791 -2.3151975 -0.35284531 337 21847870 190 49 50 2378
