# .PCD v0.7 - Point Cloud Data file format
VERSION 0.7
FIELDS x y z intensity t reflectivity ring noise range
SIZE 4 4 4 4 4 2 1 2 4
TYPE F F F F U U U U U
COUNT 1 1 1 1 1 1 1 1 1
WIDTH 768
HEIGHT 1
VIEWPOINT 0 0 0 1 0 0 0
POINTS 768
DATA ascii
0.89925027 -1.8478016 -0.23152205 357 17494870 153 45 63 2068
0.96127206 -1.8047494 -0.24987319 382 17494870 162 46 103 2060
1.0644708 -1.8340715 -0.28000981 285 17494870 130 47 118 2139
0.81929189 -1.8552754 -0.28463715 381 17494870 160 48 92 2048
0.89325494 -1.8375195 -0.30655104 364 17494870 156 49 60 2066
0.97157604 -1.8263987 -0.33065516 304 17494870 134 50 67 2095
1.0402572 -1.7935051 -0.35187274 332 17494870 147 51 72 2103
0.79657048 -1.8081768 -0.35216796 414 17494870 167 52 91 2007
0.88292742 -1.8186151 -0.37990525 380 17494870 161 53 87 2057
0.97292781 -1.8303264 -0.4099831 409 17494870 183 54 111 2113
1.0109109 -1.7428391 -0.41944641 39 17494870 17 55 58 2058
0.79484391 -1.8069923 -0.42825437 440 17494870 180 56 99 2020
0.88115519 -1.8173862 -0.45794573 375 17494870 161 57 57 2071
0.90535444 -1.7039928 -0.45719904 73 17494870 29 58 59 1983
1.0202144 -1.7592325 -0.50327778 216 17494870 95 59 79 2095
0.7934894 -1.8096517 -0.50708604 413 17494870 172 60 16 2040
0.86476946 -1.7874033 -0.52951694 263 17494870 111 61 50 2055
0.92836654 -1.7481145 -0.54876947 396 17494870 167 62 45 2054
1.0327342 -1.7791034 -0.59340757 378 17494870 173 63 39 2141
0.83156538 -1.9024049 0.64805883 404 17592450 191 0 87 2175
0.89601195 -1.8540884 0.61807674 377 17592450 174 1 92 2150
1.0001866 -1.8854613 0.61801875 336 17592450 166 2 64 2222
1.0274684 -1.77228 0.5722428 411 17592450 186 3 60 2127
0.81408972 -1.8598595 0.54844344 397 17592450 176 4 75 2103
0.9110058 -1.8872161 0.54379195 446 17592450 209 5 62 2165
1.0023942 -1.8913769 0.53323144 421 17592450 205 6 97 2206
1.0620521 -1.8362148 0.50707132 446 17592450 212 7 93 2181
0.83382177 -1.903944 0.47898629 356 17592450 162 8 84 2133
0.9020862 -1.8669072 0.45610026 385 17592450 174 9 97 2123
0.9911868 -1.872678 0.44480512 423 17592450 199 10 66 2165
1.0598023 -1.8360199 0.42437562 454 17592450 212 11 44 2162
0.81621414 -1.8629425 0.39023232 394 17592450 169 12 80 2071
0.9157719 -1.8970895 0.38248464 410 17592450 188 13 53 2141
0.97846252 -1.8494965 0.35930991 404 17592450 182 14 98 2123
1.0659167 -1.8476551 0.34628507 404 17592450 189 15 65 2161
0.80590624 -1.8395028 0.30946526 376 17592450 155 16 18 2032
0.88507724 -1.8345664 0.29388586 373 17592450 158 17 80 2058
0.98984522 -1.8734637 0.2852791 359 17592450 164 18 79 2138
1.067421 -1.8528768 0.26736891 358 17592450 166 19 86 2155
0.56396323 -1.2873224 0.1642306 372 17592450 74 20 39 1415
0.89318514 -1.8521155 0.22025655 359 17592450 154 21 96 2068
0.96298087 -1.8246992 0.2011731 366 17592450 157 22 80 2073
1.0596392 -1.8416717 0.18734953 370 17592450 168 23 139 2133
0.81882513 -1.870056 0.16346355 335 17592450 140 24 54 2048
0.89255226 -1.8520423 0.14495224 320 17592450 136 25 75 2061
0.98292863 -1.8626546 0.12833457 345 17592450 153 26 128 2110
1.0582625 -1.8418067 0.10935371 347 17592450 157 27 84 2127
0.80934781 -1.8508726 0.087810576 377 17592450 154 28 28 2022
0.90227842 -1.8738962 0.070484228 314 17592450 136 29 35 2081
0.99154258 -1.8832761 0.052499022 302 17592450 137 30 49 2129
1.052398 -1.833155 0.031582024 369 17592450 165 31 70 2114
0.82201308 -1.8801047 0.014325546 319 17592450 134 32 63 2052
0.89386976 -1.8581748 -0.0052183545 346 17592450 147 33 59 2062
0.98688602 -1.8749875 -0.025296133 318 17592450 143 34 98 2119
1.0580503 -1.8457601 -0.045642305 355 17592450 161 35 103 2128
0.82595205 -1.8916318 -0.061296821 344 17592450 147 36 108 2065
0.89009827 -1.8538121 -0.080437794 377 17592450 160 37 54 2058
0.96780509 -1.8406056 -0.10123339 341 17592450 148 38 143 2082
1.0351908 -1.805809 -0.12107455 382 17592450 166 39 75 2085
0.80149704 -1.8395623 -0.13317177 389 17592450 157 40 68 2011
0.87359518 -1.821559 -0.15307048 362 17592450 149 41 90 2026
0.96214533 -1.8310828 -0.17660353 405 17592450 174 42 140 2076
1.0323176 -1.8030573 -0.19716558 394 17592450 172 43 69 2087
0.80948973 -1.8596792 -0.2093816 415 17592450 173 44 68 2039
0.88789546 -1.8532845 -0.23152205 349 17592450 149 45 51 2068
0.97232032 -1.8528025 -0.25569546 368 17592450 164 46 111 2108
1.0472885 -1.8302425 -0.27843893 232 17592450 105 47 141 2127
0.78422397 -1.8057675 -0.27629817 379 17592450 150 48 41 1988
0.88708609 -1.8536705 -0.30833161 358 17592450 155 49 60 2078
0.94934958 -1.8113351 -0.32686722 329 17592450 141 50 58 2071
1.005741 -1.7587732 -0.34384137 445 17592450 188 51 67 2055
0.79485333 -1.8347107 -0.35637924 420 17592450 173 52 63 2031
0.86666638 -1.8133576 -0.37768897 397 17592450 166 53 91 2045
0.93983281 -1.7945483 -0.40066969 372 17592450 159 54 86 2065
1.0293583 -1.8000007 -0.43167514 46 17592450 21 55 63 2118
0.78374147 -1.8118354 -0.42825437 427 17592450 174 56 101 2020
0.85990542 -1.8016355 -0.4526388 403 17592450 169 57 62 2047
0.9057126 -1.7302061 -0.46273249 143 17592450 58 58 67 2007
0.95736492 -1.6744477 -0.47733316 89 17592450 35 59 67 1987
0.77776843 -1.8038129 -0.50410312 439 17592450 181 60 11 2028
0.8687427 -1.8240805 -0.53879315 175 17592450 76 61 33 2091
0.92834479 -1.7742699 -0.55518156 406 17592450 175 62 65 2078
1.0160713 -1.7753998 -0.59008163 390 17592450 177 63 53 2129
0.82440019 -1.9179953 0.65163428 455 17691060 218 0 72 2187
0.8944934 -1.8803091 0.62497616 405 17691060 192 1 107 2174
0.97258186 -1.8609164 0.60800582 328 17691060 157 2 52 2186
1.0223099 -1.7885852 0.57547122 468 17691060 214 3 60 2139
0.81182265 -1.8861015 0.5547024 405 17691060 183 4 70 2127
0.88943845 -1.871788 0.53776377 394 17691060 180 5 52 2141
0.97460157 -1.8665264 0.52452952 419 17691060 197 6 108 2170
1.0449841 -1.8325584 0.5042814 451 17691060 212 7 85 2169
0.81287342 -1.8875446 0.47359687 378 17691060 168 8 73 2109
0.88558 -1.8618236 0.45352221 370 17691060 165 9 71 2111
0.97967756 -1.8787246 0.44480512 401 17691060 188 10 71 2165
1.0485168 -1.8424882 0.42437562 420 17691060 196 11 52 2162
0.80476797 -1.8679156 0.39023232 392 17691060 168 12 92 2071
0.87877721 -1.8493519 0.37176579 364 17691060 158 13 64 2081
0.95616305 -1.8344898 0.355248 378 17691060 167 14 2135 2099
1.0487037 -1.8438647 0.3443622 407 17691060 188 15 61 2149
0.79929668 -1.8553054 0.31129283 396 17691060 165 16 16 2044
0.88908911 -1.8721485 0.29902673 370 17691060 162 17 83 2094
0.96185791 -1.8478546 0.28047553 378 17691060 167 18 81 2102
1.0677928 -1.8800992 0.27034655 375 17691060 178 19 91 2179
0.5749163 -1.3345441 0.16980167 344 17691060 74 20 21 1463
0.87668705 -1.8467821 0.21897845 341 17691060 144 21 88 2056
0.97931409 -1.8835568 0.20699576 350 17691060 159 22 65 2133
1.0424212 -1.8377414 0.18629552 383 17691060 172 23 136 2121
0.78841329 -1.8310986 0.15963237 363 17691060 145 24 39 2000
0.89143264 -1.879114 0.14664018 347 17691060 151 25 68 2085
0.97148108 -1.8686507 0.12833457 330 17691060 147 26 122 2110
1.0469415 -1.8482653 0.10935371 323 17691060 146 27 112 2127
0.80744731 -1.8778312 0.088852838 408 17691060 171 28 38 2046
0.88562679 -1.8685597 0.070077777 294 17691060 126 29 25 2069
0.97444475 -1.8786755 0.052203111 315 17691060 141 30 46 2117
1.0234004 -1.8082511 0.031044204 352 17691060 152 31 61 2078
0.805722 -1.8740891 0.014241773 343 17691060 143 32 47 2040
0.88245142 -1.8636246 -0.0052183545 330 17691060 140 33 34 2062
0.95326859 -1.8383986 -0.02472312 317 17691060 136 34 93 2071
1.0349001 -1.8313278 -0.045127545 342 17691060 151 35 75 2104
0.80959755 -1.8856425 -0.06094062 337 17691060 142 36 118 2053
0.87870675 -1.8592387 -0.080437794 320 17691060 135 37 53 2058
0.96200609 -1.8571521 -0.10181687 379 17691060 166 38 125 2094
1.0240911 -1.8121268 -0.12107455 371 17691060 161 39 78 2085
0.78547931 -1.8334394 -0.13237709 395 17691060 158 40 63 1999
0.8777259 -1.8593469 -0.15579039 351 17691060 149 41 73 2062
0.95638829 -1.8475701 -0.17762434 362 17691060 158 42 145 2088
1.0153629 -1.7989539 -0.1960319 385 17691060 166 43 67 2075
0.79336697 -1.8536376 -0.20814934 411 17691060 169 44 56 2027
0.87650722 -1.8586977 -0.23152205 365 17691060 156 45 72 2068
0.94999301 -1.8375717 -0.25278434 366 17691060 159 46 92 2084
1.0418838 -1.8469961 -0.28000981 159 17691060 73 47 136 2139
0.77779597 -1.8214742 -0.27796596 399 17691060 159 48 56 2000
0.87063849 -1.8483428 -0.30655104 331 17691060 141 49 61 2066
0.94365388 -1.8276551 -0.32876122 368 17691060 159 50 53 2083
1.0123599 -1.7958294 -0.3498649 344 17691060 151 51 65 2091
0.78358078 -1.8395534 -0.35637924 420 17691060 173 52 65 2031
0.85050327 -1.8079695 -0.37547269 390 17691060 161 53 92 2033
0.93959874 -1.8212044 -0.40532637 377 17691060 165 54 93 2089
0.95483124 -1.69371 -0.40477189 32 17691060 12 55 48 1986
0.77719927 -1.827402 -0.43079847 405 17691060 167 56 84 2032
0.84385854 -1.7962854 -0.4499853 391 17691060 162 57 51 2035
0.88437563 -1.7149746 -0.45719904 190 17691060 75 58 48 1983
1.0157081 -1.8020627 -0.511926 84 17691060 38 59 69 2131
0.77122241 -1.8192527 -0.50708604 426 17691060 177 60 19 2040
0.83292758 -1.7768837 -0.52333283 389 17691060 160 61 30 2031
0.92803657 -1.8004901 -0.56159365 372 17691060 165 62 61 2102
0.99382746 -1.7615169 -0.58342963 381 17691060 169 63 48 2105
0.82153374 -1.9441209 0.65878528 271 17788230 133 0 67 2211
0.87319201 -1.8649443 0.61807674 410 17788230 190 1 83 2150
0.99280232 -1.9283372 0.62803161 298 17788230 152 2 58 2258
1.0169896 -1.8048934 0.57869965 534 17788230 247 3 82 2151
0.8002345 -1.8910471 0.5547024 416 17788230 188 4 81 2127
0.88285738 -1.8877319 0.54077786 401 17788230 186 5 58 2153
0.96845657 -1.8828261 0.52743018 391 17788230 186 6 93 2182
1.028001 -1.8287618 0.50149143 506 17788230 236 7 61 2157
0.80127633 -1.8924968 0.47359687 370 17788230 164 8 52 2109
0.86917037 -1.8566083 0.45094419 390 17788230 172 9 91 2099
0.9627654 -1.874254 0.44233966 438 17788230 203 10 59 2153
1.0314348 -1.838625 0.42202014 393 17788230 181 11 49 2150
0.7978881 -1.8836701 0.39249349 405 17788230 176 12 83 2083
0.87241518 -1.8654042 0.37390959 378 17788230 165 13 53 2093
0.95569265 -1.8613644 0.35930991 394 17788230 178 14 115 2123
1.0141995 -1.8089372 0.33667052 412 17788230 182 15 73 2101
0.78327203 -1.849254 0.30946526 407 17788230 168 16 31 2032
0.86752683 -1.8560493 0.29559949 367 17788230 157 17 58 2070
0.96678042 -1.8854696 0.2852791 356 17788230 163 18 81 2138
1.0504197 -1.8762258 0.26885772 381 17788230 179 19 103 2167
0.5481233 -1.2941462 0.1642306 362 17788230 72 20 57 1415
0.86533892 -1.8521266 0.21897845 373 17788230 158 21 74 2056
0.95140523 -1.8576396 0.20350215 351 17788230 155 22 74 2097
1.0311254 -1.844103 0.18629552 347 17788230 156 23 122 2121
0.7725001 -1.8248863 0.15867457 329 17788230 130 24 53 1988
0.87482178 -1.8737023 0.14579621 366 17788230 157 25 89 2073
0.94361788 -1.8425931 0.12614498 340 17788230 146 26 135 2074
1.035581 -1.8546544 0.10935371 329 17788230 149 27 105 2127
0.78190571 -1.8496227 0.087289445 380 17788230 153 28 29 2010
0.88428485 -1.8956963 0.070890673 300 17788230 131 29 39 2093
0.9465248 -1.8525709 0.051315386 297 17788230 128 30 52 2081
1.0181317 -1.824975 0.03122348 363 17788230 159 31 75 2090
0.78953582 -1.8679446 0.014157997 325 17788230 134 32 58 2028
0.87099981 -1.8690041 -0.0052183545 316 17788230 134 33 51 2062
0.95288652 -1.8655849 -0.025009625 318 17788230 140 34 96 2095
1.0178055 -1.8271625 -0.044870161 359 17788230 157 35 83 2092
0.78868324 -1.8684733 -0.060228206 314 17788230 129 36 112 2029
0.86222506 -1.853723 -0.079968765 361 17788230 151 37 54 2046
0.93969768 -1.8416673 -0.10064992 354 17788230 152 38 129 2070
1.0012929 -1.7974455 -0.11968089 361 17788230 154 39 75 2061
0.77421474 -1.8382244 -0.13237709 378 17788230 151 40 98 1999
0.86630064 -1.8646975 -0.15579039 342 17788230 145 41 95 2062
0.92874014 -1.8214483 -0.17456186 380 17788230 160 42 143 2052
1.0101136 -1.8155897 -0.19716558 372 17788230 162 43 88 2087
0.77734894 -1.8474684 -0.20691708 412 17788230 167 44 74 2015
0.86006606 -1.8532243 -0.23017858 357 17788230 151 45 55 2056
0.93329477 -1.8327518 -0.25132874 381 17788230 164 46 109 2072
1.0189683 -1.832559 -0.27686805 362 17788230 162 47 133 2115
0.77580434 -1.8481271 -0.28130159 384 17788230 157 48 81 2024
0.85428995 -1.8428837 -0.30477053 349 17788230 147 49 49 2054
0.91630703 -1.8017244 -0.32307932 385 17788230 161 50 46 2047
1.0013218 -1.8020073 -0.3498649 320 17788230 140 51 62 2091
0.76771581 -1.8334296 -0.35427359 436 17788230 178 52 65 2019
0.85921228 -1.8559633 -0.38433778 410 17788230 178 53 69 2081
0.92307335 -1.8164409 -0.40299803 386 17788230 167 54 85 2077
0.97295314 -1.7508823 -0.41700062 96 17788230 40 55 31 2046
0.76144844 -1.8213167 -0.42825437 395 17788230 161 56 73 2020
0.84264278 -1.8226748 -0.45529222 365 17788230 155 57 55 2059
0.8897 -1.7516009 -0.46549916 364 17788230 149 58 66 2019
0.98765993 -1.7777133 -0.50327778 128 17788230 56 59 58 2095
0.7511034 -1.8024923 -0.50112027 422 17788230 171 60 21 2016
0.83172268 -1.8030181 -0.52951694 400 17788230 169 61 32 2055
0.90650183 -1.7855285 -0.55518156 394 17788230 170 62 64 2078
0.97739655 -1.7575054 -0.58010375 395 17788230 173 63 55 2093
0.81398326 -1.9597037 0.66236073 148 17886470 73 0 83 2223
0.87135178 -1.8911444 0.62497616 421 17886470 199 1 102 2174
0.96531194 -1.9035521 0.61801875 312 17886470 154 2 70 2222
1.0058959 -1.8110995 0.57869965 589 17886470 273 3 65 2151
0.79306537 -1.9066181 0.55783188 407 17886470 186 4 76 2139
0.87125784 -1.8931135 0.54077786 373 17886470 173 5 42 2153
0.95162302 -1.8783457 0.52452952 406 17886470 191 6 109 2170
1.0167605 -1.8350351 0.50149143 544 17886470 253 7 93 2157
0.78515607 -1.8865818 0.47090214 401 17886470 177 8 70 2097
0.86266589 -1.8725508 0.45352221 384 17886470 171 9 102 2111
0.95124704 -1.8801261 0.44233966 369 17886470 171 10 57 2153
1.0372151 -1.8758107 0.42908654 410 17886470 196 11 46 2186
0.78631514 -1.8885304 0.39249349 423 17886470 184 12 100 2083
0.86095285 -1.8707222 0.37390959 385 17886470 169 13 58 2093
0.93357903 -1.8460853 0.355248 358 17886470 158 14 102 2099
1.0088102 -1.8254935 0.33859345 391 17886470 175 15 73 2113
0.73544228 -1.7664336 0.29484484 339 17886470 127 16 21 1936
0.86108494 -1.8721275 0.29731309 363 17886470 158 17 67 2082
0.9391095 -1.859519 0.28047553 340 17886470 150 18 78 2102
1.0216287 -1.8513598 0.26439124 362 17886470 164 19 95 2131
0.54017228 -1.297485 0.1642306 365 17886470 73 20 43 1415
0.81408465 -1.7706745 0.20875378 350 17886470 135 21 98 1960
0.94536811 -1.8741058 0.20466669 352 17886470 157 22 83 2109
1.0197908 -1.8503951 0.18629552 357 17886470 161 23 133 2121
0.66478693 -1.5976719 0.13856089 271 17886470 82 24 71 1736
0.84831619 -1.8464032 0.14326429 329 17886470 136 25 41 2037
0.95387095 -1.891126 0.12906444 336 17886470 151 26 120 2122
1.0126253 -1.8399755 0.10811982 335 17886470 148 27 83 2103
0.77514219 -1.8654566 0.087810576 372 17886470 152 28 40 2022
0.86263001 -1.879287 0.070077777 323 17886470 138 29 35 2069
0.95670962 -1.9012082 0.052499022 316 17886470 143 30 51 2129
1.0069147 -1.8311877 0.03122348 368 17886470 161 31 77 2090
0.7826634 -1.8838354 0.014241773 343 17886470 143 32 84 2040
0.87452149 -1.9070364 -0.0053094607 348 17886470 153 33 66 2098
0.94142157 -1.8713965 -0.025009625 307 17886470 135 34 85 2095
1.0065751 -1.8333732 -0.044870161 348 17886470 152 35 85 2092
0.78180027 -1.8843565 -0.060584415 329 17886470 137 36 129 2041
0.84085417 -1.8371725 -0.079030715 342 17886470 140 37 51 2022
0.9337616 -1.8581079 -0.10123339 374 17886470 162 38 129 2082
1.0017765 -1.8245575 -0.12107455 357 17886470 155 39 89 2085
0.76750094 -1.8540035 -0.13317177 394 17886470 159 40 37 2011
0.83991826 -1.8373303 -0.15307048 336 17886470 138 41 98 2026
0.91218072 -1.8164279 -0.17354104 388 17886470 161 42 110 2040
0.98746669 -1.8008038 -0.19489823 382 17886470 162 43 50 2063
0.76143664 -1.8411728 -0.20568481 407 17886470 163 44 56 2003
0.838772 -1.8367726 -0.22749169 362 17886470 149 45 49 2032
0.91669178 -1.8277966 -0.24987319 378 17886470 161 46 98 2060
0.99055237 -1.8074784 -0.27215537 386 17886470 167 47 141 2079
0.7599175 -1.8418672 -0.27963376 366 17886470 148 48 67 2012
0.8429662 -1.8480908 -0.30477053 324 17886470 136 49 52 2054
0.90523458 -1.8073128 -0.32307932 360 17886470 151 50 74 2047
0.98456317 -1.7977408 -0.34785703 295 17886470 128 51 70 2079
0.73846763 -1.7944063 -0.34585103 439 17886470 171 52 86 1971
0.81358618 -1.7860727 -0.36882392 404 17886470 161 53 67 1997
0.91717905 -1.8325976 -0.40532637 364 17886470 159 54 92 2089
0.99040848 -1.808339 -0.42922941 187 17886470 83 55 43 2106
0.75917274 -1.8476492 -0.43334258 397 17886470 166 56 117 2044
0.83144319 -1.8278108 -0.45529222 393 17886470 167 57 59 2059
0.82147181 -1.6421546 -0.43506536 509 17886470 181 58 117 1887
0.93197626 -1.702003 -0.48021588 113 17886470 45 59 66 1999
0.74002939 -1.807067 -0.50112027 431 17886470 175 60 14 2016
0.8206439 -1.8080876 -0.52951694 404 17886470 171 61 31 2055
0.89035749 -1.780714 -0.55197549 420 17886470 179 62 60 2066
0.977678 -1.7836908 -0.58675563 390 17886470 175 63 60 2117
0.74999565 -1.8373958 0.6194548 216 17984150 93 0 78 2079
0.84549493 -1.8650513 0.614627 400 17984150 183 1 110 2138
0.9587639 -1.9197513 0.62135637 493 17984150 246 2 60 2234
1.011413 -1.8476515 0.58838499 465 17984150 223 3 61 2187
0.77258468 -1.8900014 0.55157286 414 17984150 185 4 66 2115
0.85962552 -1.8984238 0.54077786 414 17984150 192 5 43 2153
0.94007981 -1.8841494 0.52452952 409 17984150 193 6 94 2170
1.0054818 -1.8412392 0.50149143 477 17984150 222 7 86 2157
0.78684556 -1.9238336 0.47898629 368 17984150 167 8 98 2133
0.85115987 -1.8778088 0.45352221 392 17984150 175 9 81 2111
0.93445539 -1.8754159 0.4398742 384 17984150 176 10 64 2141
1.0031639 -1.8408117 0.41966468 489 17984150 223 11 51 2138
0.75686026 -1.8496904 0.38344896 406 17984150 168 12 93 2035
0.8445878 -1.865214 0.37176579 388 17984150 168 13 51 2081
0.92750645 -1.8623654 0.35727894 351 17984150 156 14 92 2111
0.9919247 -1.8212467 0.33667052 404 17984150 178 15 67 2101
0.53146565 -1.2989134 0.21626016 349 17984150 70 16 17 1420
0.82999474 -1.8340936 0.29045865 386 17984150 160 17 73 2034
0.90649807 -1.8226527 0.27407077 354 17984150 149 18 72 2054
1.0102499 -1.8575935 0.26439124 378 17984150 172 19 91 2131
0.53671426 -1.3118063 0.16562337 350 17984150 71 20 25 1427
0.64584213 -1.4277565 0.16785508 262 17984150 65 21 64 1576
0.92322391 -1.8584784 0.20233761 383 17984150 167 22 60 2085
1.0027125 -1.8461136 0.18524152 351 17984150 156 23 141 2109
0.5327301 -1.3027822 0.11270045 326 17984150 65 24 38 1412
0.84190142 -1.8624811 0.14410825 329 17984150 138 25 63 2049
0.92626387 -1.8647614 0.12687485 323 17984150 140 26 141 2086
0.99560267 -1.8356197 0.10750287 345 17984150 151 27 102 2091
0.75461692 -1.8479798 0.086768314 396 17984150 158 28 42 1998
0.85108268 -1.8845446 0.070077777 319 17984150 136 29 27 2069
0.92904627 -1.8747958 0.051611297 318 17984150 139 30 51 2093
0.99565977 -1.8373315 0.03122348 359 17984150 157 31 91 2090
0.77562541 -1.8997116 0.014325546 309 17984150 130 32 68 2052
0.84799868 -1.8795519 -0.0052183545 312 17984150 133 33 76 2062
0.91926819 -1.8556336 -0.02472312 342 17984150 147 34 83 2071
0.99530673 -1.839515 -0.044870161 338 17984150 148 35 72 2092
0.77022332 -1.8891181 -0.060584415 338 17984150 141 36 114 2041
0.83941209 -1.8641642 -0.079968765 358 17984150 150 37 48 2046
0.92234284 -1.8638024 -0.10123339 352 17984150 152 38 147 2082
0.99626338 -1.8412063 -0.12177138 357 17984150 157 39 70 2097
0.75159866 -1.8475869 -0.13237709 406 17984150 162 40 85 1999
0.83844477 -1.8642752 -0.15488377 317 17984150 133 41 78 2050
0.91161835 -1.843426 -0.17558269 382 17984150 163 42 148 2064
0.98207802 -1.8173386 -0.1960319 387 17984150 167 43 77 2075
0.76360708 -1.878985 -0.2093816 409 17984150 170 44 99 2039
0.81771255 -1.8201301 -0.22480479 356 17984150 143 45 45 2008
0.91073382 -1.8440666 -0.25132874 370 17984150 159 46 106 2072
0.99075007 -1.8344579 -0.27529716 355 17984150 157 47 137 2103
0.74860168 -1.8464953 -0.27963376 385 17984150 156 48 55 2012
0.83161062 -1.8532283 -0.30477053 350 17984150 147 49 55 2054
0.90461123 -1.8340877 -0.32686722 384 17984150 164 50 51 2071
0.98475224 -1.8245708 -0.35187274 269 17984150 119 51 51 2103
0.73187232 -1.8098558 -0.34795666 409 17984150 161 52 71 1983
0.81225753 -1.8125559 -0.37325647 394 17984150 161 53 69 2021
0.89030546 -1.8065133 -0.39834136 387 17984150 163 54 100 2053
0.96813393 -1.7937051 -0.42433789 462 17984150 200 55 66 2082
0.73026007 -1.8087749 -0.42316622 404 17984150 161 56 98 1996
0.8202123 -1.832878 -0.45529222 403 17984150 171 57 62 2059
0.86297846 -1.7519124 -0.46273249 257 17984150 104 58 106 2007
0.98236585 -1.8204533 -0.511926 139 17984150 63 59 87 2131
0.73326641 -1.8223569 -0.50410312 460 17984150 189 60 34 2028
0.80007988 -1.7919142 -0.52333283 415 17984150 171 61 17 2031
0.87941444 -1.7861437 -0.55197549 380 17984150 162 62 66 2066
0.97219485 -1.7998008 -0.59008163 375 17984150 170 63 55 2129
0.73017991 -1.8206995 0.61230379 269 18081720 113 0 40 2055
0.82935417 -1.8597071 0.61117727 393 18081720 178 1 83 2126
0.94187975 -1.9152546 0.61801875 362 18081720 179 2 67 2222
0.99456972 -1.8436509 0.58515662 433 18081720 205 3 64 2175
0.77392608 -1.9269567 0.56096137 411 18081720 190 4 78 2151
0.8432346 -1.8930522 0.53776377 402 18081720 184 5 57 2141
0.92850119 -1.8898822 0.52452952 403 18081720 190 6 106 2170
0.99969614 -1.8576516 0.5042814 480 18081720 226 7 88 2169
0.75758547 -1.8852245 0.46820739 389 18081720 169 8 82 2085
0.83962184 -1.8829961 0.45352221 377 18081720 168 9 85 2111
0.91775763 -1.8705711 0.4374088 393 18081720 178 10 75 2129
0.99185002 -1.8469324 0.41966468 389 18081720 178 11 56 2138
0.74989259 -1.8652341 0.38571009 372 18081720 156 12 67 2047
0.82351881 -1.8487904 0.36747828 365 18081720 154 13 48 2057
0.90043962 -1.8361651 0.35118607 339 18081720 146 14 79 2075
0.98073107 -1.8272988 0.33667052 392 18081720 173 15 74 2101
0.51463801 -1.2801417 0.21260506 365 18081720 71 16 1 1396
0.82355553 -1.8500021 0.29217222 346 18081720 145 17 94 2046
0.91621965 -1.8709033 0.28047553 364 18081720 161 18 71 2102
0.99883282 -1.8637574 0.26439124 368 18081720 167 19 93 2131
0.52865505 -1.3150748 0.16562337 388 18081720 79 20 42 1427
0.58371085 -1.3117793 0.15379617 353 18081720 74 21 40 1444
0.92229879 -1.8855658 0.20466669 361 18081720 161 22 78 2109
0.98572528 -1.8416922 0.18418752 347 18081720 153 23 142 2097
0.52918577 -1.3171258 0.11365825 359 18081720 73 24 33 1424
0.80613971 -1.8129234 0.13988841 364 18081720 144 25 55 1989
0.91480446 -1.8704097 0.12687485 329 18081720 143 26 128 2086
0.98996973 -1.8522635 0.10811982 319 18081720 141 27 102 2103
0.74772769 -1.8637016 0.087289445 415 18081720 168 28 34 2010
0.82976532 -1.8678108 0.069264889 320 18081720 134 29 30 2045
0.91226465 -1.8696795 0.051315386 300 18081720 130 30 41 2081
0.98436737 -1.8434062 0.03122348 351 18081720 153 31 75 2090
0.75501931 -1.882161 0.014157997 324 18081720 133 32 54 2028
0.83644998 -1.8847197 -0.0052183545 339 18081720 144 33 58 2062
0.90260446 -1.8504546 -0.024579866 319 18081720 135 34 63 2059
0.97835666 -1.835001 -0.044612784 339 18081720 147 35 79 2080
0.75861746 -1.8938085 -0.060584415 357 18081720 149 36 113 2041
0.81338984 -1.8363891 -0.078561686 337 18081720 136 37 50 2010
0.91088945 -1.8694267 -0.10123339 335 18081720 145 38 115 2082
0.97931087 -1.8367134 -0.12107455 329 18081720 143 39 66 2085
0.7313605 -1.8299267 -0.13078777 381 18081720 149 40 60 1975
0.8221491 -1.8584419 -0.15397713 334 18081720 139 41 89 2038
0.88982171 -1.8274851 -0.17354104 365 18081720 152 42 163 2040
0.97652346 -1.8338749 -0.19716558 383 18081720 167 43 78 2087
0.75206351 -1.883635 -0.2093816 401 18081720 167 44 66 2039
0.81616879 -1.8469273 -0.22749169 361 18081720 149 45 58 2032
0.89940172 -1.8496201 -0.25132874 354 18081720 152 46 123 2072
0.95711929 -1.7984937 -0.26901361 365 18081720 154 47 144 2055
0.72846335 -1.8289737 -0.27629817 389 18081720 154 48 52 1988
0.81543177 -1.8474394 -0.30298996 345 18081720 144 49 49 2042
0.89851677 -1.8502631 -0.32876122 381 18081720 165 50 51 2083
0.96242797 -1.8096875 -0.34785703 338 18081720 146 51 81 2079
0.72511512 -1.8252918 -0.35006231 404 18081720 161 52 51 1995
0.80112064 -1.8175057 -0.37325647 374 18081720 153 53 80 2021
0.88434315 -1.8225329 -0.40066969 393 18081720 168 54 89 2065
0.96814281 -1.8203567 -0.42922941 390 18081720 173 55 66 2106
0.72779495 -1.8350239 -0.42825437 432 18081720 176 56 74 2020
0.78537744 -1.7843199 -0.44202486 381 18081720 152 57 44 1999
0.8827852 -1.8202119 -0.47933272 124 18081720 53 58 56 2079
0.94930196 -1.7853068 -0.50039506 135 18081720 59 59 58 2083
0.72207081 -1.8268219 -0.50410312 443 18081720 182 60 36 2028
0.79839408 -1.818022 -0.52951694 419 18081720 177 61 40 2055
0.8633942 -1.7811005 -0.54876947 395 18081720 167 62 70 2054
0.95571572 -1.7955542 -0.58675563 405 18081720 181 63 53 2117
0.689605 -1.7505411 0.58727533 253 18179370 98 0 36 1971
0.82254422 -1.8752863 0.614627 402 18179370 184 1 97 2138
0.92508709 -1.9106232 0.61468107 342 18179370 167 2 48 2210
0.99408805 -1.8701293 0.59161347 378 18179370 183 3 72 2199
0.75358486 -1.9101163 0.5547024 385 18179370 174 4 84 2127
0.82228118 -1.8769125 0.5317356 386 18179370 173 5 56 2117
0.91181725 -1.8850614 0.52162892 389 18179370 181 6 104 2158
0.99921423 -1.8843731 0.50986129 438 18179370 211 7 97 2193
0.74600369 -1.8898374 0.46820739 384 18179370 167 8 63 2085
0.81863809 -1.8666465 0.44836611 367 18179370 160 9 69 2087
0.90626276 -1.8761672 0.4374088 415 18179370 188 10 76 2129
0.98049873 -1.8529835 0.41966468 408 18179370 186 11 53 2138
0.73410469 -1.858839 0.38344896 405 18179370 168 12 70 2035
0.81689721 -1.8646232 0.36962202 372 18179370 159 13 46 2069
0.88915622 -1.8416555 0.35118607 351 18179370 151 14 90 2075
0.97503793 -1.843753 0.33859345 406 18179370 181 15 57 2113
0.50241733 -1.2722445 0.21077752 374 18179370 72 16 10 1384
0.80742508 -1.8441408 0.29045865 361 18179370 150 17 68 2034
0.88406307 -1.8336396 0.27407077 380 18179370 160 18 82 2054
0.99293834 -1.8803805 0.26588008 386 18179370 177 19 78 2143
0.50744295 -1.2850363 0.16144505 362 18179370 70 20 30 1391
0.57565093 -1.3153361 0.15379617 357 18179370 74 21 39 1444
0.89516622 -1.8589073 0.2011731 333 18179370 143 22 66 2073
0.97998232 -1.8582793 0.18524152 335 18179370 149 23 126 2109
0.50792038 -1.2869684 0.11078487 356 18179370 69 24 26 1388
0.82377893 -1.8836397 0.14495224 350 18179370 149 25 71 2061
0.9033106 -1.8759876 0.12687485 312 18179370 136 26 116 2086
0.97300184 -1.847699 0.10750287 328 18179370 143 27 99 2091
0.74506962 -1.8905622 0.088331714 416 18179370 172 28 50 2034
0.83269411 -1.9058368 0.070484228 313 18179370 135 29 40 2081
0.91116387 -1.8968687 0.0519072 275 18179370 122 30 61 2105
0.95627743 -1.8175557 0.030685658 362 18179370 153 31 78 2054
0.74785554 -1.8979225 0.014241773 312 18179370 130 32 61 2040
0.8008678 -1.8348268 -0.0050665112 344 18179370 138 33 63 2002
0.8860392 -1.8451415 -0.024436614 281 18179370 118 34 96 2047
0.97823745 -1.8622115 -0.045127545 338 18179370 149 35 50 2104
0.74259108 -1.8872658 -0.060228206 364 18179370 150 36 88 2029
0.81168413 -1.8633318 -0.079499744 320 18179370 132 37 46 2034
0.88903397 -1.8533671 -0.10006644 344 18179370 146 38 137 2058
0.97359395 -1.8532933 -0.12177138 367 18179370 162 39 85 2097
0.72886932 -1.856671 -0.13237709 390 18179370 156 40 42 1999
0.81550413 -1.8744239 -0.15488377 345 18179370 145 41 58 2050
0.88892806 -1.8544741 -0.17558269 343 18179370 146 42 132 2064
0.95415246 -1.8186747 -0.19489823 376 18179370 160 43 71 2063
0.73177564 -1.8659891 -0.20691708 400 18179370 163 44 79 2015
0.81907952 -1.8847097 -0.23152205 363 18179370 155 45 65 2068
0.88289273 -1.8443602 -0.24987319 366 18179370 155 46 109 2060
0.95159042 -1.8148689 -0.27058452 363 18179370 155 47 111 2067
0.71722728 -1.833409 -0.27629817 390 18179370 154 48 58 1988
0.79463029 -1.8306364 -0.29942888 362 18179370 147 49 36 2018
0.87692523 -1.8343598 -0.32497326 393 18179370 166 50 55 2059
0.95130581 -1.8155588 -0.34785703 334 18179370 144 51 56 2079
0.71819586 -1.8407124 -0.35216796 416 18179370 168 52 76 2007
0.79464394 -1.8332076 -0.37547269 368 18179370 152 53 81 2033
0.86806971 -1.8173027 -0.39834136 365 18179370 154 54 90 2053
0.94604951 -1.8054506 -0.42433789 411 18179370 178 55 60 2082
0.7037521 -1.8066727 -0.42062211 391 18179370 154 56 98 1984
0.79300958 -1.8320655 -0.4526388 398 18179370 167 57 46 2047
0.88669264 -1.8572063 -0.48763284 158 18179370 70 58 44 2115
0.93832964 -1.791098 -0.50039506 124 18179370 54 59 77 2083
0.71084803 -1.831218 -0.50410312 442 18179370 182 60 6 2028
0.78262693 -1.8122419 -0.52642488 397 18179370 166 61 20 2043
0.85244936 -1.7863647 -0.54876947 390 18179370 164 62 56 2054
0.93397081 -1.7809626 -0.58010375 382 18179370 167 63 53 2093
0.67058486 -1.7333728 0.58012438 234 18276530 89 0 54 1947
0.81102222 -1.880298 0.614627 389 18276530 178 1 105 2138
0.90838706 -1.9058586 0.61134344 353 18276530 171 2 58 2198
0.98259449 -1.8761938 0.59161347 407 18276530 197 3 61 2199
0.73766506 -1.9039019 0.55157286 423 18276530 189 4 75 2115
0.81534487 -1.8925902 0.53474969 398 18276530 180 5 44 2129
0.89522767 -1.8801076 0.51872832 364 18276530 168 6 110 2146
0.97682458 -1.8697796 0.5042814 425 18276530 200 7 97 2169
0.73862058 -1.9052823 0.47090214 391 18276530 172 8 69 2097
0.79324573 -1.8393494 0.44063196 361 18276530 152 9 65 2051
0.89977676 -1.8922985 0.4398742 413 18276530 189 10 57 2141
0.97455001 -1.8693987 0.42202014 423 18276530 195 11 49 2150
0.72268528 -1.8633084 0.38344896 383 18276530 159 12 92 2035
0.80544072 -1.8696004 0.36962202 390 18276530 167 13 58 2069
0.88291597 -1.8577585 0.35321704 363 18276530 158 14 109 2087
0.96370649 -1.849701 0.33859345 385 18276530 172 15 44 2113
0.49031308 -1.2642457 0.20894997 385 18276530 73 16 4 1372
0.77261084 -1.7945157 0.28189054 351 18276530 137 17 79 1974
0.88809276 -1.8712618 0.27887437 358 18276530 156 18 74 2090
0.9594003 -1.8441842 0.25992474 345 18276530 152 19 89 2095
0.51247722 -1.3214632 0.16562337 366 18276530 75 20 31 1427
0.56756938 -1.3188435 0.15379617 389 18276530 81 21 32 1444
0.88885897 -1.8751571 0.20233761 339 18276530 148 22 74 2085
0.95753962 -1.8430424 0.1831335 340 18276530 148 23 131 2085
0.51298279 -1.3235205 0.11365825 326 18276530 66 24 30 1424
0.80274767 -1.8666658 0.14326429 347 18276530 144 25 58 2037
0.89178276 -1.8814949 0.12687485 328 18276530 143 26 102 2086
0.96716505 -1.8642724 0.10811982 315 18276530 139 27 94 2103
0.72480094 -1.8727371 0.087289445 415 18276530 168 28 31 2010
0.81625021 -1.899891 0.070077777 314 18276530 134 29 19 2069
0.89950776 -1.9024239 0.0519072 312 18276530 138 30 44 2105
0.96167183 -1.8553472 0.03122348 362 18276530 158 31 57 2090
0.73186541 -1.8912845 0.014157997 312 18276530 128 32 57 2028
0.81325859 -1.8948423 -0.0052183545 320 18276530 136 33 81 2062
0.8849563 -1.8722399 -0.02472312 334 18276530 143 34 100 2071
0.9447366 -1.8255585 -0.044098016 338 18276530 143 35 93 2056
0.72235048 -1.8694098 -0.0595158 327 18276530 132 36 90 2005
0.8096779 -1.8903216 -0.080437794 337 18276530 143 37 51 2058
0.89299762 -1.8913025 -0.10181687 331 18276530 145 38 149 2094
0.96220404 -1.8592323 -0.12177138 350 18276530 154 39 67 2097
0.71746325 -1.8611083 -0.13237709 379 18276530 152 40 70 1999
0.78986871 -1.8463885 -0.15216386 344 18276530 140 41 102 2014
0.86222667 -1.8274535 -0.17252021 340 18276530 140 42 165 2028
0.93749022 -1.8138822 -0.19376454 356 18276530 150 43 74 2051
0.71602267 -1.8593048 -0.20568481 427 18276530 172 44 71 2003
0.79344273 -1.8568038 -0.22749169 309 18276530 127 45 50 2032
0.87155932 -1.8497428 -0.24987319 358 18276530 152 46 96 2060
0.94043666 -1.8206736 -0.27058452 352 18276530 150 47 122 2067
0.70596421 -1.8377752 -0.27629817 394 18276530 156 48 57 1988
0.78804117 -1.8463924 -0.30120945 348 18276530 143 49 54 2030
0.87069845 -1.8504279 -0.32686722 388 18276530 167 50 58 2071
0.9455744 -1.8318747 -0.3498649 285 18276530 125 51 69 2091
0.69420826 -1.8119887 -0.34585103 429 18276530 166 52 57 1971
0.77875668 -1.8271998 -0.37325647 383 18276530 157 53 88 2021
0.85690266 -1.8225949 -0.39834136 380 18276530 160 54 93 2053
0.93495369 -1.8112215 -0.42433789 363 18276530 158 55 70 2082
0.70103222 -1.8328637 -0.42571029 410 18276530 165 56 83 2008
0.7725876 -1.81536 -0.44733182 360 18276530 147 57 54 2023
0.85044968 -1.809772 -0.47379929 386 18276530 163 58 64 2055
0.91663748 -1.7761189 -0.49462953 218 18276530 93 59 92 2059
0.70373821 -1.8464066 -0.50708604 468 18276530 195 60 22 2040
0.76696104 -1.8063375 -0.52333283 416 18276530 171 61 34 2031
0.84147239 -1.7915616 -0.54876947 396 18276530 167 62 64 2054
0.91773337 -1.7764162 -0.57677776 389 18276530 168 63 56 2081
0.68027347 -1.7909974 0.59800184 241 18373700 97 0 34 2007
0.79498249 -1.8746578 0.61117727 407 18373700 184 1 111 2126
0.90157115 -1.9218316 0.61468107 363 18373700 177 2 63 2210
0.97106385 -1.8821876 0.59161347 527 18373700 255 3 58 2199
0.7218501 -1.8975648 0.54844344 403 18373700 178 4 73 2103
0.80371678 -1.8975574 0.53474969 359 18373700 162 5 50 2129
0.87873334 -1.8750216 0.51582766 386 18373700 176 6 81 2134
0.9706741 -1.8861154 0.50707132 419 18373700 199 7 93 2181
0.72691607 -1.9097785 0.47090214 364 18373700 160 8 54 2097
0.79566979 -1.8765519 0.44836611 387 18373700 169 9 68 2087
0.88317102 -1.8871471 0.4374088 392 18373700 178 10 56 2129
0.96306121 -1.8753433 0.42202014 405 18373700 187 11 41 2150
0.69026846 -1.8126402 0.37214336 352 18373700 137 12 89 1975
0.79855877 -1.8853794 0.37176579 364 18373700 158 13 43 2081
0.86648929 -1.8524281 0.35118607 345 18373700 149 14 95 2075
0.93611342 -1.8239652 0.33282471 383 18373700 165 15 63 2077
0.48676708 -1.278314 0.21077752 370 18373700 71 16 3 1384
0.65047258 -1.5367221 0.24076365 292 18373700 83 17 61 1686
0.87156105 -1.8659006 0.27727315 357 18373700 154 18 79 2078
0.96435791 -1.8818269 0.26439124 318 18373700 145 19 94 2131
0.49163538 -1.2911667 0.16144505 335 18373700 65 20 26 1391
0.5641157 -1.3332899 0.15507425 385 18373700 82 21 41 1456
0.86218822 -1.8481054 0.19884402 315 18373700 132 22 73 2049
0.94621289 -1.848883 0.1831335 377 18373700 164 23 141 2085
0.49208903 -1.2931044 0.11078487 323 18373700 62 24 23 1388
0.7912789 -1.8715563 0.14326429 376 18373700 156 25 38 2037
0.86503059 -1.8543669 0.12468525 330 18373700 139 26 122 2050
0.95025444 -1.8595002 0.10750287 330 18373700 144 27 102 2091
0.70903796 -1.8659424 0.086768314 403 18373700 161 28 39 1998
0.7952444 -1.8827677 0.069264889 322 18373700 135 29 35 2045
0.86757308 -1.8644017 0.050723571 300 18373700 127 30 45 2057
0.94481337 -1.8505265 0.031044204 364 18373700 157 31 75 2078
0.72450876 -1.906957 0.014241773 316 18373700 132 32 66 2040
0.78295648 -1.8555727 -0.0050968803 344 18373700 140 33 62 2014
0.86332977 -1.8558756 -0.024436614 313 18373700 131 34 63 2047
0.9335174 -1.831321 -0.044098016 350 18373700 148 35 78 2056
0.73213917 -1.9298809 -0.061296821 348 18373700 148 36 123 2065
0.78875703 -1.8731521 -0.079499744 356 18373700 147 37 57 2034
0.87632507 -1.8858765 -0.10123339 341 18373700 148 38 130 2082
0.92901468 -1.8224093 -0.11898405 357 18373700 150 39 90 2049
0.71026856 -1.8766741 -0.13317177 421 18373700 170 40 59 2011
0.78780192 -1.8732601 -0.15397713 334 18373700 139 41 91 2038
0.85099739 -1.8327097 -0.17252021 338 18373700 139 42 151 2028
0.92092294 -1.8089542 -0.19263086 360 18373700 150 43 73 2039
0.70037943 -1.8524981 -0.20445256 385 18373700 153 44 63 1991
0.76817966 -1.8286556 -0.22346132 335 18373700 133 45 35 1996
0.85518223 -1.8442496 -0.24841762 387 18373700 162 46 121 2048
0.94003701 -1.8476162 -0.27372628 348 18373700 152 47 154 2091
0.69886774 -1.8531915 -0.27796596 414 18373700 165 48 56 2000
0.78587967 -1.8730789 -0.30477053 346 18373700 146 49 43 2054
0.84439039 -1.8234775 -0.32118532 366 18373700 151 50 47 2035
0.92895448 -1.8270961 -0.34785703 252 18373700 109 51 81 2079
0.6830771 -1.8162142 -0.34585103 390 18373700 152 52 75 1971
0.77664518 -1.8536986 -0.37768897 393 18373700 164 53 94 2045
0.84075999 -1.8171345 -0.39601299 378 18373700 158 54 90 2041
0.91317344 -1.7959797 -0.41944641 409 18373700 173 55 59 2058
0.68565059 -1.8261516 -0.42316622 401 18373700 160 56 103 1996
0.7569176 -1.8092701 -0.44467837 374 18373700 151 57 49 2011
0.8638351 -1.8679476 -0.48763284 372 18373700 166 58 55 2115
0.89516497 -1.7609421 -0.48886409 214 18373700 89 59 82 2035
0.69239563 -1.8506899 -0.50708604 447 18373700 186 60 22 2040
0.75139713 -1.8003092 -0.52024072 392 18373700 160 61 19 2019
0.82076019 -1.7756976 -0.54235739 389 18373700 160 62 61 2030
0.90158701 -1.7717378 -0.57345176 358 18373700 153 63 49 2069
0.66927135 -1.7951378 0.59800184 213 18471740 86 0 44 2007
0.78788698 -1.8901089 0.614627 444 18471740 203 1 93 2138
0.88976204 -1.9273274 0.61468107 340 18471740 166 2 62 2210
0.95426065 -1.8778069 0.58838499 528 18471740 253 3 68 2187
0.70614082 -1.8911053 0.54531389 410 18471740 179 4 72 2091
0.77866524 -1.8702838 0.52570742 375 18471740 164 5 37 2093
0.86721188 -1.880378 0.51582766 366 18471740 167 6 95 2134
0.95380598 -1.8816259 0.5042814 405 18471740 191 7 87 2169
0.72336942 -1.9361106 0.47629157 385 18471740 173 8 80 2121
0.77963179 -1.8705808 0.44578803 392 18471740 169 9 87 2075
0.85683733 -1.8605292 0.43001249 375 18471740 165 10 67 2093
0.94091445 -1.8602177 0.41730922 386 18471740 174 11 46 2126
0.53058362 -1.4194361 0.29074287 290 18471740 69 12 84 1543
0.77336109 -1.8575437 0.36533448 383 18471740 160 13 38 2045
0.85016155 -1.8469666 0.34915513 349 18471740 149 14 89 2063
0.93559152 -1.8508167 0.33667052 372 18471740 164 15 76 2101
0.48306677 -1.2923861 0.21260506 373 18471740 73 16 10 1396
0.54065621 -1.2994384 0.20306399 370 18471740 75 17 51 1422
0.86009574 -1.8712133 0.27727315 346 18471740 149 18 83 2078
0.93669707 -1.8558186 0.25992474 359 18471740 158 19 93 2095
0.49204943 -1.3164881 0.1642306 302 18471740 60 20 18 1415
0.54217875 -1.3036752 0.15123999 391 18471740 79 21 45 1420
0.86079812 -1.8750695 0.2011731 349 18471740 150 22 75 2073
0.93485051 -1.8546541 0.1831335 337 18471740 146 23 136 2085
0.47577405 -1.2736887 0.10886928 300 18471740 56 24 25 1364
0.76140553 -1.8321611 0.13988841 358 18471740 142 25 63 1989
0.86362988 -1.8814111 0.12614498 315 18471740 135 26 122 2074
0.9442147 -1.8760006 0.10811982 338 18471740 149 27 100 2103
0.66405821 -1.7803955 0.082599267 400 18471740 145 28 14 1902
0.77447987 -1.8654588 0.068452008 288 18471740 118 29 21 2021
0.86111128 -1.8805971 0.051019475 310 18471740 133 30 51 2069
0.93344098 -1.8562889 0.031044204 349 18471740 151 31 85 2078
0.7127943 -1.9113666 0.014241773 306 18471740 127 32 71 2040
0.78994471 -1.9046795 -0.0052183545 348 18471740 148 33 70 2062
0.8619144 -1.8829588 -0.02472312 291 18471740 125 34 82 2071
0.92226303 -1.8370144 -0.044098016 323 18471740 137 35 83 2056
0.71191257 -1.9118556 -0.060584415 340 18471740 142 36 108 2041
0.76807761 -1.8557976 -0.078561686 335 18471740 135 37 47 2010
0.85975301 -1.8803178 -0.10064992 341 18471740 146 38 121 2070
0.92856556 -1.8494878 -0.12037773 342 18471740 147 39 74 2073
0.6945706 -1.8697726 -0.13237709 430 18471740 172 40 75 1999
0.78086394 -1.8891171 -0.15488377 335 18471740 141 41 99 2050
0.83973604 -1.8378968 -0.17252021 336 18471740 138 42 131 2028
0.920515 -1.8359294 -0.19489823 359 18471740 153 43 59 2063
0.69315219 -1.8679515 -0.20568481 454 18471740 182 44 69 2003
0.7705971 -1.8664008 -0.22749169 362 18471740 150 45 64 2032
0.84385002 -1.8494622 -0.24841762 355 18471740 149 46 97 2048
0.91269374 -1.8214409 -0.26901361 352 18471740 149 47 116 2055
0.68335873 -1.8463001 -0.27629817 426 18471740 168 48 52 1988
0.76532376 -1.8559239 -0.30120945 345 18471740 142 49 52 2030
0.83809906 -1.8394073 -0.32307932 366 18471740 154 50 60 2047
0.91772616 -1.8327616 -0.34785703 345 18471740 149 51 89 2079
0.68419272 -1.8536202 -0.35216796 420 18471740 169 52 42 2007
0.75178498 -1.8257135 -0.37104017 344 18471740 139 53 101 2009
0.83447206 -1.8329731 -0.39834136 382 18471740 161 54 108 2053
0.90213633 -1.8015491 -0.41944641 392 18471740 166 55 59 2058
0.67443264 -1.8303243 -0.42316622 406 18471740 162 56 81 1996
0.75025213 -1.8247041 -0.44733182 389 18471740 159 57 62 2023
0.82817698 -1.8200721 -0.47379929 395 18471740 167 58 60 2055
0.87912834 -1.7559854 -0.48598135 220 18471740 90 59 78 2023
0.66500276 -1.8112586 -0.49515456 432 18471740 171 60 30 1992
0.74913692 -1.8263406 -0.52642488 422 18471740 176 61 19 2043
0.81463647 -1.7912265 -0.5455634 379 18471740 158 62 44 2042
0.90619677 -1.8081599 -0.58342963 390 18471740 173 63 74 2105
0.681858 -1.8637559 0.6194548 246 18570300 106 0 44 2079
0.78498876 -1.9161791 0.62152648 280 18570300 131 1 99 2162
0.86361849 -1.9012668 0.60466814 366 18570300 173 2 44 2174
0.92720264 -1.8526206 0.57869965 410 18570300 190 3 59 2151
0.69452393 -1.8954026 0.54531389 413 18570300 180 4 53 2091
0.77157325 -1.8857766 0.52872145 380 18570300 168 5 45 2105
0.85565776 -1.8856637 0.51582766 380 18570300 173 6 81 2134
0.92660367 -1.8561161 0.4959116 403 18570300 184 7 74 2133
0.69134945 -1.8856184 0.46281797 379 18570300 161 8 68 2061
0.75481266 -1.8427935 0.43805388 352 18570300 147 9 73 2039
0.85994631 -1.8978429 0.4374088 380 18570300 172 10 49 2129
0.92948264 -1.8659559 0.41730922 377 18570300 170 11 52 2126
0.46910277 -1.2788311 0.26134828 384 18570300 74 12 63 1387
0.75747776 -1.8513262 0.36319071 363 18570300 150 13 42 2033
0.84857112 -1.8736954 0.35321704 389 18570300 169 14 97 2087
0.91366011 -1.8353153 0.33282471 379 18570300 164 15 66 2077
0.47512773 -1.2953258 0.21260506 403 18570300 79 16 1 1396
0.52817768 -1.2917378 0.20135038 368 18570300 73 17 16 1410
0.84859794 -1.8764555 0.27727315 379 18570300 164 18 75 2078
0.93059242 -1.8721939 0.26141357 370 18570300 164 19 83 2107
0.52090085 -1.4201921 0.17676552 134 18570300 31 20 48 1523
0.54319763 -1.3290671 0.15379617 380 18570300 79 21 35 1444
0.80503076 -1.7823545 0.19069229 355 18570300 137 22 73 1965
0.93939751 -1.8924766 0.18629552 334 18570300 150 23 115 2121
0.48030049 -1.3102767 0.11174266 167 18570300 33 24 39 1400
0.69583982 -1.7038176 0.12976073 352 18570300 120 25 50 1845
0.84220952 -1.8648425 0.12468525 327 18570300 137 26 122 2050
0.93268603 -1.8817589 0.10811982 331 18570300 146 27 78 2103
0.50889903 -1.3903971 0.06435968 324 18570300 71 28 43 1482
0.76301903 -1.8701758 0.068452008 320 18570300 131 29 24 2021
0.86926532 -1.9295963 0.052203111 297 18570300 133 30 68 2117
0.91670889 -1.8512288 0.03086493 376 18570300 161 31 69 2066
0.70517671 -1.926973 0.014325546 303 18570300 128 32 71 2052
0.75559771 -1.8539284 -0.0050665112 326 18570300 131 33 55 2002
0.85034454 -1.888212 -0.02472312 303 18570300 130 34 83 2071
0.91629094 -1.8533936 -0.0443554 329 18570300 141 35 81 2068
0.68781835 -1.8823892 -0.0595158 324 18570300 130 36 95 2005
0.76119369 -1.8715829 -0.079030715 332 18570300 136 37 54 2022
0.84819943 -1.8855578 -0.10064992 358 18570300 153 38 139 2070
0.90127164 -1.8229337 -0.11828723 351 18570300 146 39 64 2037
0.69128591 -1.8964983 -0.13396642 425 18570300 174 40 52 2023
0.75124592 -1.8495283 -0.15125722 343 18570300 138 41 100 2002
0.82844317 -1.8430147 -0.17252021 332 18570300 136 42 151 2028
0.90923262 -1.841543 -0.19489823 368 18570300 157 43 62 2063
0.68167764 -1.8721695 -0.20568481 395 18570300 159 44 86 2003
0.75464749 -1.8600441 -0.22614822 329 18570300 134 45 51 2020
0.82760817 -1.8437382 -0.24696203 366 18570300 152 46 117 2036
0.91729313 -1.8590128 -0.27372628 367 18570300 160 47 122 2091
0.68013006 -1.872798 -0.27963376 415 18570300 168 48 66 2012
0.75392157 -1.8605849 -0.30120945 324 18570300 133 49 52 2030
0.83649057 -1.8661411 -0.32686722 331 18570300 142 50 65 2071
0.89599907 -1.8171362 -0.34384137 386 18570300 163 51 62 2055
0.66476065 -1.8355677 -0.34795666 438 18570300 172 52 48 1983
0.74499202 -1.8412247 -0.37325647 383 18570300 157 53 71 2021
0.82802111 -1.8488023 -0.40066969 388 18570300 166 54 73 2065
0.89626098 -1.8175874 -0.42189217 416 18570300 178 55 74 2070
0.65920216 -1.8233995 -0.42062211 414 18570300 163 56 89 1984
0.74780959 -1.850975 -0.4526388 395 18570300 165 57 53 2047
0.81699365 -1.8251194 -0.47379929 380 18570300 161 58 75 2055
0.85288495 -1.7300029 -0.47733316 215 18570300 85 59 72 1987
0.66175461 -1.837176 -0.50112027 459 18570300 187 60 10 2016
0.73791659 -1.8309027 -0.52642488 422 18570300 176 61 35 2043
0.80363035 -1.7961912 -0.5455634 415 18570300 173 62 61 2042
0.8950851 -1.8136863 -0.58342963 393 18570300 174 63 64 2105
0.68975747 -1.9218127 0.63733232 238 18667930 109 0 54 2139
0.74746644 -1.8569869 0.60082811 163 18667930 71 1 77 2090
0.86134136 -1.9275775 0.61134344 365 18667930 177 2 59 2198
0.92092693 -1.868642 0.58192813 423 18667930 198 3 56 2163
0.68679988 -1.9105301 0.54844344 399 18667930 177 4 84 2103
0.75565541 -1.8796985 0.52570742 426 18667930 186 5 47 2093
0.83457863 -1.8696128 0.51002645 377 18667930 168 6 107 2110
0.90489978 -1.8408185 0.49033174 427 18667930 190 7 83 2109
0.68768221 -1.9118316 0.46820739 398 18667930 173 8 54 2085
0.75224262 -1.869135 0.44321001 363 18667930 155 9 66 2063
0.83394128 -1.8709037 0.43001249 362 18667930 159 10 70 2093
0.91801584 -1.871624 0.41730922 431 18667930 195 11 51 2126
0.45725659 -1.2705965 0.25908715 382 18667930 72 12 43 1375
0.75931585 -1.8888038 0.36962202 384 18667930 164 13 47 2069
0.83705837 -1.8788668 0.35321704 349 18667930 152 14 93 2087
0.91280872 -1.8621585 0.33667052 381 18667930 168 15 54 2101
0.46315503 -1.2870573 0.21077752 391 18667930 75 16 1 1384
0.51581424 -1.2839335 0.19963677 402 18667930 79 17 19 1398
0.80323106 -1.8055652 0.26606479 366 18667930 146 18 98 1994
0.91385281 -1.8671737 0.25992474 358 18667930 157 19 70 2095
0.50007027 -1.3897167 0.17258722 115 18667930 25 20 46 1487
0.53058606 -1.3213027 0.15251808 379 18667930 78 21 27 1432
0.74073654 -1.6672002 0.17788242 326 18667930 110 22 89 1833
0.91202068 -1.8659865 0.1831335 347 18667930 151 23 111 2085
0.50868255 -1.4145031 0.1203628 120 18667930 27 24 41 1508
0.54272568 -1.3525575 0.10275362 318 18667930 68 25 58 1461
0.83561403 -1.8809211 0.1254151 333 18667930 141 26 121 2062
0.90535408 -1.8551363 0.10626898 302 18667930 129 27 106 2067
0.47199777 -1.31451 0.060711768 369 18667930 72 28 20 1398
0.75599176 -1.8859544 0.068858445 319 18667930 132 29 17 2033
0.85254902 -1.9239259 0.0519072 297 18667930 131 30 46 2105
0.91584969 -1.878389 0.03122348 357 18667930 156 31 78 2090
0.68928522 -1.9199698 0.014241773 291 18667930 121 32 61 2040
0.76205117 -1.9030901 -0.005187986 325 18667930 136 33 46 2050
0.82902288 -1.8714523 -0.024436614 306 18667930 128 34 82 2047
0.9049015 -1.858981 -0.0443554 350 18667930 150 35 71 2068
0.68030274 -1.8978654 -0.059872009 339 18667930 138 36 109 2017
0.74969554 -1.8762183 -0.079030715 343 18667930 140 37 49 2022
0.8220641 -1.8578445 -0.098899491 345 18667930 143 38 134 2034
0.89531273 -1.8392006 -0.11898405 350 18667930 147 39 81 2049
0.67157328 -1.8781552 -0.13237709 417 18667930 166 40 56 1999
0.74431819 -1.8652167 -0.15216386 349 18667930 142 41 81 2014
0.80261397 -1.8152574 -0.16945772 369 18667930 146 42 148 1992
0.88746995 -1.825599 -0.19263086 335 18667930 139 43 79 2039
0.66616237 -1.8650759 -0.20445256 421 18667930 167 44 106 1991
