# .PCD v0.7 - Point Cloud Data file format
VERSION 0.7
FIELDS x y z intensity t reflectivity ring noise range
SIZE 4 4 4 4 4 2 1 2 4
TYPE F F F F U U U U U
COUNT 1 1 1 1 1 1 1 1 1
WIDTH 768
HEIGHT 1
VIEWPOINT 0 0 0 1 0 0 0
POINTS 768
DATA ascii
-0.36274555 -2.2142918 -0.48676834 418 26613570 220 56 102 2296
-0.19248402 -1.5278362 -0.34915322 96 26613570 24 57 44 1579
-0.1311691 -1.480059 -0.35206401 216 26613570 50 58 87 1527
-0.073749661 -1.4376823 -0.35625818 247 26613570 54 59 78 1483
-0.36525348 -2.2133744 -0.57569176 420 26613570 225 60 53 2316
-0.18273306 -1.4407048 -0.38728175 297 26613570 67 61 7 1503
-0.13009687 -1.4647624 -0.4077031 222 26613570 52 62 106 1526
-0.07171841 -1.4096254 -0.40715355 273 26613570 59 63 81 1469
-0.27465975 -1.6526179 0.52291644 73 26712080 23 0 59 1755
-0.21503167 -1.6893154 0.5111351 74 26712080 24 1 60 1778
-0.13650461 -1.5288638 0.4444617 40 26712080 10 2 48 1598
-0.082661584 -1.6072656 0.44956169 91 26712080 25 3 27 1671
-0.28260648 -1.705771 0.46707663 82 26712080 26 4 73 1791
-0.20959409 -1.6408811 0.42925656 82 26712080 24 5 21 1709
-0.1527041 -1.7029175 0.42590833 72 26712080 22 6 67 1762
-0.08358901 -1.5938423 0.38152409 92 26712080 25 7 67 1641
-0.27252057 -1.6468545 0.38467112 76 26712080 22 8 65 1713
-0.20714274 -1.6266592 0.36071238 67 26712080 19 9 35 1679
-0.14500605 -1.6072942 0.33879149 79 26712080 21 10 52 1649
-0.080923386 -1.5176908 0.30424708 72 26712080 17 11 42 1550
-0.27599466 -1.6694766 0.32465973 68 26712080 20 12 87 1723
-0.21155643 -1.6562439 0.30316508 66 26712080 19 13 38 1697
-0.14580768 -1.61272 0.27807167 59 26712080 16 14 77 1643
-0.086851463 -1.6214184 0.26359972 76 26712080 20 15 49 1645
-0.26568839 -1.6069603 0.25098363 83 26712080 22 16 36 1648
-0.19974762 -1.5609764 0.22705467 77 26712080 20 17 80 1590
-0.14561118 -1.6008874 0.21642785 73 26712080 19 18 53 1622
-0.087338068 -1.6120651 0.20186041 62 26712080 17 19 64 1627
-0.26039213 -1.5747564 0.1865149 52 26712080 14 20 75 1607
-0.20521064 -1.6016701 0.17296742 55 26712080 15 21 87 1624
-0.14544854 -1.5907891 0.15575629 60 26712080 16 22 71 1605
-0.084743619 -1.5486656 0.13675724 48 26712080 12 23 110 1557
-0.26309618 -1.5892136 0.12898296 229 26712080 60 24 30 1616
-0.21759969 -1.6948465 0.12047704 73 26712080 22 25 62 1713
-0.14055929 -1.536723 0.094030924 60 26712080 14 26 147 1546
-0.079593204 -1.438892 0.074187778 217 26712080 45 27 97 1443
-0.26806802 -1.6143494 0.071134388 277 26712080 74 28 21 1638
-0.20584576 -1.5988783 0.054632895 182 26712080 47 29 28 1613
-0.14066371 -1.5220491 0.037703615 158 26712080 37 30 49 1529
-0.068154491 -1.2239672 0.018315783 183 26712080 27 31 57 1226
-0.26741609 -1.6099015 0.011393418 208 26712080 55 32 54 1632
-0.20257996 -1.5689708 -0.0040036067 210 26712080 52 33 51 1582
-0.13774972 -1.4885335 -0.017846966 253 26712080 57 34 95 1495
-0.067699678 -1.2018179 -0.025823938 145 26712080 21 35 55 1204
-0.26431289 -1.5864233 -0.04776106 216 26712080 56 36 100 1609
-0.20151611 -1.5517735 -0.061207768 223 26712080 55 37 39 1566
-0.13812694 -1.4858264 -0.072642982 204 26712080 46 38 109 1494
-0.067187138 -1.1930898 -0.069508985 197 26712080 28 39 63 1197
-0.26410416 -1.5775265 -0.10615332 285 26712080 73 40 34 1603
-0.20385823 -1.5642505 -0.11952493 225 26712080 56 41 75 1582
-0.14097828 -1.5119171 -0.12964535 226 26712080 52 42 152 1524
-0.072503336 -1.2752023 -0.12120912 203 26712080 33 43 63 1283
-0.25856802 -1.541155 -0.16132344 275 26712080 68 44 47 1571
-0.20301019 -1.5528786 -0.1764404 230 26712080 57 45 33 1576
-0.14197645 -1.5140458 -0.18582802 300 26712080 70 46 138 1532
-0.084268399 -1.4757656 -0.19518214 250 26712080 56 47 118 1491
-0.26018676 -1.542881 -0.21959312 269 26712080 67 48 61 1580
-0.2039936 -1.5551215 -0.23532914 105 26712080 27 49 61 1586
-0.14304824 -1.5169306 -0.24353266 114 26712080 27 50 68 1543
-0.084211409 -1.467567 -0.24947324 221 26712080 49 51 86 1491
-0.25722772 -1.5170976 -0.27425936 330 26712080 81 52 55 1563
-0.19619653 -1.4898336 -0.28238946 315 26712080 74 53 64 1529
-0.1420299 -1.5010864 -0.29822242 227 26712080 54 54 92 1537
-0.084438242 -1.4719691 -0.30694181 264 26712080 60 55 72 1506
-0.37632537 -2.2120245 -0.48676834 407 26712080 215 56 114 2296
-0.19878693 -1.5034224 -0.34384626 136 26712080 33 57 49 1555
-0.13914596 -1.4676018 -0.34929731 143 26712080 33 58 94 1515
-0.087246634 -1.5186086 -0.37643734 94 26712080 23 59 78 1567
-0.38275328 -2.2340043 -0.58165747 418 26712080 229 60 37 2340
-0.27110353 -2.0372169 -0.54806936 306 26712080 138 61 26 2127
-0.13580094 -1.4294009 -0.39808497 317 26712080 70 62 111 1490
-0.081022851 -1.4206699 -0.41047952 320 26712080 70 63 102 1481
-0.29647875 -1.7186308 0.5443694 70 26810520 23 0 50 1827
-0.22235063 -1.6651795 0.50423563 70 26810520 22 1 77 1754
-0.16012436 -1.6771636 0.48785096 62 26810520 19 2 43 1754
-0.091193162 -1.5836512 0.44310477 81 26810520 22 3 32 1647
-0.28914037 -1.6811705 0.46081764 72 26810520 23 4 76 1767
-0.21348895 -1.5935143 0.41720021 79 26810520 22 5 35 1661
-0.1575945 -1.6439933 0.41140518 74 26810520 22 6 78 1702
-0.09336707 -1.5932994 0.38152409 95 26810520 25 7 57 1641
-0.29449931 -1.7142997 0.40083945 71 26810520 23 8 78 1785
-0.22332695 -1.671824 0.37102458 97 26810520 29 9 32 1727
-0.15937339 -1.6531334 0.3486532 67 26810520 19 10 35 1697
-0.090234235 -1.5171657 0.30424708 82 26810520 20 11 23 1550
-0.28224617 -1.6445214 0.3201375 73 26810520 21 12 105 1699
-0.21857935 -1.6315099 0.29887757 72 26810520 20 13 47 1673
-0.15911198 -1.6471112 0.28416455 79 26810520 22 14 81 1679
-0.098917052 -1.6563265 0.26936847 77 26810520 22 15 49 1681
-0.29159456 -1.6988124 0.26560405 70 26810520 21 16 37 1744
-0.2266995 -1.6892077 0.24590451 68 26810520 20 17 79 1722
-0.15773113 -1.6236378 0.21963023 73 26810520 20 18 67 1646
-0.09651076 -1.5996132 0.20037159 61 26810520 16 19 75 1615
-0.29626492 -1.7258409 0.20462088 91 26810520 28 20 67 1763
-0.21821229 -1.6240318 0.17552359 65 26810520 18 21 74 1648
-0.15868796 -1.6255273 0.15924989 77 26810520 21 22 82 1641
-0.095697172 -1.5719795 0.13886526 64 26810520 16 23 132 1581
-0.27284247 -1.5875694 0.12898296 231 26810520 60 24 31 1616
-0.2136205 -1.5867102 0.11288129 65 26810520 17 25 71 1605
-0.15464252 -1.5835159 0.096950382 50 26810520 13 26 123 1594
-0.092097111 -1.4981843 0.077272505 164 26810520 37 27 76 1503
-0.27593204 -1.6008596 0.07061325 298 26810520 79 28 15 1626
-0.21244371 -1.5738146 0.053820007 205 26810520 52 29 5 1589
-0.15117744 -1.5330958 0.037999526 90 26810520 21 30 36 1541
-0.074182153 -1.1995744 0.017957235 138 26810520 20 31 79 1202
-0.27117255 -1.5727547 0.011142092 226 26810520 58 32 65 1596
-0.22025134 -1.6271559 -0.00415545 208 26810520 56 33 39 1642
-0.14805956 -1.4996012 -0.017990218 259 26810520 59 34 51 1507
-0.075820856 -1.2133536 -0.026081318 147 26810520 22 35 73 1216
-0.27812967 -1.6084102 -0.04847347 212 26810520 57 36 104 1633
-0.21103381 -1.5505079 -0.061207768 232 26810520 57 37 43 1566
-0.15433717 -1.5565149 -0.076143853 221 26810520 54 38 108 1566
-0.074506536 -1.1926552 -0.069508985 195 26810520 28 39 89 1197
-0.27377868 -1.5758762 -0.10615332 274 26810520 70 40 40 1603
-0.21669067 -1.5866816 -0.1213382 245 26810520 63 41 66 1606
-0.15380184 -1.5467172 -0.13270785 245 26810520 60 42 144 1560
-0.088590764 -1.4058828 -0.13367958 207 26810520 42 43 66 1415
-0.27211401 -1.5630587 -0.16378796 303 26810520 77 44 61 1595
-0.20929807 -1.5279752 -0.17375349 240 26810520 58 45 32 1552
-0.1548183 -1.5487032 -0.19019474 296 26810520 73 46 121 1568
-0.095575184 -1.5108397 -0.1998948 274 26810520 64 47 131 1527
-0.26964879 -1.5412555 -0.21959312 246 26810520 61 48 51 1580
-0.21191618 -1.542084 -0.2335486 127 26810520 31 49 30 1574
-0.15353812 -1.5278145 -0.24542663 129 26810520 31 50 74 1555
-0.097715959 -1.5378648 -0.26152024 82 26810520 20 51 60 1563
-0.38112485 -2.1670644 -0.39217508 329 26810520 164 52 102 2235
-0.20694582 -1.5002848 -0.28460574 319 26810520 76 53 44 1541
-0.14887618 -1.4767615 -0.29356575 355 26810520 81 54 135 1513
-0.091978952 -1.4479743 -0.30205032 336 26810520 74 55 90 1482
-0.39396656 -2.2327714 -0.49185655 407 26810520 219 56 116 2320
-0.22245488 -1.6065054 -0.36772755 68 26810520 19 57 28 1663
-0.15753599 -1.559661 -0.37143099 74 26810520 19 58 42 1611
-0.093605101 -1.4715443 -0.3649064 86 26810520 20 59 90 1519
-0.39645368 -2.2316136 -0.58165747 442 26810520 242 60 40 2340
-0.30599844 -2.1962891 -0.59135836 379 26810520 199 61 41 2295
-0.14340471 -1.4170356 -0.39487889 334 26810520 73 62 106 1478
-0.08755704 -1.3856252 -0.40050161 314 26810520 66 63 92 1445
-0.32920045 -1.8408159 0.58369982 66 26907700 25 0 66 1959
-0.23733705 -1.6979322 0.51458484 81 26907700 26 1 72 1790
-0.16574873 -1.63028 0.47450042 52 26907700 15 2 44 1706
-0.099438109 -1.5599935 0.43664786 94 26907700 25 3 44 1623
-0.3096185 -1.736389 0.47646511 86 26907700 29 4 70 1827
-0.2393923 -1.7072021 0.44734108 64 26907700 20 5 35 1781
-0.16886112 -1.6545794 0.41430584 52 26907700 15 6 96 1714
-0.10465009 -1.6159902 0.38710397 71 26907700 20 7 51 1665
-0.30296203 -1.700948 0.39814472 79 26907700 25 8 71 1773
-0.22871177 -1.6356015 0.3632904 79 26907700 23 9 23 1691
-0.16711646 -1.6287591 0.34372237 78 26907700 22 10 55 1673
-0.10724815 -1.6339964 0.3278017 75 26907700 21 11 30 1670
-0.29439619 -1.6543612 0.3223986 84 26907700 25 12 89 1711
-0.23842353 -1.7002934 0.31174019 73 26907700 22 13 45 1745
-0.16074964 -1.5637496 0.26994786 64 26907700 16 14 81 1595
-0.10362756 -1.5729532 0.25590807 79 26907700 20 15 70 1597
-0.29993474 -1.6853147 0.26377648 88 26907700 26 16 33 1732
-0.2271481 -1.6172155 0.23562278 73 26907700 20 17 86 1650
-0.16280049 -1.5753206 0.21322545 70 26907700 18 18 59 1598
-0.099213779 -1.4920614 0.18697213 64 26907700 15 19 78 1507
-0.28805158 -1.6183802 0.19208597 227 26907700 62 20 44 1655
-0.23648033 -1.6817397 0.18191402 66 26907700 19 21 73 1708
-0.16249235 -1.5651255 0.15342723 54 26907700 14 22 77 1581
-0.1093386 -1.6309969 0.14413528 50 26907700 13 23 130 1641
-0.28677517 -1.6094179 0.13089855 240 26907700 64 24 33 1640
-0.22335236 -1.5853696 0.11288129 90 26907700 23 25 62 1605
-0.17054242 -1.6421057 0.10059971 55 26907700 15 26 99 1654
-0.10937493 -1.6171591 0.083441965 71 26907700 19 27 87 1623
-0.28153184 -1.5755329 0.069570996 287 26907700 74 28 9 1602
-0.2237737 -1.5843567 0.054226451 208 26907700 53 29 10 1601
-0.17183574 -1.6395183 0.040662695 64 26907700 17 30 33 1649
-0.088867709 -1.3068358 0.019570697 138 26907700 24 31 55 1310
-0.28926331 -1.6183112 0.011477192 216 26907700 58 32 62 1644
-0.2268661 -1.602011 -0.0040947124 234 26907700 61 33 46 1618
-0.15851037 -1.5105982 -0.018133471 262 26907700 61 34 71 1519
-0.087372862 -1.2727109 -0.027368225 158 26907700 26 35 52 1276
-0.29010975 -1.61848 -0.048829671 235 26907700 64 36 87 1645
-0.21885358 -1.5373126 -0.060738739 202 26907700 49 37 31 1554
-0.16765232 -1.5912981 -0.077894285 237 26907700 61 38 111 1602
-0.079362281 -1.1563207 -0.067418486 171 26907700 23 39 72 1161
-0.28768662 -1.597735 -0.10774264 271 26907700 72 40 40 1627
-0.22303864 -1.5616311 -0.11952493 245 26907700 61 41 76 1582
-0.16203336 -1.533854 -0.13168702 222 26907700 53 42 146 1548
-0.1005132 -1.4529842 -0.13821429 247 26907700 53 43 77 1463
-0.28169963 -1.5613596 -0.16378796 267 26907700 68 44 38 1595
-0.22036037 -1.5384663 -0.17509696 241 26907700 59 45 55 1564
-0.16180296 -1.5240344 -0.18728359 314 26907700 75 46 116 1544
-0.10237197 -1.4746203 -0.19518214 283 26907700 63 47 130 1491
-0.28122047 -1.551265 -0.22126092 261 26907700 66 48 68 1592
-0.22306198 -1.5525012 -0.23532914 63 26907700 16 49 45 1586
-0.16668127 -1.5621917 -0.25110853 64 26907700 16 50 39 1591
-0.10385968 -1.4900274 -0.25348893 78 26907700 18 51 71 1515
-0.41135582 -2.2576647 -0.40902019 441 26907700 240 52 89 2331
-0.2161475 -1.4989867 -0.28460574 342 26907700 81 53 43 1541
-0.15668198 -1.464115 -0.29123738 287 26907700 65 54 117 1501
-0.10249521 -1.4708221 -0.30694181 319 26907700 72 55 78 1506
-0.40765917 -2.2303121 -0.49185655 407 26907700 219 56 132 2320
-0.23398432 -1.6166924 -0.37038103 96 26907700 27 57 55 1675
-0.1646135 -1.5354449 -0.36589757 134 26907700 34 58 77 1587
-0.10506494 -1.5058032 -0.37355462 146 26907700 35 59 81 1555
-0.41434568 -2.252002 -0.58762318 477 26907700 266 60 49 2364
-0.31946886 -2.19437 -0.59135836 427 26907700 225 61 40 2295
-0.15827121 -1.4736174 -0.41090918 229 26907700 54 62 89 1538
-0.096855141 -1.3965641 -0.40382755 310 26907700 66 63 100 1457
-0.32171804 -1.73739 0.55152035 81 27005690 28 0 66 1851
-0.2427682 -1.6623256 0.50423563 87 27005690 27 1 69 1754
-0.17451261 -1.6177723 0.4711628 54 27005690 15 2 50 1694
-0.11465001 -1.6400601 0.45924702 88 27005690 26 3 26 1707
-0.31605983 -1.7116722 0.47020611 56 27005690 18 4 85 1803
-0.24817945 -1.6942083 0.444327 80 27005690 25 5 33 1769
-0.17650369 -1.6303591 0.40850458 70 27005690 20 6 91 1690
-0.11373796 -1.6036757 0.38431406 100 27005690 27 7 62 1653
-0.31551424 -1.7105566 0.40083945 73 27005690 23 8 72 1785
-0.24552019 -1.6805542 0.3736026 74 27005690 22 9 33 1739
-0.17837754 -1.6393782 0.34618777 79 27005690 22 10 49 1685
-0.11558679 -1.6098348 0.32309076 82 27005690 22 11 47 1646
-0.32376459 -1.7568327 0.34274873 76 27005690 25 12 75 1819
-0.24885185 -1.6987984 0.31174019 57 27005690 17 13 46 1745
-0.17162317 -1.5744911 0.27197883 59 27005690 15 14 85 1607
-0.11668176 -1.619545 0.26359972 81 27005690 22 15 52 1645
-0.31671903 -1.7184333 0.26925915 76 27005690 24 16 29 1768
-0.23879099 -1.6275425 0.2373364 73 27005690 20 17 85 1662
-0.17375852 -1.586114 0.21482666 70 27005690 18 18 86 1610
-0.11613321 -1.5983084 0.20037159 54 27005690 14 19 76 1615
-0.30445802 -1.6517466 0.19626427 228 27005690 65 20 13 1691
-0.23985915 -1.6330367 0.17680168 64 27005690 18 21 82 1660
-0.18515478 -1.6828161 0.16507256 52 27005690 15 22 67 1701
-0.11585329 -1.5826086 0.13991927 76 27005690 19 23 122 1593
-0.29664499 -1.607628 0.13089855 237 27005690 64 24 15 1640
-0.24004629 -1.6313404 0.11625718 146 27005690 40 25 50 1653
-0.17275266 -1.569593 0.096220516 52 27005690 13 26 115 1582
-0.11135725 -1.508893 0.077889457 72 27005690 17 27 104 1515
-0.29991874 -1.6209302 0.071655519 285 27005690 78 28 15 1650
-0.23699111 -1.6066834 0.055039342 195 27005690 51 29 9 1625
-0.1818924 -1.6384331 0.040662695 63 27005690 17 30 25 1649
-0.10398456 -1.4019922 0.021004885 171 27005690 34 31 49 1406
-0.29700381 -1.6047065 0.011393418 220 27005690 58 32 51 1632
-0.24020247 -1.6243305 -0.00415545 219 27005690 59 33 50 1642
-0.16910166 -1.5215228 -0.018276723 249 27005690 58 34 78 1531
-0.088914625 -1.1884042 -0.025566556 151 27005690 22 35 65 1192
-0.30003509 -1.6166694 -0.048829671 240 27005690 65 36 78 1645
-0.23004504 -1.5478014 -0.061207768 234 27005690 57 37 31 1566
-0.17608424 -1.5783274 -0.077310808 221 27005690 56 38 120 1590
-0.090923838 -1.2155439 -0.070902653 169 27005690 25 39 63 1221
-0.29529062 -1.5841689 -0.10694798 255 27005690 67 40 71 1615
-0.23085196 -1.5483983 -0.11861829 239 27005690 59 41 64 1570
-0.17277086 -1.5447133 -0.13270785 217 27005690 53 42 174 1560
-0.11211931 -1.4880778 -0.14161533 270 27005690 61 43 56 1499
-0.29346606 -1.5713356 -0.16502023 295 27005690 76 44 51 1607
-0.23508549 -1.5724657 -0.17912731 235 27005690 60 45 44 1600
-0.16982104 -1.511176 -0.18582802 286 27005690 67 46 128 1532
-0.11231486 -1.4858273 -0.19675303 261 27005690 59 47 121 1503
-0.29730791 -1.5845493 -0.2262643 249 27005690 66 48 64 1628
-0.24138261 -1.6097831 -0.24423186 109 27005690 29 49 52 1646
-0.17892247 -1.5846893 -0.25489646 127 27005690 33 50 56 1615
-0.11568552 -1.524753 -0.25951242 155 27005690 37 51 75 1551
-0.4230119 -2.243489 -0.40691453 441 27005690 237 52 99 2319
-0.22534104 -1.4976323 -0.28460574 262 27005690 62 53 50 1541
-0.17228477 -1.5216122 -0.30287912 231 27005690 56 54 90 1561
-0.11507243 -1.5170233 -0.31672481 278 27005690 67 55 85 1554
-0.42787442 -2.2623377 -0.4994888 414 27005690 230 56 118 2356
-0.30505669 -2.0202382 -0.46325266 251 27005690 110 57 52 2095
-0.16613613 -1.464792 -0.34929731 240 27005690 55 58 107 1515
-0.11518447 -1.5167453 -0.37643734 111 27005690 27 59 69 1567
-0.4281559 -2.2494173 -0.58762318 444 27005690 248 60 57 2364
-0.33466804 -2.2038321 -0.59445047 419 27005690 223 61 62 2307
-0.17122641 -1.5070882 -0.42052734 250 27005690 62 62 111 1574
-0.10715902 -1.4189379 -0.41047952 298 27005690 65 63 87 1481
-0.32375336 -1.6903814 0.53721839 84 27103420 27 0 63 1803
-0.26853934 -1.7630663 0.53528321 62 27103420 22 1 66 1862
-0.19096833 -1.6739321 0.48785096 33 27103420 10 2 45 1754
-0.12295766 -1.6162771 0.45279011 74 27103420 21 3 43 1683
-0.3265565 -1.7097007 0.47020611 70 27103420 23 4 67 1803
-0.25155419 -1.6467252 0.43227065 69 27103420 20 5 26 1721
-0.1944498 -1.698657 0.42590833 67 27103420 21 6 88 1762
-0.12357579 -1.6029476 0.38431406 77 27103420 21 7 67 1653
-0.32819569 -1.7200747 0.40353414 64 27103420 21 8 85 1797
-0.25229657 -1.6558439 0.3684465 70 27103420 21 9 31 1715
-0.18709126 -1.6265857 0.34372237 74 27103420 21 10 52 1673
-0.12546237 -1.6090953 0.32309076 81 27103420 22 11 37 1646
-0.3235034 -1.6969303 0.3314431 71 27103420 22 12 96 1759
-0.25392193 -1.6622249 0.30530888 62 27103420 18 13 49 1709
-0.18940295 -1.6439034 0.28416455 68 27103420 19 14 99 1679
-0.12569326 -1.6069897 0.26167682 76 27103420 20 15 62 1633
-0.32281473 -1.6931572 0.26560405 71 27103420 22 16 35 1744
-0.26493865 -1.7317103 0.25275898 59 27103420 19 17 74 1770
-0.19579592 -1.6913422 0.22923738 70 27103420 21 18 54 1718
-0.12032349 -1.526343 0.19143862 36 27103420 9 19 78 1543
-0.32351694 -1.6966792 0.20183535 79 27103420 24 20 45 1739
-0.24445578 -1.5961516 0.17296742 65 27103420 17 21 85 1624
-0.1927188 -1.6579213 0.16274349 74 27103420 21 22 57 1677
-0.12367011 -1.5580356 0.13781126 49 27103420 12 23 147 1569
-0.30874631 -1.6175271 0.13185634 256 27103420 70 24 34 1652
-0.24642098 -1.606173 0.11456923 221 27103420 59 25 38 1629
-0.18376367 -1.5804012 0.096950382 72 27103420 18 26 103 1594
-0.12443496 -1.5559653 0.080357239 51 27103420 12 27 107 1563
-0.31211242 -1.6308343 0.072176643 303 27103420 84 28 1 1662
-0.25049075 -1.6289064 0.055852227 203 27103420 55 29 8 1649
-0.18775183 -1.6015419 0.039774973 99 27103420 26 30 28 1613
-0.11738956 -1.4611285 0.021901254 247 27103420 53 31 42 1466
-0.31586933 -1.6499968 0.011728518 214 27103420 60 32 37 1680
-0.24650815 -1.5991063 -0.0040947124 239 27103420 62 33 42 1618
-0.17843437 -1.5204566 -0.018276723 228 27103420 54 34 80 1531
-0.10782693 -1.3313334 -0.028655134 146 27103420 26 35 51 1336
-0.31673223 -1.6501371 -0.049898285 228 27103420 64 36 95 1681
-0.24137338 -1.5582103 -0.061676789 229 27103420 57 37 30 1578
-0.18716738 -1.5891209 -0.077894285 228 27103420 59 38 99 1602
-0.10611565 -1.3104883 -0.076477304 149 27103420 26 39 42 1317
-0.30500534 -1.5823271 -0.10694798 267 27103420 70 40 36 1615
-0.24402253 -1.5706004 -0.12043157 244 27103420 62 41 59 1594
-0.1808439 -1.5317501 -0.13168702 256 27103420 61 42 178 1548
-0.12318914 -1.5111755 -0.14388269 290 27103420 67 43 62 1523
-0.29857534 -1.5460652 -0.16255569 298 27103420 75 44 62 1583
-0.24840048 -1.5945586 -0.18181422 232 27103420 61 45 33 1624
-0.18049303 -1.521934 -0.18728359 240 27103420 57 46 111 1544
-0.12530762 -1.5325389 -0.20303658 157 27103420 38 47 127 1551
-0.44054684 -2.2709928 -0.32466426 384 27103420 210 48 93 2336
-0.24392851 -1.5613718 -0.23710968 274 27103420 70 49 29 1598
-0.17883082 -1.5011966 -0.24163868 242 27103420 57 50 80 1531
-0.12407162 -1.5122231 -0.25750458 138 27103420 33 51 84 1539
-0.43902987 -2.2524469 -0.40902019 438 27103420 238 52 111 2331
-0.24731012 -1.5777805 -0.30011961 155 27103420 41 53 52 1625
-0.18301412 -1.5322152 -0.30520746 271 27103420 67 54 111 1573
-0.11765538 -1.4343271 -0.29960456 324 27103420 70 55 92 1470
-0.44174781 -2.2596695 -0.4994888 433 27103420 240 56 133 2356
-0.34835821 -2.2148626 -0.50836176 361 27103420 191 57 51 2299
-0.18066917 -1.5101211 -0.36036414 129 27103420 32 58 75 1563
-0.12162889 -1.4811815 -0.36778915 114 27103420 27 59 87 1531
-0.44419342 -2.2581527 -0.59060603 443 27103420 250 60 59 2376
-0.34637308 -2.1902845 -0.59135836 412 27103420 217 61 29 2295
-0.17221518 -1.4371192 -0.40129101 315 27103420 71 62 112 1502
-0.11492464 -1.4067621 -0.40715355 250 27103420 54 63 72 1469
-0.33856678 -1.7108372 0.5443694 60 27199870 20 0 76 1827
-0.26855022 -1.6932759 0.51458484 76 27199870 24 1 79 1790
-0.20811959 -1.7299489 0.50453913 49 27199870 16 2 43 1814
-0.13666223 -1.6615669 0.4657039 78 27199870 23 3 35 1731
-0.33704087 -1.7076647 0.47020611 67 27199870 22 4 59 1803
-0.26712689 -1.6795641 0.44131291 76 27199870 23 5 26 1757
-0.20626414 -1.7089921 0.42880893 51 27199870 16 6 77 1774
-0.13340896 -1.6021593 0.38431406 77 27199870 21 7 58 1653
-0.34552988 -1.7524465 0.41161832 76 27199870 26 8 86 1833
-0.26428831 -1.6658397 0.37102458 61 27199870 18 9 37 1727
-0.19141421 -1.5787727 0.33386064 78 27199870 21 10 46 1625
-0.1402664 -1.6669208 0.33486807 71 27199870 21 11 31 1706
-0.33618742 -1.7064761 0.33370423 75 27199870 24 12 92 1771
-0.28080717 -1.7655791 0.32460281 61 27199870 20 13 43 1817
-0.19806042 -1.6309696 0.28213358 50 27199870 14 14 94 1667
-0.13355902 -1.5825822 0.25783098 80 27199870 21 15 54 1609
-0.33549032 -1.7027808 0.26743159 72 27199870 22 16 38 1756
-0.26435006 -1.6596771 0.24247727 59 27199870 17 17 72 1698
-0.20617013 -1.690109 0.22923738 65 27199870 19 18 62 1718
-0.13977249 -1.6442208 0.2063269 54 27199870 15 19 70 1663
-0.33852994 -1.7180504 0.20462088 68 27199870 21 20 69 1763
-0.26739559 -1.677102 0.18191402 69 27199870 20 21 81 1708
-0.20433979 -1.6685625 0.16390803 65 27199870 19 22 71 1689
-0.1393414 -1.6287081 0.14413528 61 27199870 16 23 126 1641
-0.32098022 -1.6273378 0.13281412 251 27199870 69 24 13 1664
-0.26004729 -1.6282718 0.11625718 243 27199870 66 25 26 1653
-0.20219573 -1.6505773 0.10132957 59 27199870 16 26 100 1666
-0.1442662 -1.6745715 0.086526699 53 27199870 15 27 109 1683
-0.3244389 -1.6406494 0.072697774 290 27199870 81 28 18 1674
-0.25668973 -1.6036541 0.055039342 227 27199870 60 29 26 1625
-0.20051493 -1.6241716 0.040366787 166 27199870 44 30 28 1637
-0.12738693 -1.4723346 0.022080526 286 27199870 63 31 76 1478
-0.32831606 -1.6597991 0.011812293 258 27199870 74 32 39 1692
-0.26011741 -1.6212606 -0.00415545 247 27199870 67 33 38 1642
-0.19806205 -1.6026931 -0.019279499 221 27199870 58 34 58 1615
-0.1191194 -1.3665024 -0.029427277 154 27199870 29 35 60 1372
-0.33151785 -1.6716937 -0.050610691 223 27199870 65 36 78 1705
-0.25283802 -1.5685378 -0.062145814 240 27199870 61 37 25 1590
-0.19101444 -1.5403637 -0.075560369 203 27199870 49 38 102 1554
-0.12455598 -1.4291577 -0.083445624 172 27199870 36 39 68 1437
-0.31938535 -1.603912 -0.10853729 273 27199870 73 40 55 1639
-0.25556451 -1.5808859 -0.1213382 244 27199870 63 41 62 1606
-0.19171385 -1.5424768 -0.13270785 250 27199870 61 42 142 1560
-0.13037187 -1.4865899 -0.14161533 331 27199870 74 43 66 1499
-0.3197324 -1.6027336 -0.16871701 270 27199870 73 44 60 1643
-0.25627211 -1.5812335 -0.18047076 245 27199870 64 45 30 1612
-0.19425409 -1.5562569 -0.1916503 231 27199870 58 46 129 1580
-0.13470873 -1.5317411 -0.20303658 230 27199870 55 47 122 1551
-0.45914233 -2.2915509 -0.32799986 454 27199870 253 48 90 2360
-0.25160065 -1.5481323 -0.23532914 297 27199870 75 49 12 1586
-0.19688171 -1.5706166 -0.25300249 128 27199870 33 50 81 1603
-0.13750713 -1.5585737 -0.26553592 109 27199870 28 51 63 1587
-0.45983607 -2.2844551 -0.41533709 467 27199870 262 52 111 2367
-0.24939553 -1.5296737 -0.29125452 294 27199870 73 53 46 1577
-0.18800859 -1.4960232 -0.29822242 267 27199870 63 54 115 1537
-0.13058315 -1.480389 -0.30938759 281 27199870 65 55 66 1518
-0.46488681 -2.3028977 -0.50966507 427 27199870 247 56 122 2404
-0.36572024 -2.2357824 -0.51366872 388 27199870 210 57 60 2323
-0.18847349 -1.4973989 -0.35759744 235 27199870 57 58 78 1551
-0.13071495 -1.4804074 -0.36778915 263 27199870 62 59 101 1531
-0.46498084 -2.2895572 -0.5995546 457 27199870 266 60 49 2412
-0.36168724 -2.1995592 -0.59445047 436 27199870 232 61 32 2307
-0.22152664 -1.757279 -0.4910605 261 27199870 88 62 93 1838
-0.13465641 -1.5323721 -0.44373915 114 27199870 29 63 46 1601
-0.3605212 -1.7648435 0.56224686 61 27297400 22 0 48 1887
-0.28080487 -1.7029365 0.51803452 93 27297400 30 1 63 1802
-0.21149568 -1.6714627 0.48785096 50 27297400 15 2 37 1754
-0.14380066 -1.6261592 0.45601857 85 27297400 24 3 51 1695
-0.34982544 -1.7169161 0.47333559 60 27297400 20 4 51 1815
-0.28500658 -1.7237322 0.45336926 64 27297400 21 5 37 1805
-0.20648336 -1.626834 0.40850458 76 27297400 22 6 77 1690
-0.14531678 -1.6245599 0.38989392 91 27297400 25 7 45 1677
-0.36327344 -1.784669 0.41970247 67 27297400 24 8 69 1869
-0.27450472 -1.6641867 0.37102458 91 27297400 27 9 14 1727
-0.21446303 -1.682416 0.35604951 69 27297400 21 10 45 1733
-0.14837468 -1.642591 0.33015716 80 27297400 23 11 40 1682
-0.3536984 -1.7390269 0.3404876 92 27297400 30 12 96 1807
-0.28970924 -1.752174 0.32245904 56 27297400 18 13 40 1805
-0.20357084 -1.5945287 0.2760407 66 27297400 18 14 109 1631
-0.14326704 -1.5817329 0.25783098 84 27297400 22 15 64 1609
-0.36248007 -1.7820445 0.28022444 86 27297400 29 16 25 1840
-0.27646878 -1.6697413 0.24419087 61 27297400 18 17 67 1710
-0.21502408 -1.677016 0.22763619 80 27297400 23 18 61 1706
-0.14769588 -1.619616 0.20334925 68 27297400 18 19 77 1639
-0.33243376 -1.634183 0.19487152 69 27297400 20 20 78 1679
-0.28158289 -1.6989721 0.18447019 73 27297400 22 21 67 1732
-0.21457405 -1.6672773 0.16390803 53 27297400 15 22 65 1689
-0.1537004 -1.6754371 0.14835131 60 27297400 17 23 126 1689
-0.33334607 -1.6370589 0.13377193 247 27297400 69 24 33 1676
-0.27199358 -1.6384542 0.11710115 241 27297400 67 25 28 1665
-0.21690761 -1.6849447 0.10351916 80 27297400 23 26 127 1702
-0.14572345 -1.5781878 0.081591129 61 27297400 15 27 87 1587
-0.33449963 -1.6386278 0.072697774 310 27297400 87 28 8 1674
-0.27636564 -1.6612014 0.057071563 224 27297400 64 29 2 1685
-0.21356268 -1.6467042 0.040958606 202 27297400 56 30 25 1661
-0.13531102 -1.4595778 0.021901254 270 27297400 58 31 65 1466
-0.33369288 -1.6342392 0.011644742 226 27297400 63 32 53 1668
-0.27006039 -1.619634 -0.00415545 237 27297400 64 33 55 1642
-0.2017134 -1.5538503 -0.018706484 186 27297400 46 34 95 1567
-0.13419291 -1.4374176 -0.030971566 265 27297400 55 35 38 1444
-0.34176892 -1.669628 -0.050610691 224 27297400 65 36 91 1705
-0.26840007 -1.6024352 -0.063552886 223 27297400 59 37 39 1626
-0.2082022 -1.5985898 -0.078477763 239 27297400 62 38 120 1614
-0.14111619 -1.5118618 -0.088323444 207 27297400 48 39 58 1521
-0.32198954 -1.5667366 -0.10615332 252 27297400 65 40 61 1603
-0.26724187 -1.5910883 -0.12224484 229 27297400 60 41 65 1618
-0.20426971 -1.5649834 -0.1347495 236 27297400 59 42 141 1584
-0.14395764 -1.5333381 -0.14615004 295 27297400 71 43 75 1547
-0.32956055 -1.6007416 -0.16871701 262 27297400 71 44 65 1643
-0.26200968 -1.5561131 -0.17778386 247 27297400 62 45 52 1588
-0.19760807 -1.5077941 -0.18582802 277 27297400 65 46 121 1532
-0.14187492 -1.507197 -0.1998948 200 27297400 47 47 132 1527
-0.47560045 -2.300328 -0.32966766 454 27297400 256 48 88 2372
-0.26307058 -1.5582609 -0.23710968 257 27297400 66 49 18 1598
-0.21115303 -1.6046239 -0.2586844 179 27297400 48 50 58 1639
-0.14484368 -1.5341437 -0.26152024 233 27297400 57 51 88 1563
-0.47384456 -2.2815907 -0.41533709 441 27297400 247 52 102 2367
-0.33754206 -1.9932353 -0.37990525 271 27297400 115 53 75 2057
-0.20796099 -1.5765374 -0.31452084 130 27297400 34 54 78 1621
-0.14076824 -1.491256 -0.31183332 115 27297400 27 55 62 1530
-0.47661734 -2.2885211 -0.50712103 425 27297400 243 56 128 2392
-0.3774718 -2.2219586 -0.51101524 402 27297400 215 57 82 2311
-0.19765782 -1.4962142 -0.35759744 358 27297400 86 58 91 1551
-0.13650894 -1.4447867 -0.35914096 327 27297400 73 59 101 1495
-0.47425413 -2.2639079 -0.59358889 452 27297400 258 60 53 2388
-0.37712815 -2.2087278 -0.59754246 433 27297400 233 61 56 2319
-0.28538877 -2.1571231 -0.60327238 371 27297400 189 62 55 2258
-0.14081711 -1.4970795 -0.43376127 142 27297400 35 63 76 1565
-0.36425883 -1.7289714 0.55152035 78 27395270 27 0 47 1851
-0.29318812 -1.7125102 0.52148432 74 27395270 24 1 67 1814
-0.23540139 -1.7729695 0.51788968 55 27395270 19 2 38 1862
-0.15486458 -1.6367525 0.45924702 87 27395270 25 3 44 1707
-0.37464869 -1.7827599 0.49211255 85 27395270 30 4 63 1887
-0.2975429 -1.7333989 0.45638335 69 27395270 23 5 34 1817
-0.2302946 -1.7294168 0.43461019 82 27395270 27 6 73 1798
-0.15528215 -1.6236377 0.38989392 82 27395270 23 7 59 1677
-0.36941174 -1.7595184 0.41431302 65 27395270 22 8 54 1845
-0.29855892 -1.7433324 0.38907093 85 27395270 28 9 26 1811
-0.22789507 -1.7043493 0.36098039 70 27395270 22 10 39 1757
-0.15845063 -1.6416497 0.33015716 66 27395270 19 11 41 1682
-0.34984422 -1.6676202 0.32692087 64 27395270 19 12 79 1735
-0.30045491 -1.7503635 0.32245904 59 27395270 19 13 46 1805
-0.22276917 -1.663583 0.28822646 57 27395270 17 14 96 1703
-0.15753309 -1.6279835 0.26552263 71 27395270 19 15 53 1657
-0.34905499 -1.6637138 0.26194891 70 27395270 21 16 29 1720
-0.28872094 -1.6797189 0.24590451 69 27395270 21 17 64 1722
-0.22372518 -1.6638784 0.226035 77 27395270 22 18 69 1694
-0.16340138 -1.6779355 0.21079339 60 27395270 17 19 72 1699
-0.35469246 -1.690437 0.20183535 62 27395270 19 20 75 1739
-0.28188673 -1.6384174 0.17807975 199 27395270 55 21 56 1672
-0.21521728 -1.5949128 0.15692084 70 27395270 18 22 81 1617
-0.16630784 -1.6982559 0.15045932 57 27395270 17 23 125 1713
-0.34092599 -1.6232764 0.13281412 258 27395270 71 24 29 1664
-0.28204182 -1.6367544 0.11710115 230 27395270 64 25 59 1665
-0.22243562 -1.6479719 0.10132957 66 27395270 18 26 122 1666
-0.15657935 -1.5891904 0.082208075 59 27395270 15 27 91 1599
-0.33960801 -1.6130816 0.071655519 280 27395270 76 28 11 1650
-0.27839044 -1.6122016 0.055445783 213 27395270 57 29 14 1637
-0.22043091 -1.6215887 0.040366787 200 27395270 54 30 36 1637
-0.14662604 -1.482601 0.022259802 223 27395270 50 31 70 1490
-0.34618688 -1.643903 0.011728518 229 27395270 65 32 38 1680
-0.28408566 -1.641595 -0.0042161876 245 27395270 68 33 42 1666
-0.21609694 -1.5882522 -0.019136243 192 27395270 49 34 80 1603
-0.14776401 -1.48432 -0.032001093 235 27395270 52 35 65 1492
-0.34952965 -1.6557635 -0.05025449 212 27395270 61 36 92 1693
-0.27206737 -1.565317 -0.062145814 239 27395270 60 37 45 1590
-0.21638618 -1.5854065 -0.077894285 203 27395270 52 38 139 1602
-0.15276316 -1.5348092 -0.089717112 223 27395270 53 39 69 1545
-0.34152609 -1.6115854 -0.10933196 303 27395270 82 40 50 1651
-0.28316271 -1.6247827 -0.12496475 241 27395270 66 41 54 1654
-0.21224819 -1.5518541 -0.13372867 264 27395270 65 42 170 1572
-0.15455295 -1.5443127 -0.14728372 248 27395270 60 43 72 1559
-0.48809874 -2.2992713 -0.24265264 435 27395270 243 44 120 2363
-0.27360493 -1.5662228 -0.17912731 260 27395270 66 45 47 1600
-0.21171685 -1.5419554 -0.19019474 252 27395270 62 46 119 1568
-0.16180851 -1.612834 -0.21403275 83 27395270 22 47 114 1635
-0.48970607 -2.2973664 -0.32966766 468 27395270 263 48 89 2372
-0.27262694 -1.5566174 -0.23710968 226 27395270 58 49 12 1598
-0.2096687 -1.5211278 -0.24542663 343 27395270 83 50 110 1555
-0.1495171 -1.4861404 -0.25348893 303 27395270 70 51 103 1515
-0.49030843 -2.2901924 -0.41744274 449 27395270 254 52 113 2379
-0.39669615 -2.2582881 -0.43087944 381 27395270 207 53 95 2333
-0.22890811 -1.6568599 -0.33081928 69 27395270 20 54 77 1705
-0.15579481 -1.5488098 -0.32406208 132 27395270 33 55 66 1590
-0.49311188 -2.2970195 -0.50966507 444 27395270 257 56 121 2404
-0.39515996 -2.2426515 -0.5163222 414 27395270 226 57 58 2335
-0.20523441 -1.4834065 -0.35483071 324 27395270 77 58 99 1539
-0.14770514 -1.4671018 -0.3649064 235 27395270 54 59 87 1519
-0.4930422 -2.2836788 -0.5995546 455 27395270 265 60 48 2412
-0.39269519 -2.2177894 -0.60063457 421 27395270 229 61 47 2331
-0.29861927 -2.1553314 -0.60327238 369 27395270 188 62 68 2258
-0.1488502 -1.4847149 -0.4304353 169 27395270 41 63 87 1553
-0.38944206 -1.7938689 0.57297337 68 27493630 25 0 56 1923
-0.3097173 -1.7446285 0.53183347 84 27493630 29 1 84 1850
-0.23516552 -1.6915748 0.49452624 49 27493630 15 2 57 1778
-0.1614268 -1.6012735 0.44956169 72 27493630 20 3 37 1671
-0.39048451 -1.8030721 0.49837157 75 27493630 28 4 73 1911
-0.3102085 -1.7429762 0.45939746 63 27493630 21 5 44 1829
-0.23447058 -1.6818408 0.4230077 67 27493630 21 6 95 1750
-0.16642411 -1.6342655 0.39268386 88 27493630 25 7 72 1689
-0.37772816 -1.7457895 0.41161832 62 27493630 21 8 48 1833
-0.30105361 -1.6953106 0.37875873 78 27493630 24 9 32 1763
-0.2350927 -1.6796575 0.35604951 64 27493630 19 10 49 1733
-0.1709252 -1.6640565 0.33486807 88 27493630 26 11 28 1706
-0.37750274 -1.7460746 0.34274873 83 27493630 28 12 80 1819
-0.28843194 -1.6206198 0.29887757 65 27493630 18 13 59 1673
-0.21983962 -1.5684857 0.27197883 61 27493630 16 14 74 1607
-0.1650929 -1.6034211 0.26167682 73 27493630 20 15 65 1633
-0.38181478 -1.76587 0.27839687 92 27493630 31 16 28 1828
-0.29902205 -1.6779157 0.24590451 73 27493630 22 17 72 1722
-0.23227321 -1.6506977 0.22443379 83 27493630 24 18 75 1682
-0.17369393 -1.6769013 0.21079339 62 27493630 18 19 87 1699
-0.37261537 -1.7231778 0.20601365 67 27493630 21 20 77 1775
-0.2940298 -1.6484034 0.17935786 259 27493630 73 21 20 1684
-0.24169697 -1.7118229 0.16856617 56 27493630 17 22 70 1737
-0.15815496 -1.5188633 0.13464925 46 27493630 11 23 105 1533
-0.35594058 -1.6445359 0.13472973 238 27493630 68 24 27 1688
-0.29207945 -1.6349931 0.11710115 233 27493630 64 25 37 1665
-0.23086821 -1.6347158 0.10059971 138 27493630 38 26 130 1654
-0.1700722 -1.6239566 0.084058918 52 27493630 14 27 100 1635
-0.35458291 -1.6343997 0.072697774 288 27493630 81 28 23 1674
-0.29884353 -1.6694903 0.057478003 194 27493630 56 29 1 1697
-0.22699909 -1.5964519 0.039774973 211 27493630 55 30 40 1613
-0.16324508 -1.5532709 0.023335442 125 27493630 31 31 61 1562
-0.36135671 -1.6652015 0.011896068 232 27493630 67 32 37 1704
-0.28991544 -1.6161981 -0.00415545 224 27493630 60 33 40 1642
-0.2258382 -1.5868963 -0.019136243 231 27493630 59 34 71 1603
-0.15813053 -1.4953161 -0.032258473 235 27493630 53 35 61 1504
-0.35968265 -1.6535877 -0.05025449 218 27493630 63 36 94 1693
-0.29017001 -1.6108218 -0.064021915 253 27493630 68 37 29 1638
-0.22610998 -1.584049 -0.077894285 224 27493630 57 38 120 1602
-0.16343734 -1.5457563 -0.090413943 202 27493630 49 39 69 1557
-0.34885401 -1.5977615 -0.10853729 265 27493630 71 40 60 1639
-0.28674683 -1.587689 -0.12224484 234 27493630 61 41 66 1618
-0.22345908 -1.5623587 -0.1347495 270 27493630 68 42 173 1584
-0.16276322 -1.531456 -0.14615004 234 27493630 56 43 75 1547
-0.51494914 -2.354538 -0.24881393 453 27493630 266 44 122 2423
-0.28320992 -1.5645145 -0.17912731 238 27493630 61 45 35 1600
-0.22286677 -1.5524176 -0.1916503 233 27493630 58 46 132 1580
-0.16666085 -1.5644915 -0.20774922 78 27493630 20 47 119 1587
-0.50889063 -2.3175323 -0.33300325 475 27493630 273 48 99 2396
-0.29488671 -1.624974 -0.24779297 206 27493630 57 49 29 1670
-0.21561816 -1.4963558 -0.24163868 290 27493630 68 50 111 1531
-0.16114607 -1.5087228 -0.25750458 274 27493630 65 51 88 1539
-0.50435156 -2.2871408 -0.41744274 428 27493630 242 52 103 2379
-0.40843359 -2.2442083 -0.42866313 397 27493630 214 53 101 2321
-0.22560927 -1.5622156 -0.3121925 123 27493630 32 54 81 1609
-0.16280019 -1.5244614 -0.31917059 192 27493630 47 55 80 1566
-0.50972861 -2.3054013 -0.51220918 434 27493630 253 56 127 2416
-0.41101468 -2.2516973 -0.51897568 369 27493630 203 57 72 2347
-0.25444159 -1.7594751 -0.42123181 268 27493630 90 58 88 1827
-0.16041818 -1.5009158 -0.37355462 331 27493630 80 59 80 1555
-0.50956792 -2.2919567 -0.60253745 448 27493630 263 60 53 2424
-0.41257071 -2.249552 -0.60991079 425 27493630 238 61 51 2367
-0.31846747 -2.1992362 -0.61609656 384 27493630 204 62 53 2306
-0.15551636 -1.4608434 -0.42378336 57 27493630 13 63 42 1529
-0.38045084 -1.7020131 0.5443694 60 27591980 20 0 52 1827
-0.31418118 -1.7087834 0.52148432 85 27591980 28 1 59 1814
-0.242226 -1.6672865 0.48785096 46 27591980 14 2 44 1754
-0.17247878 -1.6117449 0.45279011 81 27591980 23 3 35 1683
-0.39145479 -1.7554141 0.48585355 72 27591980 25 4 69 1863
-0.31879196 -1.729617 0.45638335 64 27591980 21 5 40 1817
-0.25149986 -1.7264606 0.43461019 61 27591980 20 6 88 1798
-0.1789559 -1.6564208 0.39826372 78 27591980 23 7 61 1713
-0.39606181 -1.77768 0.41970247 58 27591980 20 8 69 1869
-0.29873073 -1.6242726 0.3632904 67 27591980 19 9 38 1691
-0.24539447 -1.6781833 0.35604951 67 27591980 20 10 45 1733
-0.1849547 -1.6980686 0.34193447 74 27591980 22 11 34 1742
-0.39333138 -1.7667321 0.34727097 68 27591980 23 12 95 1843
-0.3197718 -1.7349333 0.32031527 62 27591980 20 13 32 1793
-0.25516126 -1.7426388 0.30244315 53 27591980 17 14 93 1787
-0.16978639 -1.5552778 0.25398514 71 27591980 18 15 58 1585
-0.39522028 -1.7750705 0.28022444 69 27591980 23 16 28 1840
-0.30068997 -1.6293302 0.23905002 57 27591980 16 17 61 1674
-0.24931474 -1.6963066 0.23083858 57 27591980 17 18 65 1730
-0.18657881 -1.6994762 0.21377105 60 27591980 18 19 99 1723
-0.37540999 -1.6859571 0.20183535 62 27591980 19 20 59 1739
-0.29546964 -1.599635 0.17424551 258 27591980 69 21 74 1636
-0.23128852 -1.5685204 0.15459175 69 27591980 18 22 81 1593
-0.1858246 -1.6842057 0.14940532 56 27591980 16 23 116 1701
-0.36862662 -1.6539962 0.13568752 236 27591980 68 24 33 1700
-0.29992875 -1.6213995 0.11625718 230 27591980 63 25 47 1653
-0.24089429 -1.6332685 0.10059971 219 27591980 60 26 124 1654
-0.18267609 -1.6467046 0.085292801 41 27591980 11 27 75 1659
-0.3724457 -1.6672941 0.074261166 298 27591980 87 28 4 1710
-0.30252489 -1.6322485 0.056258675 224 27591980 62 29 12 1661
-0.24383694 -1.6424942 0.040958606 199 27591980 55 30 42 1661
-0.18206392 -1.6357151 0.024590356 101 27591980 27 31 71 1646
-0.37156737 -1.662953 0.011896068 240 27591980 70 32 57 1704
-0.30859151 -1.6615815 -0.0042769248 259 27591980 74 33 31 1690
-0.24262486 -1.6329561 -0.019709256 218 27591980 60 34 86 1651
-0.17130722 -1.5300859 -0.033030618 238 27591980 57 35 71 1540
-0.38292864 -1.7098736 -0.052035511 196 27591980 60 36 102 1753
-0.30004838 -1.6090111 -0.064021915 237 27591980 64 37 37 1638
-0.23759174 -1.5944866 -0.078477763 266 27591980 69 38 124 1614
-0.17291884 -1.5447245 -0.090413943 219 27591980 53 39 59 1557
-0.3639029 -1.6189553 -0.11012662 248 27591980 69 40 68 1663
-0.29648331 -1.5858997 -0.12224484 227 27591980 60 41 65 1618
-0.23304133 -1.5609583 -0.1347495 257 27591980 64 42 150 1584
-0.17482783 -1.5541714 -0.14841741 230 27591980 57 43 75 1571
-0.53200841 -2.3629789 -0.25004619 466 27591980 276 44 92 2435
-0.30378446 -1.6213504 -0.18584459 248 27591980 68 45 44 1660
-0.23062307 -1.5392411 -0.19019474 241 27591980 59 46 108 1568
-0.17492448 -1.5516176 -0.20617832 129 27591980 32 47 133 1575
-0.52834088 -2.3375485 -0.33633882 433 27591980 254 48 100 2420
-0.4231416 -2.252949 -0.34394258 272 27591980 146 49 64 2318
-0.22831948 -1.5184404 -0.24542663 302 27591980 73 50 99 1555
-0.17172904 -1.5194616 -0.25951242 262 27591980 63 51 67 1551
-0.52360517 -2.3070447 -0.42165402 434 27591980 251 52 107 2403
-0.42874458 -2.2764294 -0.43531194 412 27591980 229 53 83 2357
-0.24571498 -1.6306452 -0.32616261 88 27591980 25 54 84 1681
-0.17610854 -1.5584552 -0.32650784 77 27591980 20 55 65 1602
-0.52386475 -2.3022304 -0.51220918 425 27591980 248 56 127 2416
-0.42699519 -2.2606328 -0.52162915 395 27591980 220 57 74 2359
-0.33317411 -2.2081752 -0.5291335 379 27591980 200 58 60 2295
-0.16438861 -1.453604 -0.36202368 370 27591980 84 59 95 1507
-0.52880591 -2.3114483 -0.60850322 458 27591980 274 60 53 2448
-0.42636594 -2.246978 -0.60991079 401 27591980 225 61 60 2367
-0.33195573 -2.1972406 -0.61609656 384 27591980 204 62 66 2306
-0.17222215 -1.5286061 -0.44373915 105 27591980 27 63 50 1601
-0.40115666 -1.7443007 0.55867136 62 27688780 22 0 54 1875
-0.32895553 -1.7294054 0.52838373 73 27688780 25 1 85 1838
-0.25936031 -1.7113543 0.50120151 53 27688780 17 2 39 1802
-0.1940676 -1.7140138 0.48184618 98 27688780 31 3 33 1791
-0.40480924 -1.7642705 0.48898306 79 27688780 28 4 69 1875
-0.32939869 -1.7276284 0.45638335 70 27688780 23 5 40 1817
-0.24634568 -1.6212766 0.40850458 86 27688780 25 6 89 1690
-0.18779133 -1.643696 0.39547381 72 27688780 21 7 61 1701
-0.40696198 -1.7752163 0.41970247 51 27688780 18 8 66 1869
-0.3240256 -1.7030017 0.38133678 77 27688780 24 9 33 1775
-0.255687 -1.6766461 0.35604951 72 27688780 22 10 47 1733
-0.19133288 -1.6618338 0.33486807 87 27688780 25 11 37 1706
-0.39100662 -1.7068481 0.33596537 66 27688780 21 12 102 1783
-0.34810185 -1.8257227 0.33746544 67 27688780 24 13 50 1889
-0.26227868 -1.7176577 0.29838124 61 27688780 19 14 95 1763
-0.18611458 -1.6130412 0.26359972 66 27688780 18 15 36 1645
-0.39815897 -1.7379307 0.2747418 65 27688780 21 16 27 1804
-0.34186125 -1.7907833 0.26304072 52 27688780 18 17 67 1842
-0.25071082 -1.6359676 0.22283261 63 27688780 17 18 53 1670
-0.19014287 -1.6391596 0.2063269 63 27688780 18 19 71 1663
-0.41236636 -1.7998004 0.21576303 74 27688780 26 20 70 1859
-0.31647533 -1.6563908 0.18063593 224 27688780 64 21 54 1696
-0.25361168 -1.6497045 0.16274349 56 27688780 16 22 84 1677
-0.19061995 -1.6355407 0.1451893 39 27688780 11 23 103 1653
-0.39213672 -1.7099987 0.1404765 82 27688780 25 24 46 1760
-0.31437084 -1.6430427 0.11794512 242 27688780 68 25 29 1677
-0.24545011 -1.5962436 0.098410107 198 27688780 52 26 117 1618
-0.19277665 -1.6455526 0.085292801 58 27688780 16 27 104 1659
-0.3799836 -1.6532934 0.073740043 285 27688780 82 28 1 1698
-0.31479242 -1.6421402 0.056665119 225 27688780 63 29 16 1673
-0.25024173 -1.6172566 0.040366787 224 27688780 60 30 53 1637
-0.18369429 -1.5630674 0.023514716 177 27688780 44 31 73 1574
-0.38714102 -1.684031 0.012063618 230 27688780 69 32 38 1728
-0.31651747 -1.6478722 -0.0042465562 235 27688780 66 33 21 1678
-0.24713114 -1.5958633 -0.019279499 190 27688780 50 34 68 1615
-0.18350843 -1.5528347 -0.033545382 250 27688780 61 35 62 1564
-0.37994763 -1.6490493 -0.05025449 221 27688780 63 36 81 1693
-0.30764496 -1.5953658 -0.063552886 223 27688780 59 37 48 1626
-0.24921004 -1.6048427 -0.07906124 245 27688780 65 38 129 1626
-0.18239383 -1.5436343 -0.090413943 215 27688780 52 39 55 1557
-0.53837782 -2.3283086 -0.15860088 414 27688780 238 40 92 2395
-0.31529272 -1.6310437 -0.12587139 232 27688780 64 41 50 1666
-0.24261481 -1.5594989 -0.1347495 258 27688780 65 42 148 1584
-0.18154429 -1.5293434 -0.14615004 252 27688780 60 43 89 1547
-0.5464974 -2.3596702 -0.25004619 469 27688780 278 44 95 2435
-0.30692342 -1.5843351 -0.18181422 267 27688780 70 45 31 1624
-0.25108665 -1.6084102 -0.19892818 258 27688780 69 46 118 1640
-0.18163121 -1.5268883 -0.20303658 48 27688780 12 47 108 1551
-0.54267383 -2.3342626 -0.33633882 458 27688780 268 48 101 2420
-0.44826785 -2.308558 -0.35284531 368 27688780 208 49 63 2378
-0.23946597 -1.5287176 -0.24732059 338 27688780 83 50 112 1567
-0.17684676 -1.4831365 -0.25348893 309 27688780 71 51 114 1515
-0.5458073 -2.3383021 -0.42797092 441 27688780 262 52 101 2439
-0.44045052 -2.2621796 -0.43309566 439 27688780 242 53 92 2345
-0.25571579 -1.6291068 -0.32616261 75 27688780 21 54 77 1681
-0.18566772 -1.5573454 -0.32650784 84 27688780 22 55 63 1602
-0.54332525 -2.32181 -0.51729739 422 27688780 251 56 126 2440
-0.44534332 -2.2809422 -0.52693611 394 27688780 224 57 66 2383
-0.35034275 -2.2291596 -0.53466696 370 27688780 199 58 58 2319
-0.17468466 -1.4641345 -0.3649064 271 27688780 63 59 86 1519
-0.54564035 -2.3194745 -0.61148602 449 27688780 271 60 55 2460
-0.44460791 -2.2670755 -0.61609489 450 27688780 257 61 53 2391
-0.34722906 -2.2065856 -0.61930263 398 27688780 214 62 75 2318
-0.208821 -1.7565055 -0.51025844 254 27688780 86 63 85 1841
-0.41975948 -1.7752491 0.56939787 72 27787140 26 0 44 1911
-0.34842852 -1.7724649 0.54218262 64 27787140 23 1 82 1886
-0.28063837 -1.778044 0.5212273 52 27787140 18 2 51 1874
-0.19498585 -1.6324589 0.45924702 77 27787140 22 3 40 1707
-0.42626703 -1.8068544 0.50150102 74 27787140 28 4 61 1923
-0.339993 -1.7255747 0.45638335 61 27787140 20 5 27 1817
-0.26538804 -1.67724 0.4230077 67 27787140 21 6 89 1750
-0.1964774 -1.6309253 0.39268386 75 27787140 22 7 68 1689
-0.41784686 -1.7726859 0.41970247 81 27787140 28 8 55 1869
-0.33220774 -1.689482 0.37875873 73 27787140 23 9 29 1763
-0.26228651 -1.6518483 0.35111865 50 27787140 15 10 77 1709
-0.20010856 -1.6489476 0.33251262 77 27787140 22 11 31 1694
-0.42579028 -1.8076568 0.35631546 68 27787140 24 12 76 1891
-0.34103802 -1.7308786 0.32031527 76 27787140 24 13 47 1793
-0.27652693 -1.7393764 0.30244315 67 27787140 21 14 101 1787
-0.19600852 -1.6118689 0.26359972 73 27787140 20 15 42 1645
-0.40881521 -1.7354549 0.2747418 73 27787140 24 16 34 1804
-0.35054418 -1.7769995 0.26132709 64 27787140 22 17 72 1830
-0.27573308 -1.7283518 0.23564215 68 27787140 21 18 51 1766
-0.20164157 -1.6497813 0.20781574 51 27787140 14 19 72 1675
-0.39607102 -1.6812233 0.20183535 53 27787140 16 20 74 1739
-0.33125493 -1.6778293 0.18319209 109 27787140 32 21 64 1720
-0.27505222 -1.7188772 0.16973069 89 27787140 27 22 59 1749
-0.19628194 -1.5987467 0.14202727 63 27787140 17 23 97 1617
-0.40536684 -1.7192029 0.14143428 54 27787140 17 24 67 1772
-0.3267681 -1.6528258 0.1187891 253 27787140 72 25 29 1689
-0.25902587 -1.6183621 0.09986984 221 27787140 60 26 123 1642
-0.20873961 -1.6919147 0.08776059 58 27787140 17 27 77 1707
-0.39012089 -1.6509308 0.073740043 291 27787140 84 28 1 1698
-0.33185294 -1.6754714 0.057884451 206 27787140 60 29 4 1709
-0.2658816 -1.6512221 0.041254513 211 27787140 59 30 27 1673
-0.19622873 -1.5857265 0.023873262 231 27787140 59 31 66 1598
-0.39470658 -1.669946 0.011979843 221 27787140 65 32 63 1716
-0.32428685 -1.6341287 -0.0042161876 229 27787140 63 33 46 1666
-0.26264548 -1.6298559 -0.019709256 230 27787140 63 34 70 1651
-0.19747618 -1.5873958 -0.034317523 224 27787140 57 35 58 1600
-0.40111783 -1.6933738 -0.051679306 230 27787140 70 36 97 1741
-0.31977081 -1.6052078 -0.064021915 246 27787140 66 37 34 1638
-0.25714067 -1.5914509 -0.078477763 240 27787140 62 38 135 1614
-0.19481938 -1.5662625 -0.091807611 213 27787140 53 39 52 1581
-0.57203716 -2.4065049 -0.16416349 451 27787140 277 40 99 2479
-0.3182655 -1.5938761 -0.12315148 242 27787140 64 41 38 1630
-0.25217915 -1.5579809 -0.1347495 247 27787140 62 42 159 1584
-0.19388674 -1.551909 -0.14841741 238 27787140 59 43 76 1571
-0.56096578 -2.3562725 -0.25004619 478 27787140 283 44 118 2435
-0.32131836 -1.6058077 -0.18450114 199 27787140 54 45 59 1648
-0.24949457 -1.5362951 -0.19019474 268 27787140 66 46 128 1568
-0.20134071 -1.6083772 -0.21403275 81 27787140 22 47 122 1635
-0.56527215 -2.3655632 -0.34134221 202 27787140 122 48 107 2456
-0.46242443 -2.305764 -0.35284531 372 27787140 210 49 53 2378
-0.25074711 -1.538915 -0.24921456 281 27787140 70 50 95 1579
-0.18594378 -1.4820235 -0.25348893 264 27787140 61 51 82 1515
-0.5573886 -2.3234212 -0.42586526 453 27787140 267 52 118 2427
-0.45897251 -2.2825589 -0.43752825 411 27787140 231 53 85 2369
-0.33019742 -2.0225234 -0.40532637 231 27787140 101 54 116 2089
-0.18937063 -1.5095496 -0.31672481 229 27787140 55 55 72 1554
