# .PCD v0.7 - Point Cloud Data file format
VERSION 0.7
FIELDS x y z intensity t reflectivity ring noise range
SIZE 4 4 4 4 4 2 1 2 4
TYPE F F F F U U U U U
COUNT 1 1 1 1 1 1 1 1 1
WIDTH 779
HEIGHT 1
VIEWPOINT 0 0 0 1 0 0 0
POINTS 779
DATA ascii
0.76026511 5.9215741 0.42093116 300 76873390 1076 25 58 5985
0.54532635 5.962008 0.36481076 274 76873390 987 26 74 5998
0.32979056 5.9619784 0.3073934 232 76873390 830 27 90 5979
0.98095226 5.907454 0.26030496 180 76873390 646 28 27 5994
0.76633835 5.9524269 0.20339152 187 76873390 674 29 21 6005
0.55133927 5.9657555 0.14778142 187 76873390 671 30 32 5993
0.33232263 5.9680877 0.089308113 309 76873390 1103 31 39 5978
0.9713496 5.8477311 0.041384913 614 76873390 2159 32 82 5928
0.7603792 5.8890953 -0.015027444 494 76873390 1740 33 52 5938
0.55016959 5.9451723 -0.07128042 319 76873390 1136 34 51 5971
0.33827347 6.0050964 -0.12903389 273 76873390 986 35 52 6016
0.96016711 5.7629857 -0.17350118 870 76873390 2972 36 114 5845
0.75124586 5.7849641 -0.22818068 826 76873390 2817 37 63 5838
0.54196799 5.8299294 -0.2850289 843 76873390 2896 38 142 5862
0.32987368 5.8578024 -0.34127346 755 76873390 2609 39 66 5877
0.96003419 5.7344022 -0.38587359 906 76873390 3077 40 85 5827
0.74971378 5.7527242 -0.43956769 869 76873390 2942 41 79 5818
0.53949165 5.7857618 -0.49612316 908 76873390 3088 42 106 5832
0.32951438 5.7955608 -0.55087328 931 76873390 3167 43 59 5831
0.96366382 5.7437701 -0.60124046 931 76873390 3192 44 98 5855
0.75330174 5.7622042 -0.65471029 891 76873390 3049 45 59 5848
0.54232782 5.7834182 -0.70983392 899 76873390 3080 46 99 5852
0.33113921 5.7991352 -0.76698339 938 76873390 3220 47 118 5859
0.96367908 5.714519 -0.81332844 974 76873390 3337 48 76 5852
0.75809473 5.7792473 -0.87454593 873 76873390 3031 49 45 5894
0.54465878 5.7757401 -0.92725497 898 76873390 3098 50 56 5875
0.33430403 5.8259749 -0.9903636 914 76873390 3204 51 61 5919
0.97015828 5.7218747 -1.0343946 924 76873390 3212 52 90 5895
0.75822455 5.757637 -1.0913273 892 76873390 3116 53 74 5909
0.54677355 5.7787428 -1.148069 898 76873390 3142 54 55 5917
0.33337966 5.8116388 -1.2118698 906 76873390 3202 55 47 5946
0.97621691 5.7381611 -1.2627144 733 76873390 2600 56 108 5956
0.76331621 5.7729483 -1.3203254 827 76873390 2947 57 54 5971
0.54804218 5.7803168 -1.3757472 857 76873390 3049 58 57 5967
0.33378661 5.8098655 -1.4401672 926 76873390 3329 59 68 5995
0.97945583 5.7167597 -1.4884466 934 76873390 3351 60 61 5988
0.76666093 5.7610998 -1.5499001 917 76873390 3317 61 24 6015
0.55031282 5.7924309 -1.6131791 827 76873390 3013 62 56 6038
0.33114877 5.8064251 -1.6776721 818 76873390 2995 63 48 6053
1.0111434 5.8614058 1.8565767 785 76969750 3049 0 70 6231
0.78672063 5.8917356 1.7840858 852 76969750 3283 1 75 6206
0.5643608 5.9111891 1.7194382 726 76969750 2773 2 54 6182
0.34101924 5.9221058 1.657002 842 76969750 3193 3 50 6159
1.0019279 5.8255839 1.5968231 827 76969750 3102 4 69 6123
0.78416377 5.8531189 1.5324132 830 76969750 3088 5 38 6101
0.563155 5.8747163 1.4701331 798 76969750 2953 6 70 6082
0.34462178 5.8809352 1.4082215 854 76969750 3131 7 52 6057
1.0032775 5.8401437 1.3655488 713 76969750 2638 8 69 6081
0.78041583 5.8421874 1.296545 710 76969750 2587 9 73 6035
0.56508529 5.861464 1.2362088 787 76969750 2848 10 53 6017
0.34941027 5.8748569 1.1781232 800 76969750 2880 11 56 6002
0.99791217 5.8143849 1.1318811 487 76969750 1759 12 58 6007
0.77828884 5.8092675 1.0642042 566 76969750 2010 13 64 5957
0.56508917 5.8497462 1.0092157 603 76969750 2145 14 82 5963
0.35029936 5.865622 0.9539265 710 76969750 2514 15 49 5953
1.0199122 5.941947 0.92900497 222 76969750 825 16 34 6100
0.78594422 5.8563123 0.85252607 335 76969750 1192 17 57 5970
0.56595391 5.8257623 0.78805351 441 76969750 1540 18 59 5906
0.35395247 5.866569 0.73486125 556 76969750 1952 19 65 5923
1.0161736 5.9195461 0.70183921 251 76969750 916 20 55 6047
0.80452538 5.9876313 0.64713675 158 76969750 585 21 68 6076
0.58340317 5.9761157 0.58546901 137 76969750 497 22 55 6033
0.36444825 5.9866471 0.5288474 204 76969750 740 23 90 6021
1.0164057 5.9140892 0.48049346 295 76969750 1068 24 35 6020
0.79818207 5.9286613 0.42177513 349 76969750 1254 25 49 5997
0.57724154 5.9108653 0.36189133 319 76969750 1131 26 67 5950
0.36710167 5.9718046 0.30801037 283 76969750 1016 27 86 5991
1.0171813 5.9013238 0.26030496 211 76969750 756 28 54 5994
0.80284733 5.9476123 0.20339152 150 76969750 540 29 28 6005
0.58793408 5.9622602 0.14778142 162 76969750 581 30 28 5993
0.36893588 5.9659362 0.089308113 282 76969750 1006 31 51 5978
1.0051734 5.8298354 0.041301139 670 76969750 2346 32 72 5916
0.79328042 5.8605361 -0.014966708 541 76969750 1894 33 68 5914
0.58899605 5.9655671 -0.071566924 368 76969750 1324 34 68 5995
0.37212077 5.9550123 -0.12800437 326 76969750 1163 35 59 5968
0.9934662 5.7451663 -0.17314497 872 76969750 2967 36 91 5833
0.78511041 5.7683644 -0.22771165 842 76969750 2857 37 47 5826
0.57654685 5.8145671 -0.28444543 870 76969750 2977 38 138 5850
0.36581028 5.8556681 -0.34127346 807 76969750 2786 39 48 5877
0.99315226 5.7166061 -0.38507894 950 76969750 3213 40 77 5815
0.7849977 5.7480159 -0.43956769 880 76969750 2980 41 78 5818
0.5726161 5.7585468 -0.4940815 899 76969750 3032 42 116 5808
0.36506906 5.7934299 -0.55087328 901 76969750 3065 43 63 5831
0.99479425 5.7142291 -0.59877592 929 76969750 3160 44 94 5831
0.78864378 5.7574735 -0.65471029 904 76969750 3091 45 38 5848
0.57898885 5.7918339 -0.71128953 911 76969750 3133 46 105 5864
0.36746687 5.808867 -0.76855427 862 76969750 2971 47 109 5871
1.0007725 5.7202044 -0.81499624 910 76969750 3130 48 80 5864
0.79354125 5.774487 -0.87454593 872 76969750 3028 49 45 5894
0.5812726 5.7840796 -0.92914885 888 76969750 3076 50 57 5887
0.36854485 5.8002005 -0.98634797 923 76969750 3209 51 61 5895
1.0052488 5.7158141 -1.0343946 949 76969750 3299 52 79 5895
0.79353851 5.7528763 -1.0913273 916 76969750 3200 53 66 5909
0.58222097 5.775279 -1.148069 914 76969750 3201 54 82 5917
0.3675434 5.7860351 -1.2069784 916 76969750 3211 55 50 5922
1.013445 5.7436118 -1.2652586 876 76969750 3120 56 102 5968
0.79711878 5.7565637 -1.3176719 913 76969750 3243 57 65 5959
0.58349925 5.7768455 -1.3757472 841 76969750 2996 58 67 5967
0.36795002 5.7844572 -1.4344016 912 76969750 3253 59 79 5971
1.0185809 5.7335305 -1.4944122 935 76969750 3381 60 78 6012
0.80199593 5.7562871 -1.5499001 874 76969750 3161 61 48 6015
0.5858441 5.7889452 -1.6131791 841 76969750 3068 62 64 6038
0.36749721 5.8157902 -1.6809981 766 76969750 2816 63 57 6065
1.0470893 5.8550911 1.8565767 781 77066870 3034 0 69 6231
0.81808352 5.8526487 1.7737365 839 77066870 3196 1 74 6170
0.6029523 5.9305496 1.7261134 759 77066870 2925 2 58 6206
0.37587973 5.8968334 1.6505451 845 77066870 3180 3 29 6135
1.0437549 5.8535414 1.6062117 849 77066870 3222 4 77 6159
0.82490194 5.8827052 1.5414554 763 77066870 2872 5 38 6137
0.60155547 5.8943186 1.4759343 727 77066870 2712 6 60 6106
0.38145429 5.890357 1.4110115 850 77066870 3132 7 72 6069
1.0370425 5.8223653 1.3628541 686 77066870 2528 8 75 6069
0.81949419 5.8605027 1.3017012 698 77066870 2564 9 82 6059
0.6022386 5.8695688 1.2386743 762 77066870 2769 10 43 6029
0.38545114 5.8726025 1.1781232 812 77066870 2924 11 37 6002
1.0397639 5.8429604 1.1386644 483 77066870 1764 12 103 6043
0.81719834 5.8277678 1.0684918 559 77066870 2002 13 62 5981
0.59976244 5.834404 1.0071847 624 77066870 2211 14 65 5951
0.38472623 5.8397241 0.95008069 706 77066870 2480 15 57 5929
1.0646644 5.9822831 0.93631512 216 77066870 816 16 25 6148
0.82681912 5.8866644 0.85766697 285 77066870 1027 17 45 6006
0.6041345 5.8458395 0.79125595 400 77066870 1405 18 54 5930
0.38757232 5.8286433 0.73039472 529 77066870 1832 19 49 5887
1.0545647 5.9249344 0.70323199 272 77066870 1000 20 59 6059
0.83958817 5.9707665 0.64585865 191 77066870 701 21 56 6064
0.6212942 5.984303 0.5866335 137 77066870 502 22 60 6045
0.40197432 5.9962254 0.52990144 188 77066870 685 23 92 6033
1.0463797 5.8724122 0.47762007 269 77066870 962 24 47 5984
0.8345446 5.9236522 0.42177513 319 77066870 1149 25 61 5997
0.61473638 5.919126 0.36262119 335 77066870 1191 26 89 5962
0.40373707 5.9694395 0.30801037 278 77066870 998 27 108 5991
1.0575895 5.9185748 0.2613472 272 77066870 984 28 37 6018
0.83932608 5.9425745 0.20339152 149 77066870 536 29 44 6005
0.62075531 5.9227476 0.14689368 142 77066870 503 30 29 5957
0.4063493 5.9755316 0.089487381 265 77066870 949 31 53 5990
1.0367029 5.799933 0.041133586 715 77066870 2484 32 59 5892
0.82922506 5.8555584 -0.014966708 621 77066870 2174 33 59 5914
0.62183231 5.9260397 -0.071137168 445 77066870 1582 34 61 5959
0.41029638 5.9765544 -0.12851912 411 77066870 1474 35 46 5992
1.0308155 5.7507691 -0.17350118 894 77066870 3054 36 115 5845
0.82048965 5.7634382 -0.22771165 828 77066870 2810 37 41 5826
0.61095768 5.7989998 -0.28386194 878 77066870 2991 38 149 5838
0.40009251 5.8294096 -0.33987978 833 77066870 2853 39 44 5853
1.0303319 5.7221889 -0.38587359 948 77066870 3219 40 91 5827
0.8185603 5.7312455 -0.43866104 843 77066870 2842 41 88 5806
0.61045122 5.7787056 -0.49612316 914 77066870 3108 42 127 5832
0.40061003 5.7910805 -0.55087328 895 77066870 3041 43 53 5831
1.0340761 5.7315116 -0.60124046 936 77066870 3210 44 89 5855
0.82395613 5.7525258 -0.65471029 887 77066870 3032 45 43 5848
0.61451596 5.7881722 -0.71128953 930 77066870 3200 46 69 5864
0.40227857 5.7946348 -0.76698339 916 77066870 3145 47 93 5859
1.0358522 5.7139559 -0.81499624 969 77066870 3333 48 87 5864
0.82558244 5.7460165 -0.87098491 873 77066870 3007 49 41 5870
0.61549497 5.7686214 -0.92725497 884 77066870 3050 50 43 5875
0.40412727 5.7978296 -0.98634797 943 77066870 3279 51 63 5895
1.0424191 5.7211609 -1.0365002 973 77066870 3396 52 75 5907
0.83050573 5.759572 -1.0935435 917 77066870 3215 53 95 5921
0.61764646 5.7715979 -1.148069 889 77066870 3111 54 54 5917
0.40303895 5.7836709 -1.2069784 932 77066870 3270 55 63 5922
1.0507767 5.7488217 -1.2678026 648 77066870 2317 56 106 5980
0.83242542 5.751564 -1.3176719 903 77066870 3205 57 52 5959
0.61893427 5.7731562 -1.3757472 872 77066870 3106 58 60 5967
0.40424666 5.7937112 -1.4372845 885 77066870 3169 59 68 5983
1.0516388 5.7157416 -1.4914294 915 77066870 3296 60 59 6000
0.83730072 5.7512579 -1.5499001 907 77066870 3280 61 41 6015
0.62135339 5.7852416 -1.6131791 772 77066870 2813 62 56 6038
0.40397301 5.8249283 -1.684324 721 77066870 2661 63 53 6077
1.0850815 5.8598199 1.8601522 797 77164750 3107 0 80 6243
0.85730118 5.870265 1.780636 817 77164750 3136 1 80 6194
0.63809389 5.9152784 1.7227758 765 77164750 2933 2 57 6194
0.41205496 5.8944159 1.6505451 812 77164750 3055 3 39 6135
1.0754448 5.8242421 1.5999526 860 77164750 3238 4 63 6135
0.85593152 5.8430552 1.5324132 797 77164750 2965 5 34 6101
0.63771099 5.8905163 1.4759343 737 77164750 2749 6 68 6106
0.41758963 5.8879056 1.4110115 831 77164750 3063 7 58 6069
1.0791117 5.8503914 1.3709383 649 77164750 2421 8 62 6105
0.85543811 5.8553638 1.3017012 670 77164750 2461 9 86 6059
0.63697189 5.8540878 1.2362088 732 77164750 2649 10 52 6017
0.4214775 5.8701267 1.1781232 819 77164750 2949 11 53 6002
1.0755961 5.8364706 1.1386644 419 77164750 1531 12 84 6043
0.85465282 5.8343263 1.0706356 556 77164750 1999 13 59 5993
0.63811356 5.8541284 1.0112467 604 77164750 2157 14 74 5975
0.42140204 5.8490682 0.9520036 720 77164750 2542 15 65 5941
1.0970515 5.9523106 0.93266004 166 77164750 622 16 29 6124
0.86809576 5.9167337 0.86280781 234 77164750 856 17 61 6042
0.63999254 5.8420224 0.79125595 366 77164750 1285 18 47 5930
0.42678055 5.8736596 0.73635012 478 77164750 1682 19 56 5935
1.0865784 5.8949089 0.70044643 293 77164750 1069 20 65 6035
0.87274051 5.9418931 0.6433025 230 77164750 838 21 50 6040
0.66061395 6.0041218 0.58896255 133 77164750 489 22 43 6069
0.43963158 6.0055671 0.53095537 133 77164750 487 23 91 6045
1.0889041 5.9011712 0.48049346 233 77164750 843 24 52 6020
0.87261838 5.9302626 0.4226191 327 77164750 1182 25 72 6009
0.65366459 5.939054 0.36408091 326 77164750 1169 26 76 5986
0.43682912 5.9190435 0.30554259 307 77164750 1085 27 81 5943
1.0873417 5.8766084 0.2597838 367 77164750 1312 28 44 5982
0.87927341 5.9610419 0.20420443 126 77164750 457 29 26 6029
0.65840858 5.9307504 0.1471896 112 77164750 398 30 31 5969
0.44123182 5.9489937 0.089128837 260 77164750 927 31 64 5966
1.0722711 5.7934628 0.041133586 722 77164750 2507 32 84 5892
0.85987216 5.8147473 -0.0148756 667 77164750 2303 33 51 5878
0.66083294 5.9459643 -0.071423672 470 77164750 1684 34 77 5983
0.44427478 5.9380336 -0.12774698 467 77164750 1657 35 82 5956
1.0660821 5.7443357 -0.17350118 904 77164750 3088 36 116 5845
0.85760081 5.7701559 -0.22818068 849 77164750 2892 37 48 5838
0.64652818 5.7951422 -0.28386194 845 77164750 2879 38 153 5838
0.43495998 5.8148985 -0.33918294 829 77164750 2830 39 76 5841
1.0654231 5.7157593 -0.38587359 937 77164750 3182 40 84 5827
0.8554756 5.7379498 -0.43956769 892 77164750 3020 41 86 5818
0.6432392 5.7510862 -0.4940815 959 77164750 3235 42 112 5808
0.43703344 5.800426 -0.55200696 923 77164750 3150 43 55 5843
1.0692246 5.725059 -0.60124046 950 77164750 3258 44 77 5855
0.8610006 5.7591558 -0.65605378 899 77164750 3085 45 57 5860
0.64735955 5.7606187 -0.70837831 910 77164750 3105 46 75 5840
0.43961969 5.8157835 -0.77012515 924 77164750 3198 47 106 5883
1.0708928 5.7074924 -0.81499624 990 77164750 3406 48 69 5864
0.86082381 5.7408423 -0.87098491 857 77164750 2952 49 38 5870
0.65087897 5.7647362 -0.92725497 891 77164750 3077 50 60 5875
0.43969446 5.7952409 -0.98634797 930 77164750 3234 51 58 5895
1.0775038 5.7146568 -1.0365002 965 77164750 3368 52 97 5907
0.86583012 5.7543678 -1.0935435 877 77164750 3073 53 57 5921
0.65437311 5.779397 -1.1503974 855 77164750 3007 54 64 5929
0.44029644 5.8045177 -1.2118698 930 77164750 3290 55 58 5946
1.0794929 5.7076969 -1.2601703 948 77164750 3349 56 121 5944
0.86595339 5.734777 -1.3150185 881 77164750 3117 57 59 5947
0.65303016 5.7576475 -1.3729805 878 77164750 3115 58 61 5955
0.43890649 5.7795067 -1.4344016 920 77164750 3281 59 75 5971
1.0888635 5.7205992 -1.4944122 910 77164750 3291 60 64 6012
0.8690924 5.7230849 -1.5437158 891 77164750 3197 61 45 5991
0.65422851 5.7583404 -1.6067671 836 77164750 3022 62 56 6014
0.43710169 5.7878485 -1.6743462 800 77164750 2921 63 75 6041
1.1253257 5.8755522 1.8673031 769 77261310 3021 0 77 6267
0.89157361 5.8535314 1.7771862 836 77261310 3197 1 77 6182
0.67307085 5.8997993 1.7194382 756 77261310 2888 2 39 6182
0.44909137 5.9033012 1.6537735 882 77261310 3332 3 45 6147
1.1155083 5.840292 1.6062117 854 77261310 3241 4 70 6159
0.89176768 5.8376932 1.5324132 807 77261310 3002 5 43 6101
0.67251819 5.8749237 1.4730337 786 77261310 2921 6 58 6094
0.45281219 5.8735957 1.4082215 873 77261310 3204 7 70 6057
1.1127971 5.8321733 1.3682436 615 77261310 2285 8 68 6093
0.88781917 5.8268323 1.296545 661 77261310 2409 9 85 6035
0.67556387 5.8734035 1.2411398 701 77261310 2557 10 47 6041
0.45748797 5.8674302 1.1781232 796 77261310 2866 11 53 6002
1.1113877 5.829761 1.1386644 390 77261310 1425 12 86 6043
0.89043546 5.8289723 1.0706356 496 77261310 1783 13 84 5993
0.66996074 5.8148551 1.0051538 567 77261310 2001 14 75 5939
0.45635965 5.8345633 0.95008069 673 77261310 2364 15 55 5929
1.1268901 5.9105167 0.92717737 155 77261310 574 16 27 6088
0.90618002 5.9230366 0.86452144 207 77261310 757 17 56 6054
0.67992926 5.8734269 0.79605949 332 77261310 1180 18 50 5966
0.46187684 5.8590598 0.73486125 446 77261310 1566 19 66 5923
1.120496 5.8764229 0.69905365 346 77261310 1257 20 72 6023
0.90557021 5.9128375 0.64074636 245 77261310 888 21 63 6016
0.7002002 6.0236821 0.59129167 160 77261310 593 22 44 6093
0.47931033 6.0385051 0.53411746 140 77261310 518 23 97 6081
1.1295779 5.9178772 0.48240903 228 77261310 835 24 58 6044
0.89991307 5.8656378 0.41839924 295 77261310 1046 25 64 5949
0.68871027 5.9230342 0.36335108 338 77261310 1207 26 93 5974
0.47313946 5.9162517 0.30554259 305 77261310 1078 27 96 5943
1.125633 5.8816013 0.26030496 445 77261310 1597 28 50 5994
0.91583318 5.9555349 0.20420443 138 77261310 500 29 35 6029
0.69618338 5.9385138 0.14748551 108 77261310 385 30 29 5981
0.48060855 5.9820552 0.089666657 231 77261310 831 31 53 6002
1.1032865 5.7632031 0.040966038 735 77261310 2532 32 66 5868
0.89553457 5.8093619 -0.0148756 673 77261310 2327 33 72 5878
0.69450712 5.9179626 -0.071137168 525 77261310 1863 34 43 5959
0.47973299 5.9232373 -0.1274896 545 77261310 1924 35 42 5944
1.1013087 5.7376862 -0.17350118 901 77261310 3079 36 87 5845
0.89115417 5.7529359 -0.22771165 827 77261310 2809 37 58 5826
0.68347633 5.8029695 -0.28444543 866 77261310 2963 38 135 5850
0.47159824 5.8240609 -0.33987978 864 77261310 2962 39 67 5853
1.1004744 5.7091146 -0.38587359 965 77261310 3277 40 89 5827
0.88882983 5.7207689 -0.43866104 877 77261310 2957 41 73 5806
0.67991698 5.7589049 -0.49510235 902 77261310 3055 42 100 5820
0.47261596 5.7976356 -0.55200696 927 77261310 3163 43 46 5843
1.1043328 5.7183905 -0.60124046 936 77261310 3210 44 83 5855
0.89815736 5.7655468 -0.65739721 895 77261310 3088 45 59 5872
0.68549943 5.7801952 -0.71128953 900 77261310 3096 46 89 5864
0.47335738 5.7892618 -0.76698339 909 77261310 3120 47 116 5859
1.1081563 5.7124801 -0.81666404 986 77261310 3405 48 85 5876
0.89786452 5.7471776 -0.87276548 909 77261310 3144 49 40 5882
0.68623847 5.7606339 -0.92725497 882 77261310 3043 50 45 5875
0.47524512 5.7924337 -0.98634797 956 77261310 3321 51 53 5895
1.1080278 5.6847467 -1.032289 971 77261310 3362 52 82 5883
0.89929569 5.7372952 -1.0913273 925 77261310 3231 53 83 5909
0.68982249 5.7752728 -1.1503974 876 77261310 3081 54 59 5929
0.47398314 5.7782898 -1.2069784 917 77261310 3214 55 46 5922
1.1189945 5.7239847 -1.2652586 980 77261310 3491 56 92 5968
0.90476155 5.7524767 -1.3203254 893 77261310 3185 57 74 5971
0.68973321 5.7651262 -1.3757472 890 77261310 3170 58 64 5967
0.47722062 5.8115335 -1.4430499 907 77261310 3274 59 89 6007
1.1239439 5.7138104 -1.4944122 883 77261310 3190 60 55 6012
0.90781444 5.7405496 -1.5499001 912 77261310 3298 61 38 6015
0.69230044 5.7771807 -1.6131791 820 77261310 2988 62 56 6038
0.47260705 5.7850575 -1.6743462 800 77261310 2918 63 56 6041
1.1613562 5.8685365 1.8673031 716 77359550 2814 0 64 6267
0.93107414 5.8706541 1.7840858 768 77359550 2960 1 71 6206
0.70925868 5.8955584 1.7194382 768 77359550 2933 2 49 6182
0.48151529 5.8543596 1.6408597 822 77359550 3057 3 38 6099
1.1513227 5.8333373 1.6062117 825 77359550 3131 4 63 6159
0.93121922 5.8550544 1.5384414 839 77359550 3146 5 38 6125
0.70576286 5.8475661 1.4672323 761 77359550 2806 6 60 6070
0.48884338 5.8707066 1.4082215 848 77359550 3113 7 60 6057
1.1508238 5.8367081 1.3709383 585 77359550 2179 8 56 6105
0.92722803 5.8444257 1.3017012 656 77359550 2409 9 83 6059
0.71158963 5.8691478 1.2411398 716 77359550 2615 10 69 6041
0.49348125 5.8645129 1.1781232 815 77359550 2934 11 54 6002
1.1471376 5.8228316 1.1386644 358 77359550 1309 12 81 6043
0.92803907 5.8350592 1.0727793 466 77359550 1682 13 70 6005
0.70847893 5.8341165 1.0092157 547 77359550 1946 14 81 5963
0.49314737 5.8434563 0.9520036 680 77359550 2398 15 44 5941
1.1677203 5.926764 0.93083251 158 77359550 589 16 33 6112
0.94250602 5.9173646 0.86452144 181 77359550 665 17 65 6054
0.71739525 5.8809495 0.79766065 293 77359550 1045 18 56 5978
0.49983585 5.8798447 0.73783892 433 77359550 1533 19 67 5947
1.1542277 5.8577428 0.69766086 337 77359550 1219 20 67 6011
0.9361977 5.8718209 0.63691211 269 77359550 963 21 66 5980
0.7327922 5.9837079 0.58779806 182 77359550 667 22 37 6057
0.51227713 5.9878101 0.52990144 132 77359550 481 23 107 6033
1.1589239 5.8756285 0.47953567 214 77359550 771 24 57 6008
0.94343829 5.9072871 0.42177513 246 77359550 886 25 59 5997
0.72649676 5.9305854 0.36408091 304 77359550 1090 26 89 5986
0.50943202 5.9132371 0.30554259 339 77359550 1198 27 81 5943
1.1617006 5.8745837 0.26030496 515 77359550 1852 28 64 5994
0.95425397 5.9616456 0.20461087 150 77359550 547 29 23 6041
0.73701787 5.9698477 0.14837322 103 77359550 372 30 23 6017
0.5152362 5.9550853 0.089308113 206 77359550 735 31 51 5978
1.1456136 5.7916398 0.041217364 782 77359550 2727 32 76 5904
0.93116331 5.8037577 -0.0148756 709 77359550 2451 33 74 5878
0.72639102 5.8778644 -0.070707411 587 77359550 2061 34 64 5923
0.51502639 5.9082303 -0.12723222 560 77359550 1972 35 65 5932
1.1364937 5.7308207 -0.17350118 918 77359550 3137 36 98 5845
0.92643672 5.7473593 -0.22771165 873 77359550 2962 37 56 5826
0.7175948 5.7867718 -0.28386194 859 77359550 2927 38 147 5838
0.50628495 5.809123 -0.33918294 862 77359550 2943 39 69 5841
1.1354841 5.7022548 -0.38587359 950 77359550 3226 40 92 5827
0.9258247 5.7270198 -0.43956769 876 77359550 2966 41 82 5818
0.71671492 5.76649 -0.49612316 882 77359550 3000 42 109 5832
0.507137 5.7827258 -0.55087328 936 77359550 3181 43 52 5831
1.1393993 5.7115068 -0.60124046 958 77359550 3285 44 99 5855
0.93160945 5.7481561 -0.65605378 915 77359550 3140 45 57 5860
0.72095317 5.7758803 -0.71128953 884 77359550 3041 46 102 5864
0.50887072 5.7862482 -0.76698339 921 77359550 3162 47 88 5859
1.140852 5.6939211 -0.81499624 985 77359550 3387 48 103 5864
0.93311167 5.74156 -0.87276548 888 77359550 3071 49 52 5882
0.72157216 5.7563152 -0.92725497 908 77359550 3136 50 58 5875
0.50973815 5.7776237 -0.98434013 934 77359550 3234 51 65 5883
1.1452191 5.6894226 -1.0343946 961 77359550 3341 52 88 5895
0.93448216 5.7316694 -1.0913273 953 77359550 3326 53 57 5909
0.72377807 5.7592511 -1.148069 920 77359550 3223 54 63 5917
0.51046139 5.7869754 -1.2094243 921 77359550 3245 55 64 5934
1.1517745 5.7055154 -1.2627144 992 77359550 3519 56 107 5956
0.94004107 5.7468171 -1.3203254 796 77359550 2836 57 56 5971
0.72655255 5.7723708 -1.3785138 846 77359550 3022 58 55 5979
0.50979686 5.7736855 -1.4344016 910 77359550 3245 59 80 5971
1.158982 5.7068062 -1.4944122 342 77359550 1235 60 36 6012
0.94490206 5.7463126 -1.5529921 904 77359550 3283 61 40 6027
0.72628927 5.7613516 -1.6099732 856 77359550 3110 62 65 6026
0.50910389 5.7935348 -1.6776721 830 77359550 3043 63 63 6053
1.1973431 5.8613 1.8673031 675 77457240 2653 0 62 6267
0.96333832 5.8421497 1.7771862 850 77457240 3251 1 61 6182
0.7468667 5.9025311 1.7227758 798 77457240 3060 2 48 6194
0.52150011 5.8973455 1.6537735 842 77457240 3180 3 51 6147
1.1847807 5.8148117 1.6030821 823 77457240 3111 4 87 6147
0.96523285 5.8377705 1.5354273 841 77457240 3141 5 34 6113
0.74456191 5.8662286 1.4730337 777 77457240 2887 6 79 6094
0.52485615 5.8675966 1.4082215 859 77457240 3153 7 72 6057
1.1889478 5.8409953 1.3736329 587 77457240 2198 8 64 6117
0.96497864 5.8501892 1.3042791 587 77457240 2165 9 88 6071
0.74610364 5.8530216 1.2386743 684 77457240 2485 10 54 6029
0.52839738 5.8496556 1.1757678 790 77457240 2833 11 47 5990
1.1898909 5.8503294 1.1454479 318 77457240 1176 12 90 6079
0.96575093 5.8409038 1.074923 432 77457240 1566 13 75 6017
0.7457608 5.8413911 1.0112467 528 77457240 1886 14 67 5975
0.52899283 5.8403206 0.9520036 613 77457240 2165 15 63 5941
1.2111562 5.9543533 0.93631512 199 77457240 751 16 24 6148
0.99237752 5.9934926 0.87651676 133 77457240 503 17 71 6138
0.75800401 5.9118257 0.80246431 283 77457240 1025 18 70 6014
0.53590447 5.876667 0.73783892 363 77457240 1285 19 74 5947
1.1949003 5.87391 0.70044643 356 77457240 1298 20 67 6035
0.97806162 5.9012794 0.64074636 305 77457240 1106 21 63 6016
0.7664448 5.9554081 0.58546901 214 77457240 778 22 32 6033
0.5457319 5.948843 0.52673936 132 77457240 475 23 96 5997
1.2140479 5.9621758 0.487198 196 77457240 732 24 58 6104
0.98554796 5.9368134 0.42430708 248 77457240 901 25 55 6033
0.76287246 5.9260163 0.36408091 310 77457240 1111 26 89 5986
0.54901093 5.9457998 0.3073934 341 77457240 1220 27 67 5979
1.1953267 5.8555984 0.2597838 564 77457240 2017 28 37 5982
0.98884773 5.9438477 0.20420443 191 77457240 693 29 30 6029
0.77517724 5.9771099 0.14866914 146 77457240 530 30 25 6029
0.54844344 5.9159698 0.088770293 170 77457240 599 31 43 5942
1.1739268 5.7492304 0.040966038 765 77457240 2635 32 85 5868
0.96675694 5.7979345 -0.0148756 759 77457240 2624 33 66 5878
0.76398796 5.8851962 -0.070850663 611 77457240 2154 34 73 5935
0.55015373 5.8930135 -0.12697484 658 77457240 2304 35 52 5920
1.1740414 5.7354908 -0.17385738 897 77457240 3077 36 114 5857
0.95970356 5.7297406 -0.22724262 886 77457240 2994 37 57 5814
0.7530883 5.7822599 -0.28386194 868 77457240 2958 38 134 5838
0.54303288 5.8178353 -0.33987978 887 77457240 3037 39 57 5853
1.1728615 5.7069087 -0.38666826 975 77457240 3325 40 87 5839
0.96491164 5.7448325 -0.44138098 896 77457240 3059 41 86 5842
0.75363141 5.77384 -0.49714401 943 77457240 3220 42 126 5844
0.54260957 5.7795053 -0.55087328 929 77457240 3157 43 39 5831
1.1744231 5.7044082 -0.60124046 970 77457240 3327 44 83 5855
0.96488202 5.7305727 -0.65471029 871 77457240 2978 45 42 5848
0.75637972 5.771348 -0.71128953 908 77457240 3124 46 66 5864
0.54436487 5.7830172 -0.76698339 907 77457240 3113 47 124 5859
1.1757677 5.6868138 -0.81499624 973 77457240 3347 48 77 5864
0.9722746 5.7591295 -0.8763265 841 77457240 2932 49 48 5906
0.75687867 5.7517791 -0.92725497 902 77457240 3112 50 52 5875
0.54629141 5.7861657 -0.98634797 916 77457240 3185 51 70 5895
1.1801072 5.6822886 -1.0343946 984 77457240 3420 52 97 5895
0.97160256 5.7374558 -1.0935435 953 77457240 3342 53 83 5921
0.76064205 5.7663727 -1.1503974 923 77457240 3246 54 58 5929
0.54596001 5.7837343 -1.2094243 917 77457240 3227 55 55 5934
1.1867611 5.6983409 -1.2627144 968 77457240 3434 56 116 5956
0.99292564 5.84478 -1.3442067 423 77457240 1565 57 63 6079
0.76195747 5.7678041 -1.3785138 871 77457240 3115 58 66 5979
0.54630971 5.7820458 -1.4372845 933 77457240 3341 59 65 5983
1.2225747 5.8361044 -1.5302064 270 77457240 1022 60 49 6156
0.97819149 5.7289772 -1.5499001 897 77457240 3244 61 40 6015
0.76314318 5.7682505 -1.6131791 836 77457240 3050 62 60 6038
0.54356301 5.7788224 -1.6743462 793 77457240 2896 63 62 6041
1.2309233 5.8426342 1.8637276 733 77554300 2869 0 77 6255
1.0030459 5.8587861 1.7840858 832 77554300 3206 1 76 6206
0.78155279 5.8864107 1.7194382 768 77554300 2937 2 59 6182
0.55658704 5.8825283 1.6505451 842 77554300 3168 3 52 6135
1.22282 5.8187699 1.6062117 811 77554300 3077 4 91 6159
1.0049646 5.8546333 1.5414554 811 77554300 3053 5 38 6137
0.77900541 5.8500075 1.4701331 721 77554300 2669 6 60 6082
0.55973798 5.8526473 1.4054315 848 77554300 3097 7 54 6045
1.2223625 5.8221464 1.3709383 567 77554300 2115 8 66 6105
0.9988783 5.8326068 1.3017012 583 77554300 2141 9 85 6059
0.78200305 5.8483334 1.2386743 711 77554300 2586 10 63 6029
0.56654114 5.8697276 1.1804787 793 77554300 2866 11 49 6014
1.2306046 5.8659859 1.1499701 325 77554300 1211 12 91 6103
1.0035694 5.8465052 1.0770668 389 77554300 1413 13 51 6029
0.78158885 5.8367052 1.0112467 524 77554300 1872 14 72 5975
0.56367755 5.8251748 0.95008069 607 77554300 2132 15 49 5929
1.2379277 5.9003806 0.92900497 238 77554300 885 16 27 6100
1.0311462 5.9989958 0.87823033 145 77554300 547 17 53 6150
0.79584885 5.9188499 0.80406547 244 77554300 888 18 59 6026
0.57079881 5.8614168 0.73635012 373 77554300 1316 19 58 5935
1.2358146 5.8897972 0.70323199 398 77554300 1460 20 52 6059
1.0162759 5.9069262 0.6420244 305 77554300 1107 21 54 6028
0.80137491 5.9387569 0.58430445 232 77554300 840 22 45 6021
0.58804822 6.0048661 0.53200942 176 77554300 647 23 91 6057
1.2407739 5.9077892 0.48336682 146 77554300 534 24 43 6056
1.021957 5.9306545 0.42430708 225 77554300 817 25 57 6033
0.79441291 5.8856134 0.36189133 282 77554300 999 26 81 5950
0.58313322 5.918467 0.30615953 328 77554300 1164 27 86 5955
1.2213539 5.801228 0.25769931 642 77554300 2262 28 69 5934
1.0252999 5.9376683 0.20420443 274 77554300 995 29 37 6029
0.81183749 5.9722409 0.14866914 169 77554300 613 30 35 6029
0.59063721 5.9721951 0.089666657 159 77554300 571 31 47 6002
1.2116541 5.7536607 0.041049812 792 77554300 2739 32 78 5880
1.0023142 5.7918935 -0.0148756 754 77554300 2607 33 64 5878
0.79523134 5.8447285 -0.070420898 677 77554300 2358 34 60 5899
0.58511382 5.8775892 -0.12671746 679 77554300 2368 35 45 5908
1.2067342 5.7164426 -0.17350118 892 77554300 3047 36 113 5845
0.99894923 5.7473717 -0.22818068 915 77554300 3120 37 69 5838
0.78855336 5.7775302 -0.28386194 890 77554300 3032 38 143 5838
0.57872027 5.814394 -0.33987978 923 77554300 3161 39 55 5853
1.2078564 5.6996045 -0.38666826 955 77554300 3257 40 90 5839
0.99808872 5.7270155 -0.44047433 891 77554300 3029 41 90 5830
0.78742462 5.7572608 -0.49612316 927 77554300 3153 42 101 5832
0.57806176 5.7760668 -0.55087328 954 77554300 3245 43 73 5831
1.2118812 5.7087708 -0.60247266 956 77554300 3292 44 86 5867
1.0041301 5.7480378 -0.65739721 861 77554300 2967 45 50 5872
0.79177779 5.7665982 -0.71128953 945 77554300 3250 46 101 5864
0.57983857 5.7795682 -0.76698339 906 77554300 3111 47 88 5859
1.2106392 5.6794925 -0.81499624 963 77554300 3313 48 74 5864
1.0055463 5.7413659 -0.87454593 923 77554300 3205 49 54 5894
0.7937746 5.7587652 -0.92914885 923 77554300 3200 50 64 5887
0.5794158 5.7591619 -0.98233229 952 77554300 3283 51 66 5871
1.217424 5.6864924 -1.0365002 1006 77554300 3512 52 71 5907
1.0047482 5.7197704 -1.0913273 965 77554300 3371 53 60 5909
0.79439843 5.7499356 -1.148069 888 77554300 3111 54 61 5917
0.58261383 5.7919641 -1.2118698 919 77554300 3247 55 52 5946
1.2192417 5.6794858 -1.2601703 941 77554300 3324 56 131 5944
1.0186157 5.7809501 -1.3309393 665 77554300 2411 57 66 6019
0.79733372 5.76302 -1.3785138 915 77554300 3272 58 62 5979
0.58177739 5.7785845 -1.4372845 927 77554300 3320 59 58 5983
1.2510027 5.7944088 -1.521258 263 77554300 984 60 36 6120
1.015347 5.7342844 -1.5529921 892 77554300 3239 61 48 6027
0.7969352 5.7520051 -1.6099732 825 77554300 2994 62 48 6026
0.57901096 5.7753787 -1.6743462 779 77554300 2841 63 53 6041
1.2643197 5.8237777 1.8601522 778 77652350 3033 0 75 6243
1.0369669 5.8412046 1.780636 854 77652350 3278 1 84 6194
0.81924361 5.8929214 1.7227758 756 77652350 2902 2 61 6194
0.5926711 5.8790026 1.6505451 820 77652350 3085 3 52 6135
1.2609524 5.8224792 1.6093411 767 77652350 2922 4 69 6171
1.0388339 5.8369217 1.5384414 820 77652350 3075 5 35 6125
0.81810135 5.8681827 1.4759343 774 77652350 2887 6 72 6106
0.59800351 5.8723249 1.4110115 844 77652350 3110 7 65 6069
1.2580636 5.8145366 1.3709383 555 77652350 2070 8 65 6105
1.0346477 5.8263683 1.3017012 584 77652350 2145 9 97 6059
0.81624514 5.8317943 1.2362088 676 77652350 2446 10 56 6017
0.60134411 5.8544359 1.1781232 732 77652350 2635 11 49 6002
1.2740457 5.8928819 1.1567534 282 77652350 1064 12 81 6139
1.0414928 5.8518615 1.0792106 363 77652350 1323 13 53 6041
0.82067066 5.8552241 1.0153085 461 77652350 1660 14 89 5999
0.59819639 5.8098235 0.94815779 595 77652350 2084 15 62 5917
1.2690955 5.8694892 0.92534983 269 77652350 992 16 37 6076
1.0554332 5.922399 0.86794859 149 77652350 549 17 51 6078
0.83877975 5.9609618 0.81047022 185 77652350 684 18 60 6074
0.60920662 5.8814917 0.73932773 324 77652350 1152 19 64 5959
1.2719305 5.8821039 0.70323199 375 77652350 1379 20 58 6059
1.0504057 5.8888326 0.64074636 286 77652350 1036 21 71 6016
0.83946908 5.9455538 0.58546901 262 77652350 955 22 60 6033
0.6224063 5.9773664 0.52990144 188 77652350 685 23 93 6033
1.2820609 5.9234471 0.48528242 133 77652350 490 24 46 6080
1.0625377 5.9478393 0.42599499 183 77652350 673 25 60 6057
0.83553636 5.9162083 0.36408091 256 77652350 918 26 90 5986
0.62193376 5.9386153 0.3073934 320 77652350 1145 27 91 5979
1.2569267 5.7936249 0.25769931 696 77652350 2453 28 61 5934
1.0596002 5.9194598 0.20379797 333 77652350 1204 29 43 6017
0.84508961 5.9433932 0.14807731 236 77652350 850 30 30 6005
0.62727082 5.9684587 0.089666657 186 77652350 669 31 42 6002
1.246935 5.7461176 0.041049812 825 77652350 2854 32 73 5880
1.035715 5.7738228 -0.014845232 797 77652350 2744 33 69 5866
0.83276957 5.8516188 -0.070564151 705 77652350 2465 34 65 5911
0.61864364 5.8500266 -0.1262027 725 77652350 2508 35 55 5884
1.2417868 5.708931 -0.17350118 888 77652350 3034 36 111 5845
1.0341957 5.7411342 -0.22818068 880 77652350 2998 37 44 5838
0.82568252 5.7844486 -0.28444543 884 77652350 3024 38 155 5850
0.61312616 5.79882 -0.33918294 884 77652350 3018 39 63 5841
1.2453599 5.7037845 -0.38746291 1000 77652350 3424 40 87 5851
1.0310836 5.7090082 -0.43956769 916 77652350 3101 41 96 5818
0.82273567 5.7523208 -0.49612316 889 77652350 3023 42 112 5832
0.61475474 5.7842908 -0.55200696 917 77652350 3129 43 45 5843
1.249437 5.7128882 -0.60370493 960 77652350 3319 44 102 5879
1.0351323 5.7183003 -0.65471029 911 77652350 3114 45 57 5848
0.8220681 5.7262597 -0.70692277 934 77652350 3174 46 76 5828
0.61655062 5.7877312 -0.76855427 921 77652350 3175 47 89 5871
1.2454652 5.671957 -0.81499624 983 77652350 3381 48 87 5864
1.0407557 5.7350879 -0.87454593 921 77652350 3198 49 52 5894
0.82740486 5.7420578 -0.92725497 918 77652350 3170 50 70 5875
0.61599892 5.767262 -0.98434013 945 77652350 3272 51 63 5883
1.2548368 5.6904521 -1.0386059 993 77652350 3480 52 91 5919
1.0419368 5.7251005 -1.0935435 952 77652350 3339 53 69 5921
0.83134705 5.7566042 -1.1503974 888 77652350 3123 54 68 5929
0.61689425 5.7765989 -1.2094243 924 77652350 3252 55 48 5934
1.2565992 5.6833487 -1.2627144 999 77652350 3544 56 112 5956
1.0456619 5.7285404 -1.3203254 619 77652350 2208 57 70 5971
0.83267993 5.7580194 -1.3785138 870 77652350 3111 58 63 5979
0.61722314 5.7749062 -1.4372845 929 77652350 3326 59 80 5983
1.2411258 5.5823898 -1.4675665 1138 77652350 3968 60 72 5904
1.0484211 5.7165418 -1.5499001 887 77652350 3208 61 41 6015
0.83221382 5.7470069 -1.6099732 836 77652350 3037 62 59 6026
0.61687815 5.7946467 -1.6809981 784 77652350 2885 63 75 6065
1.3075265 5.8494473 1.8708787 781 77750290 3081 0 71 6279
1.0748668 5.8460364 1.7840858 832 77750290 3205 1 94 6206
0.85372931 5.8763766 1.7194382 762 77750290 2911 2 40 6182
0.62627321 5.8522711 1.6440881 848 77750290 3166 3 35 6111
1.2966547 5.8146329 1.6093411 750 77750290 2857 4 74 6171
1.0746289 5.8304377 1.5384414 793 77750290 2973 5 36 6125
0.85577095 5.8745751 1.478835 792 77750290 2966 6 65 6118
0.63277048 5.8569417 1.4082215 829 77750290 3040 7 55 6057
1.298803 5.829535 1.3763276 513 77750290 1929 8 68 6129
1.074618 5.8429627 1.3068572 586 77750290 2170 9 82 6083
0.85711068 5.8615375 1.2436051 682 77750290 2497 10 57 6053
0.63725495 5.850636 1.1781232 693 77750290 2495 11 49 6002
1.3101798 5.8849535 1.1567534 209 77750290 789 12 81 6139
1.0795196 5.8569722 1.0813544 336 77750290 1230 13 53 6053
0.85658222 5.8500786 1.0153085 439 77750290 1581 14 61 5999
0.63640445 5.8295937 0.9520036 566 77750290 1996 15 41 5941
1.3076637 5.8731685 0.92717737 279 77750290 1033 16 42 6088
1.093908 5.9274917 0.86966223 184 77750290 681 17 57 6090
0.87361038 5.9439368 0.80886906 145 77750290 531 18 50 6062
0.65048116 5.9249878 0.74528307 279 77750290 1008 19 61 6007
1.3028173 5.8509207 0.70044643 381 77750290 1389 20 88 6035
1.0821847 5.8588099 0.63819015 335 77750290 1201 21 55 5992
0.87419224 5.9284754 0.58430445 285 77750290 1032 22 41 6021
0.66038191 5.9853158 0.53095537 216 77750290 790 23 97 6045
1.3157803 5.9037938 0.48432463 132 77750290 485 24 45 6068
1.0903035 5.8941255 0.4226191 178 77750290 641 25 53 6009
0.87356949 5.9228201 0.36481076 238 77750290 857 26 91 5998
0.65968204 5.9465985 0.30801037 322 77750290 1157 27 60 5991
1.292452 5.7858033 0.25769931 736 77750290 2590 28 51 5934
1.0959014 5.912847 0.20379797 377 77750290 1364 29 31 6017
0.88330328 5.9499621 0.14837322 307 77750290 1110 30 35 6017
0.6652081 5.9764228 0.089845933 214 77750290 772 31 53 6014
1.282169 5.7383585 0.041049812 840 77750290 2905 32 94 5880
1.071123 5.7673593 -0.014845232 810 77750290 2789 33 69 5866
0.8651318 5.8226609 -0.070277646 743 77750290 2577 34 75 5887
0.65586197 5.8580437 -0.12646008 753 77750290 2619 35 63 5896
1.2794142 5.7129087 -0.17385738 902 77750290 3095 36 81 5857
1.067205 5.7228928 -0.22771165 886 77750290 3006 37 56 5826
0.86115968 5.779273 -0.28444543 905 77750290 3096 38 135 5850
0.64736283 5.7830439 -0.33848614 892 77750290 3030 39 49 5829
1.2803342 5.6960354 -0.38746291 996 77750290 3410 40 92 5851
1.0682929 5.7143359 -0.44047433 914 77750290 3107 41 85 5830
0.85978127 5.7589898 -0.49714401 921 77750290 3146 42 92 5844
0.64889944 5.768538 -0.55087328 942 77750290 3201 43 54 5831
1.2844671 5.7051144 -0.60370493 973 77750290 3364 44 88 5879
1.0680037 5.7001209 -0.65336692 906 77750290 3084 45 46 5836
0.86071825 5.7446675 -0.70983392 929 77750290 3183 46 82 5852
0.65338463 5.7956614 -0.77012515 941 77750290 3257 47 89 5883
1.285484 5.6873908 -0.81833184 980 77750290 3398 48 85 5888
1.0759261 5.7285938 -0.87454593 918 77750290 3187 49 53 5894
0.86262184 5.7368731 -0.92725497 933 77750290 3219 50 44 5875
0.65270329 5.7751298 -0.98634797 942 77750290 3275 51 68 5895
1.2871143 5.6711245 -1.0365002 975 77750290 3403 52 95 5907
1.074863 5.7070098 -1.0913273 964 77750290 3367 53 76 5909
0.86489916 5.7397542 -1.148069 925 77750290 3237 54 55 5917
0.65232718 5.7727051 -1.2094243 924 77750290 3255 55 62 5934
1.29405 5.6869664 -1.2652586 960 77750290 3419 56 109 5968
1.0786198 5.7105169 -1.3176719 761 77750290 2703 57 73 5959
0.86799479 5.7528014 -1.3785138 885 77750290 3165 58 58 5979
0.65264571 5.7710104 -1.4372845 913 77750290 3270 59 68 5983
1.2909085 5.642653 -1.4854636 826 77750290 2952 60 63 5976
1.0856391 5.7213931 -1.5529921 895 77750290 3253 61 59 6027
0.86918855 5.7532258 -1.6131791 858 77750290 3126 62 56 6038
0.65242183 5.7907529 -1.6809981 822 77750290 3022 63 55 6065
1.3408259 5.8301506 1.8673031 820 77847250 3222 0 68 6267
1.1107172 5.8393312 1.7840858 850 77847250 3276 1 71 6206
0.89495146 5.9052172 1.7294512 718 77847250 2774 2 52 6218
0.66607118 5.882771 1.6537735 860 77847250 3248 3 53 6147
1.3323082 5.8065672 1.6093411 731 77847250 2785 4 60 6171
1.1103836 5.8237338 1.5384414 804 77847250 3014 5 43 6125
0.88830215 5.8461895 1.4730337 816 77847250 3032 6 68 6094
0.66869611 5.8529487 1.4082215 836 77847250 3069 7 67 6057
1.3319349 5.8100576 1.3736329 493 77847250 1846 8 69 6117
1.1038777 5.8017192 1.299123 560 77847250 2049 9 87 6047
0.89128977 5.8445582 1.2411398 638 77847250 2327 10 51 6041
0.67314178 5.8466158 1.1781232 715 77847250 2574 11 50 6002
1.3488961 5.8882909 1.1590146 216 77847250 819 12 72 6151
1.1132257 5.8386402 1.0792106 321 77847250 1170 13 56 6041
0.89246148 5.8447123 1.0153085 401 77847250 1444 14 73 5999
0.66944683 5.8020453 0.94815779 544 77847250 1903 15 44 5917
1.3330821 5.8187923 0.91986722 343 77847250 1251 16 24 6040
1.1324849 5.9323339 0.87137586 185 77847250 691 17 60 6102
0.91907281 5.9972415 0.81687498 132 77847250 493 18 47 6122
0.68545187 5.9090571 0.7437942 254 77847250 915 19 62 5995
1.3493408 5.8892879 0.70601749 356 77847250 1319 20 75 6083
1.1203525 5.8637795 0.63946825 351 77847250 1264 21 44 6004
0.90873742 5.9111953 0.5831399 309 77847250 1114 22 45 6009
0.69294327 5.9455318 0.52779341 251 77847250 907 23 82 6009
1.3546542 5.907268 0.48528242 142 77847250 523 24 47 6080
1.1286982 5.8990817 0.42346308 162 77847250 586 25 51 6021
0.90625405 5.893671 0.36335108 206 77847250 736 26 76 5974
0.69057965 5.8948278 0.30554259 271 77847250 959 27 61 5943
1.3225578 5.754396 0.25665703 758 77847250 2647 28 39 5910
1.1299034 5.8942323 0.20339152 469 77847250 1689 29 54 6005
0.91612625 5.9207201 0.14778142 360 77847250 1292 30 28 5993
0.69486392 5.9126453 0.088949569 283 77847250 1005 31 68 5954
1.3146664 5.718689 0.040966038 824 77847250 2838 32 87 5868
1.1087543 5.7724628 -0.0148756 815 77847250 2818 33 60 5878
0.90084267 5.8172426 -0.070277646 763 77847250 2646 34 71 5887
0.68616188 5.806251 -0.12543054 828 77847250 2830 35 53 5848
1.3117508 5.6932621 -0.17350118 886 77847250 3027 36 121 5845
1.1022999 5.7162366 -0.22771165 913 77847250 3098 37 53 5826
0.8947652 5.7620363 -0.28386194 917 77847250 3124 38 143 5838
0.68283474 5.7789626 -0.33848614 870 77847250 2955 39 54 5829
1.3098652 5.6647406 -0.38587359 966 77847250 3281 40 76 5827
1.1010642 5.6959252 -0.43956769 932 77847250 3156 41 82 5818
0.89326358 5.7417912 -0.49612316 902 77847250 3067 42 124 5832
0.68287408 5.7525849 -0.5497396 908 77847250 3073 43 57 5819
1.3167557 5.6854968 -0.60247266 994 77847250 3423 44 90 5867
1.1074946 5.7168741 -0.65605378 923 77847250 3168 45 47 5860
0.89778787 5.7510471 -0.71128953 940 77847250 3234 46 84 5864
0.68612325 5.7679162 -0.76698339 919 77847250 3155 47 115 5859
1.3257388 5.7025456 -0.82166743 951 77847250 3325 48 85 5912
1.1087937 5.7102351 -0.87276548 923 77847250 3192 49 49 5882
0.8996402 5.7431784 -0.92914885 940 77847250 3256 50 41 5887
0.68672574 5.7592688 -0.98434013 958 77847250 3314 51 50 5883
1.3245729 5.6746249 -1.0386059 982 77847250 3442 52 83 5919
1.1098602 5.7003069 -1.0913273 954 77847250 3332 53 78 5909
0.90192682 5.7459688 -1.1503974 936 77847250 3292 54 75 5929
0.68773556 5.7685938 -1.2094243 934 77847250 3288 55 42 5934
1.3315923 5.6903377 -1.2678026 985 77847250 3522 56 111 5980
1.1181238 5.7267632 -1.3229789 522 77847250 1870 57 74 5983
0.89965123 5.7242975 -1.3729805 910 77847250 3229 58 58 5955
0.68804365 5.7668972 -1.4372845 943 77847250 3377 59 59 5983
1.3441385 5.7138276 -1.5063437 485 77847250 1779 60 57 6060
1.1229558 5.7260022 -1.5560843 923 77847250 3365 61 44 6039
0.90267581 5.7363615 -1.6099732 821 77847250 2980 62 45 6026
0.68521869 5.7637424 -1.6743462 834 77847250 3042 63 57 6041
1.3792098 5.8329616 1.8708787 803 77944210 3167 0 77 6279
1.1487427 5.8436832 1.7875354 865 77944210 3346 1 85 6218
0.9293713 5.8882289 1.7261134 735 77944210 2829 2 45 6206
0.70078391 5.8670974 1.6505451 835 77944210 3142 3 49 6135
1.3679115 5.7982831 1.6093411 730 77944210 2781 4 84 6171
1.1505872 5.8396034 1.5444696 784 77944210 2962 5 45 6149
0.9277966 5.8636312 1.478835 778 77944210 2914 6 72 6118
0.70599246 5.860323 1.4110115 806 77944210 2970 7 60 6069
1.3756082 5.8359208 1.3817171 461 77944210 1747 8 68 6153
1.1439779 5.8178358 1.3042791 527 77944210 1944 9 72 6071
0.92897618 5.8505783 1.2436051 630 77944210 2310 10 58 6053
0.71042085 5.8540564 1.1804787 706 77944210 2552 11 48 6014
1.3850006 5.8799033 1.1590146 227 77944210 860 12 80 6151
1.1581599 5.8780365 1.0877857 293 77944210 1085 13 39 6089
0.9301641 5.8508067 1.0173395 373 77944210 1349 14 77 6011
0.70646471 5.809587 0.95008069 497 77944210 1745 15 53 5929
1.379638 5.856679 0.92717737 334 77944210 1237 16 44 6088
1.1642663 5.9019685 0.86794859 206 77944210 763 17 59 6078
0.94461221 5.9210243 0.80726784 122 77944210 445 18 39 6050
0.73036385 5.975656 0.75272721 187 77944210 690 19 73 6067
1.3772522 5.8460937 0.70183921 309 77944210 1131 20 80 6047
1.160933 5.8802066 0.6420244 360 77944210 1310 21 67 6028
0.94499075 5.905508 0.5831399 326 77944210 1176 22 50 6009
0.72795469 5.9293036 0.52673936 266 77944210 957 23 113 5997
1.3936201 5.9104877 0.48624024 163 77944210 603 24 55 6092
1.1695163 5.9155307 0.42515102 131 77944210 480 25 58 6045
0.94618583 5.911654 0.36481076 189 77944210 681 26 88 5998
0.72820407 5.9023738 0.30615953 267 77944210 948 27 64 5955
1.3523271 5.7228374 0.25561476 807 77944210 2795 28 52 5886
1.1567278 5.8401303 0.20176575 486 77944210 1723 29 38 5957
0.95243782 5.9149876 0.14778142 445 77944210 1597 30 39 5993
0.73555076 5.9439936 0.089487381 308 77944210 1104 31 53 5990
1.3469707 5.6988368 0.040882263 830 77944210 2847 32 92 5856
1.1441525 5.7655511 -0.0148756 836 77944210 2887 33 56 5878
0.93651962 5.8116059 -0.070277646 764 77944210 2650 34 61 5887
0.7262187 5.8376484 -0.1262027 783 77944210 2712 35 73 5884
1.3549534 5.7201214 -0.17456979 884 77944210 3057 36 114 5881
1.1373533 5.7093654 -0.22771165 926 77944210 3142 37 50 5826
0.93010354 5.7564378 -0.28386194 915 77944210 3118 38 133 5838
0.71828097 5.7746639 -0.33848614 891 77944210 3029 39 77 5829
1.350137 5.6798949 -0.38746291 975 77944210 3338 40 101 5851
1.1406791 5.7125306 -0.44138098 923 77944210 3151 41 90 5842
0.9284777 5.7362022 -0.49612316 932 77944210 3169 42 135 5832
0.71815842 5.7482867 -0.5497396 919 77944210 3113 43 72 5819
1.354381 5.6889224 -0.60370493 989 77944210 3419 44 103 5879
1.1425519 5.709971 -0.65605378 920 77944210 3158 45 54 5860
0.92923993 5.7219152 -0.70837831 947 77944210 3231 46 89 5840
0.72297937 5.7754021 -0.76855427 935 77944210 3223 47 100 5871
1.3551801 5.6711879 -0.81833184 949 77944210 3291 48 96 5888
1.1461437 5.7149591 -0.87454593 922 77944210 3202 49 39 5894
0.93295717 5.7258554 -0.92725497 912 77944210 3146 50 51 5875
0.72205102 5.7549467 -0.98434013 972 77944210 3366 51 65 5883
1.3621228 5.6778784 -1.0407115 977 77944210 3438 52 67 5931
1.1448158 5.6933899 -1.0913273 950 77944210 3318 53 90 5909
0.93716645 5.7403269 -1.1503974 968 77944210 3404 54 80 5929
0.72165567 5.7526083 -1.2069784 918 77944210 3218 55 52 5922
1.3637403 5.6706581 -1.2652586 963 77944210 3430 56 107 5968
1.1555545 5.731267 -1.3256323 309 77944210 1112 57 70 5995
0.93852514 5.7417169 -1.3785138 896 77944210 3204 58 63 5979
0.72341573 5.7625666 -1.4372845 888 77944210 3180 59 86 5983
1.420138 5.8749418 -1.5510865 95 77944210 372 60 66 6240
1.1557676 5.7076397 -1.5529921 920 77944210 3340 61 56 6027
0.94159162 5.7535386 -1.6163852 816 77944210 2988 62 70 6050
0.72200286 5.7708702 -1.6776721 815 77944210 2984 63 57 6053
1.4149741 5.824389 1.8708787 800 78041800 3154 0 106 6279
1.1891493 5.8590522 1.7944348 858 78041800 3344 1 91 6242
0.96548331 5.8824158 1.7261134 790 78041800 3041 2 55 6206
0.73821169 5.8741546 1.6537735 856 78041800 3233 3 48 6147
1.4034634 5.7897806 1.6093411 694 78041800 2644 4 81 6171
1.1863967 5.8324332 1.5444696 747 78041800 2823 5 44 6149
0.96186733 5.8463383 1.4759343 772 78041800 2877 6 57 6106
0.74193746 5.8558807 1.4110115 784 78041800 2886 7 55 6069
1.4113908 5.8273706 1.3817171 397 78041800 1505 8 61 6153
1.1773223 5.799222 1.3017012 508 78041800 1866 9 77 6059
0.9610315 5.8215933 1.2386743 614 78041800 2230 10 53 6029
0.74185967 5.8145709 1.1734123 692 78041800 2472 11 41 5978
1.4210529 5.8712945 1.1590146 208 78041800 789 12 60 6151
1.198912 5.8939595 1.0920732 291 78041800 1086 13 48 6113
0.96604651 5.8449893 1.0173395 343 78041800 1241 14 68 6011
0.74660426 5.8403907 0.95584941 495 78041800 1760 15 44 5965
1.4099675 5.8250489 0.92352229 361 78041800 1326 16 49 6064
1.1980883 5.8830762 0.86623508 281 78041800 1036 17 61 6066
0.98287082 5.9268494 0.80886906 163 78041800 598 18 28 6062
0.76853317 5.9828725 0.75421607 156 78041800 578 19 64 6079
1.4215099 5.8722858 0.70601749 295 78041800 1093 20 59 6083
1.1993743 5.8846641 0.6433025 349 78041800 1274 21 78 6040
0.98316795 5.9113803 0.58430445 327 78041800 1184 22 54 6021
0.76432252 5.9247251 0.52673936 282 78041800 1015 23 91 5997
1.4270434 5.8901997 0.48528242 241 78041800 889 24 46 6080
1.2057912 5.9082432 0.42515102 145 78041800 528 25 48 6045
0.98244125 5.9057369 0.36481076 165 78041800 595 26 74 5998
0.7613259 5.8740249 0.30492562 241 78041800 846 27 46 5931
1.3959022 5.749383 0.25717816 794 78041800 2786 28 65 5922
1.197345 5.8564234 0.20257865 535 78041800 1912 29 46 5981
0.98475409 5.8853683 0.1471896 511 78041800 1820 30 34 5969
0.77046198 5.9274697 0.089308113 441 78041800 1578 31 58 5978
1.3875762 5.7137856 0.041049812 793 78041800 2743 32 75 5880
1.1698759 5.7113991 -0.014754126 853 78041800 2901 33 64 5830
0.97414303 5.8175845 -0.070420898 805 78041800 2803 34 65 5899
0.76202416 5.8330827 -0.1262027 834 78041800 2888 35 73 5884
