# .PCD v0.7 - Point Cloud Data file format
VERSION 0.7
FIELDS x y z intensity t reflectivity ring noise range
SIZE 4 4 4 4 4 2 1 2 4
TYPE F F F F U U U U U
COUNT 1 1 1 1 1 1 1 1 1
WIDTH 769
HEIGHT 1
VIEWPOINT 0 0 0 1 0 0 0
POINTS 769
DATA ascii
-2.0544109 5.2020087 1.0730917 164 68097660 532 12 126 5695
-2.1056128 4.8062038 0.95272803 81 68097660 229 13 48 5333
-2.3803675 4.9303117 0.9401632 85 68097660 263 14 102 5555
-2.5421126 4.8070211 0.88277864 701 68097660 2128 15 82 5509
-1.9312572 4.890419 0.81021416 166 68097660 471 16 64 5320
-2.3555853 5.3801041 0.84738523 309 68097660 1088 17 106 5934
-2.3560669 4.8867302 0.73041064 623 68097660 1867 18 101 5474
-2.4385602 4.618032 0.65297568 668 68097660 1851 19 106 5263
-2.1446853 5.431149 0.68234038 353 68097660 1220 20 111 5879
-2.1638734 4.9443521 0.57812023 500 68097660 1473 21 113 5428
-2.2683589 4.7104874 0.50977433 625 68097660 1725 22 104 5253
-2.3182228 4.3959012 0.43820292 684 68097660 1702 23 145 4989
-2.0228992 5.1256208 0.44122389 408 68097660 1247 24 108 5528
-2.1044135 4.8119183 0.37029284 661 68097660 1833 25 99 5265
-2.1660402 4.4984131 0.304232 656 68097660 1640 26 139 5002
-2.2126367 4.201726 0.2444649 703 68097660 1589 27 133 4755
-1.9406976 4.9243846 0.23007935 737 68097660 2070 28 90 5298
-2.0091097 4.5983696 0.17006309 642 68097660 1618 29 43 5021
-2.0746834 4.3190937 0.1181906 694 68097660 1593 30 55 4793
-2.1350965 4.0580869 0.06851238 753 68097660 1584 31 97 4586
-1.8520421 4.7001491 0.035269327 677 68097660 1728 32 109 5052
-1.9145621 4.3863544 -0.012112049 678 68097660 1553 33 124 4786
-2.0079803 4.1815395 -0.055379312 640 68097660 1378 34 91 4639
-2.0494633 3.901439 -0.094544776 766 68097660 1488 35 106 4408
-1.7658955 4.4879537 -0.14322381 719 68097660 1673 36 170 4825
-1.8268877 4.1938705 -0.17893304 721 68097660 1512 37 80 4578
-1.9102567 3.9823079 -0.21501157 779 68097660 1524 38 207 4422
-1.9708662 3.7516596 -0.24650431 727 68097660 1311 39 96 4245
-1.6783319 4.2752657 -0.3048183 796 68097660 1686 40 119 4603
-1.7654669 4.057899 -0.33530447 742 68097660 1461 41 124 4438
-1.8347061 3.8275483 -0.36239451 761 68097660 1380 42 151 4260
-1.8976672 3.6170731 -0.38762355 790 68097660 1330 43 90 4103
-1.6251594 4.1440701 -0.4595305 787 68097660 1576 44 127 4475
-1.6936092 3.8970108 -0.47871771 749 68097660 1370 45 84 4276
-1.7777859 3.7137892 -0.50314271 787 68097660 1354 46 118 4148
-1.8465549 3.5217412 -0.52506745 803 68097660 1291 47 135 4011
-1.5614486 3.9914458 -0.60151833 761 68097660 1425 48 115 4328
-1.6310003 3.757431 -0.61458594 702 68097660 1205 49 68 4142
-1.6997614 3.5555754 -0.62990201 737 68097660 1174 50 100 3991
-1.7694563 3.3769917 -0.64702415 789 68097660 1180 51 96 3867
-1.5083185 3.8657711 -0.73960531 786 68097660 1396 52 117 4215
-1.5685717 3.6186237 -0.74115688 746 68097660 1202 53 102 4013
-1.6443853 3.442518 -0.75457841 766 68097660 1159 54 108 3889
-1.7148852 3.2727044 -0.76918888 756 68097660 1077 55 76 3774
-1.4529076 3.7299049 -0.86838114 748 68097660 1254 56 156 4096
-1.5182239 3.5075057 -0.86658102 727 68097660 1117 57 83 3919
-1.5910158 3.3324342 -0.8749724 727 68097660 1047 58 80 3795
-1.6789027 3.2047153 -0.89532995 385 68097660 535 59 89 3727
-1.3922527 3.5865867 -0.9873262 676 68097660 1067 60 69 3972
-1.4997478 3.4727986 -1.0087878 279 68097660 428 61 61 3915
-1.5696024 3.2892067 -1.0104411 483 68097660 691 62 64 3782
-1.662227 3.1696539 -1.0324349 30 68097660 41 63 52 3725
-2.2328718 5.771677 1.9316621 786 68194170 3304 0 92 6483
-2.4816217 5.7534661 1.8806782 796 68194170 3407 1 121 6542
-2.7185488 5.7037024 1.8295802 838 68194170 3628 2 62 6578
-2.9987228 5.7258468 1.8055108 719 68194170 3240 3 76 6711
-2.2904239 5.9115486 1.7126143 810 68194170 3494 4 94 6567
-2.5295222 5.871563 1.659005 873 68194170 3810 5 70 6605
-2.7724526 5.8225517 1.6064624 227 68194170 1003 6 119 6646
-2.5710888 4.9214249 1.3273133 123 68194170 402 7 73 5709
-2.3447769 6.0483851 1.4948953 878 68194170 3891 8 101 6657
-2.352664 5.4552717 1.3068572 71 68194170 264 9 62 6083
-2.2664626 4.7665415 1.1080064 56 68194170 161 10 57 5393
-2.6335514 5.0517244 1.1404358 149 68194170 505 11 58 5810
-2.0650687 5.3243923 1.095703 131 68194170 443 12 115 5815
-2.0387111 4.7322855 0.93557793 25 68194170 70 13 59 5237
-2.3449943 4.9341426 0.93813223 88 68194170 271 14 97 5543
-2.4633121 4.7279859 0.86547232 784 68194170 2288 15 71 5401
-1.9269446 4.9685225 0.82117945 49 68194170 141 16 46 5392
-2.3037422 5.3508201 0.84053069 475 68194170 1646 17 103 5886
-2.3413353 4.9333267 0.73521417 620 68194170 1882 18 101 5510
-2.4266646 4.664598 0.65744215 675 68194170 1895 19 127 5299
-2.1242487 5.4775443 0.68651873 654 68194170 2289 20 99 5915
-2.1617947 5.0232959 0.58578873 597 68194170 1807 21 92 5500
-2.259876 4.7674861 0.51443243 637 68194170 1791 22 98 5301
-2.3077393 4.441865 0.44136491 698 68194170 1762 23 151 5025
-1.9914107 5.1379366 0.44122389 542 68194170 1658 24 74 5528
-2.0748484 4.8247399 0.37029284 667 68194170 1849 25 104 5265
-2.1435277 4.5224428 0.30496189 674 68194170 1693 26 159 5014
-2.2254453 4.2896881 0.24878354 713 68194170 1669 27 148 4839
-1.9061184 4.9250193 0.22955821 714 68194170 1995 28 110 5286
-1.9997934 4.6546874 0.17168887 626 68194170 1609 29 74 5069
-2.073782 4.3859682 0.11967015 693 68194170 1633 30 79 4853
-2.1211996 4.0924163 0.068870924 745 68194170 1583 31 111 4610
-1.8361595 4.744998 0.035520654 672 68194170 1740 32 109 5088
-1.9065433 4.4421277 -0.012233524 690 68194170 1612 33 137 4834
-1.9925404 4.2154779 -0.055665817 700 68194170 1522 34 114 4663
-2.042028 3.9459059 -0.095316924 777 68194170 1535 35 91 4444
-1.7469714 4.5210814 -0.14393623 714 68194170 1678 36 171 4849
-1.8200049 4.2490907 -0.18080916 730 68194170 1563 37 83 4626
-1.9011382 4.0264692 -0.21676199 737 68194170 1465 38 210 4458
-1.9533154 3.7743211 -0.24720111 757 68194170 1372 39 106 4257
-1.6692954 4.3301721 -0.30799693 800 68194170 1730 40 137 4651
-1.7499474 4.0906582 -0.33711773 750 68194170 1493 41 117 4462
-1.8213902 3.8603606 -0.36443618 738 68194170 1355 42 182 4284
-1.8809227 3.6392615 -0.38875723 759 68194170 1285 43 102 4115
-1.6125703 4.1873813 -0.46322727 798 68194170 1624 44 107 4511
-1.6884086 3.9511909 -0.48409158 743 68194170 1389 45 101 4324
-1.7498879 3.7138524 -0.50168711 760 68194170 1300 46 109 4136
-1.8194513 3.5224352 -0.52349657 778 68194170 1244 47 149 3999
-1.5369281 4.0009513 -0.60151833 801 68194170 1500 48 121 4328
-1.6218895 3.8001115 -0.61992753 742 68194170 1296 49 81 4178
-1.6880031 3.5873821 -0.63369 768 68194170 1239 50 66 4015
-1.7541288 3.3982985 -0.649032 779 68194170 1172 51 96 3879
-1.4803437 3.8639212 -0.73749965 759 68194170 1341 52 108 4203
-1.5648347 3.6715777 -0.75002205 758 68194170 1250 53 89 4061
-1.6432662 3.495156 -0.76389182 768 68194170 1191 54 83 3937
-1.7001609 3.2936046 -0.77163464 777 68194170 1114 55 68 3786
-1.429994 3.7387497 -0.86838114 755 68194170 1266 56 139 4096
-1.5104221 3.5490601 -0.87454146 740 68194170 1158 57 68 3955
-1.5804708 3.3632698 -0.88050586 729 68194170 1063 58 82 3819
-1.6805762 3.256362 -0.90686089 189 68194170 270 59 85 3775
-1.3784989 3.6167846 -0.99329197 576 68194170 921 60 65 3996
-1.4602847 3.439245 -0.99641949 732 68194170 1095 61 71 3867
-1.5493907 3.2987759 -1.0104411 629 68194170 900 62 90 3782
-1.6109947 3.1183317 -1.0124792 107 68194170 142 63 33 3653
-2.1852133 5.7531438 1.9209356 811 68293280 3372 0 90 6447
-2.432811 5.7368407 1.870329 866 68293280 3667 1 101 6506
-2.6981864 5.7515812 1.8395931 787 68293280 3444 2 85 6614
-2.9370377 5.6927829 1.7893685 850 68293280 3762 3 67 6651
-2.2458704 5.9038353 1.7063553 782 68293280 3348 4 99 6543
-2.4843869 5.865582 1.6529768 868 68293280 3757 5 55 6581
-2.7564392 5.881628 1.6180649 691 68293280 3098 6 86 6694
-2.5835688 5.0201287 1.3496329 104 68293280 351 7 85 5805
-2.3034608 6.0517302 1.4922006 888 68293280 3921 8 124 6645
-2.5524721 6.0198917 1.4383378 261 68293280 1171 9 86 6695
-2.3964674 5.1207371 1.1869003 90 68293280 302 10 60 5777
-2.3982463 4.6700406 1.0509282 54 68293280 154 11 44 5354
-2.1497931 5.6453414 1.1590146 85 68293280 321 12 128 6151
-2.1293621 5.0273762 0.99131596 104 68293280 322 13 66 5549
-2.2846086 4.884161 0.92594653 55 68293280 165 14 114 5471
-2.4612978 4.7957025 0.87508696 677 68293280 2020 15 76 5461
-1.8922015 4.9691687 0.81935185 39 68293280 112 16 55 5380
-2.2708669 5.3648548 0.84053069 483 68293280 1675 17 78 5886
-2.2959218 4.9152746 0.73041064 610 68293280 1828 18 94 5474
-2.4197192 4.721787 0.66339743 655 68293280 1873 19 107 5347
-2.103323 5.523891 0.69069701 385 68293280 1364 20 113 5951
-2.1541781 5.0914092 0.59217912 573 68293280 1771 21 121 5560
-2.2507787 4.8245568 0.51909065 657 68293280 1881 22 84 5349
-2.2967787 4.4878645 0.44452694 677 68293280 1733 23 161 5061
-1.9853737 5.2171364 0.44697064 615 68293280 1929 24 106 5600
-2.0685124 4.8925071 0.3745127 641 68293280 1818 25 97 5325
-2.1410561 4.5897841 0.30861118 669 68293280 1722 26 136 5074
-2.2045357 4.3139338 0.24940048 711 68293280 1672 27 143 4851
-1.892897 4.9814496 0.23164274 723 68293280 2058 28 101 5334
-1.9851944 4.7000141 0.1729082 638 68293280 1661 29 57 5105
-2.0468314 4.3986101 0.11967015 684 68293280 1610 30 50 4853
-2.1069613 4.1267276 0.069229476 732 68293280 1572 31 89 4634
-1.8197955 4.7898269 0.035771977 682 68293280 1790 32 136 5124
-1.8885812 4.4758549 -0.012294262 684 68293280 1614 33 122 4858
-1.9666373 4.2276244 -0.055665817 669 68293280 1455 34 92 4663
-2.0177779 3.9583614 -0.095316924 754 68293280 1489 35 100 4444
-1.7362158 4.5765748 -0.14536104 752 68293280 1802 36 161 4897
-1.8032055 4.2822795 -0.1817472 749 68293280 1621 37 59 4650
-1.8814473 4.0489283 -0.21734548 745 68293280 1489 38 226 4470
-1.9355606 3.7969084 -0.24789795 732 68293280 1334 39 100 4269
-1.6596478 4.3851275 -0.31117558 787 68293280 1737 40 124 4699
-1.734092 4.1233783 -0.33893099 747 68293280 1503 41 122 4486
-1.80774 3.8931522 -0.36647782 766 68293280 1420 42 171 4308
-1.8856564 3.7039647 -0.39442563 818 68293280 1426 43 78 4175
-1.5910679 4.2083621 -0.46445954 816 68293280 1669 44 130 4523
-1.6733693 3.983464 -0.48677847 727 68293280 1375 45 81 4348
-1.7420999 3.7569382 -0.50605386 786 68293280 1368 46 133 4172
-1.8085935 3.5547395 -0.52663839 760 68293280 1229 47 153 4023
-1.5249295 4.043664 -0.60652179 793 68293280 1510 48 120 4364
-1.6077245 3.8318779 -0.62348866 734 68293280 1297 49 58 4202
-1.680897 3.6299298 -0.63937187 749 68293280 1230 50 86 4051
-1.7493299 3.4406357 -0.65505552 784 68293280 1202 51 80 3915
-1.4607661 3.8839893 -0.73960531 798 68293280 1418 52 111 4215
-1.5559489 3.7137425 -0.75667077 738 68293280 1239 53 117 4097
-1.6217895 3.5051732 -0.76389182 745 68293280 1155 54 116 3937
-1.6905689 3.3249187 -0.77652615 778 68293280 1130 55 78 3810
-1.4111487 3.7584324 -0.87092525 735 68293280 1240 56 141 4108
-1.4931338 3.5690575 -0.87719494 743 68293280 1170 57 71 3967
-1.5598044 3.3729041 -0.88050586 744 68293280 1085 58 86 3819
-1.6763998 3.2977643 -0.9155091 64 68293280 93 59 80 3811
-1.3644265 3.6469471 -0.99925762 452 68293280 730 60 47 4020
-1.4346884 3.4374404 -0.9933275 746 68293280 1109 61 79 3855
-1.5242689 3.297724 -1.0072352 737 68293280 1048 62 64 3770
-1.565685 3.0767784 -0.99584931 307 68293280 396 63 30 3593
-2.1618762 5.7986436 1.9316621 823 68389890 3460 0 94 6483
-2.3887203 5.730443 1.8634295 874 68389890 3673 1 109 6482
-2.6580133 5.7575636 1.8362554 851 68389890 3711 2 77 6602
-2.9020522 5.7106972 1.7893685 911 68389890 4032 3 59 6651
-2.2096028 5.9175043 1.7063553 895 68389890 3831 4 122 6543
-2.4617429 5.9128847 1.662019 883 68389890 3864 5 54 6617
-2.7105453 5.8772831 1.6122637 828 68389890 3684 6 110 6670
-2.5105016 4.9526057 1.3273133 244 68389890 797 7 70 5709
-2.2580996 6.0438418 1.4868112 855 68389890 3748 8 117 6621
-2.5335217 6.078712 1.4486501 666 68389890 3029 9 95 6743
-2.3944776 5.199348 1.2016928 97 68389890 334 10 59 5849
-2.3536139 4.6531692 1.043862 90 68389890 254 11 40 5318
-2.3255589 6.221417 1.2743319 485 68389890 2218 12 124 6763
-2.2164643 5.3237472 1.0470539 88 68389890 304 13 68 5861
-2.2496517 4.8873439 0.92391557 69 68389890 206 14 83 5459
-2.4425128 4.8318563 0.87893277 663 68389890 1995 15 84 5485
-1.940572 5.1917629 0.85407537 110 68389890 348 16 59 5608
-2.0919061 5.0277848 0.7856949 63 68389890 191 17 119 5502
-2.2756526 4.950881 0.73361295 647 68389890 1956 18 83 5498
-2.401432 4.7578053 0.6663751 650 68389890 1876 19 98 5371
-2.0693893 5.5366931 0.69069701 236 68389890 836 20 96 5951
-2.1228971 5.1045308 0.59217912 606 68389890 1873 21 113 5560
-2.2261159 4.8491302 0.52025509 635 68389890 1826 22 95 5361
-2.2799592 4.523221 0.44663492 670 68389890 1732 23 143 5085
-1.9533246 5.2292204 0.44697064 539 68389890 1691 24 82 5600
-2.0568285 4.9493217 0.37788856 667 68389890 1926 25 86 5373
-2.1278441 4.6354918 0.31080079 639 68389890 1667 26 149 5110
-2.1834123 4.3380842 0.25001743 693 68389890 1638 27 125 4863
-1.8832439 5.0491343 0.23424838 735 68389890 2140 28 76 5394
-1.960917 4.7231827 0.17331465 651 68389890 1706 29 64 5117
-2.0447752 4.4656229 0.12114968 696 68389890 1679 30 52 4913
-2.1031621 4.1824565 0.069946565 719 68389890 1577 31 100 4682
-1.7903714 4.8009028 0.035771977 683 68389890 1794 32 97 5124
-1.8748736 4.5206118 -0.012385366 682 68389890 1633 33 130 4894
-1.9556427 4.2723436 -0.056095578 684 68389890 1511 34 117 4699
-2.0042176 3.9921117 -0.095831692 767 68389890 1531 35 96 4468
-1.7206588 4.6208639 -0.14642964 753 68389890 1831 36 167 4933
-1.7860671 4.3154221 -0.18268524 711 68389890 1554 37 91 4674
-1.8665364 4.0821972 -0.21851245 744 68389890 1503 38 219 4494
-1.9283525 3.840832 -0.24998847 720 68389890 1335 39 83 4305
-1.6410489 4.4176764 -0.31276488 804 68389890 1793 40 118 4723
-1.7179006 4.1560574 -0.34074429 733 68389890 1491 41 119 4510
-1.7887869 3.9150462 -0.36749864 746 68389890 1391 42 171 4320
-1.8521849 3.6941068 -0.39215824 778 68389890 1341 43 92 4151
-1.5776739 4.2516179 -0.46815628 781 68389890 1623 44 130 4559
-1.6534466 4.0046787 -0.48812193 770 68389890 1464 45 76 4360
-1.7289037 3.7892299 -0.50896496 785 68389890 1383 46 88 4196
-1.8027366 3.5976782 -0.53135097 766 68389890 1261 47 146 4059
-1.5042143 4.0640898 -0.60818958 821 68389890 1573 48 86 4376
-1.5887065 3.8526418 -0.62526923 726 68389890 1290 49 84 4214
-1.6635058 3.6509585 -0.64126587 746 68389890 1232 50 84 4063
-1.7440771 3.4830408 -0.66107899 807 68389890 1260 51 84 3951
-1.4491794 3.9261284 -0.74592227 769 68389890 1390 52 113 4251
-1.5331324 3.7232196 -0.75667077 749 68389890 1257 53 121 4097
-1.605129 3.5257721 -0.76622015 744 68389890 1161 54 79 3949
-1.6753961 3.3457341 -0.77897191 773 68389890 1129 55 88 3822
-1.3921155 3.7780244 -0.87346935 685 68389890 1162 56 135 4120
-1.4801069 3.5997994 -0.8825019 730 68389890 1163 57 91 3991
-1.5487515 3.4036677 -0.88603926 766 68389890 1131 58 95 3843
-1.6457039 3.2871561 -0.90974367 57 68389890 82 59 77 3787
-1.374072 3.7425404 -1.0231205 306 68389890 518 60 54 4116
-1.4223702 3.4676335 -0.9995116 717 68389890 1078 61 56 3879
-1.4944311 3.2859621 -1.000823 736 68389890 1033 62 75 3746
-1.5467768 3.0863273 -0.99584931 124 68389890 159 63 57 3593
-2.1262558 5.811799 1.9316621 813 68487120 3418 0 93 6483
-2.3578708 5.7556276 1.8668792 856 68487120 3610 1 113 6494
-2.6131015 5.7527757 1.8295802 830 68487120 3593 2 71 6578
-2.856612 5.7077255 1.7829115 909 68487120 3994 3 78 6627
-2.1692662 5.9200735 1.7032257 861 68487120 3673 4 110 6531
-2.4166188 5.9063783 1.655991 890 68487120 3870 5 68 6593
-2.6648088 5.8725967 1.6064624 829 68487120 3662 6 116 6646
-2.4227233 4.8530517 1.2966239 691 68487120 2150 7 81 5577
-2.2209725 6.0575833 1.4868112 851 68487120 3731 8 97 6621
-2.4784064 6.0507612 1.4383378 806 68487120 3613 9 119 6695
-2.3237534 5.128365 1.1819693 247 68487120 819 10 74 5753
-2.29354 4.6043296 1.0297291 304 68487120 835 11 47 5246
-2.2832825 6.2245049 1.2720708 760 68487120 3463 12 128 6751
-2.1748145 5.315392 1.0427665 91 68487120 312 13 66 5837
-2.1757088 4.8040938 0.90563697 84 68487120 241 14 90 5351
-2.4233768 4.8679595 0.88277864 584 68487120 1773 15 86 5509
-2.0107841 5.4819379 0.89976418 87 68487120 305 16 69 5908
-2.0520265 5.0185385 0.78226763 98 68487120 294 17 119 5478
-2.2599332 4.9972596 0.73841661 603 68487120 1847 18 93 5534
-2.3827937 4.7937765 0.66935277 691 68487120 2012 19 96 5395
-1.8794156 5.1240678 0.63777184 47 68487120 142 20 98 5495
-2.0960505 5.1285052 0.59345716 627 68487120 1947 21 110 5572
-2.2209017 4.9171214 0.52607781 653 68487120 1920 22 78 5421
-2.2787366 4.590661 0.45190498 704 68487120 1863 23 163 5145
-1.9212019 5.241107 0.44697064 597 68487120 1873 24 83 5600
-2.0399988 4.9950948 0.38042051 683 68487120 1998 25 101 5409
-2.1042912 4.6593771 0.31153065 679 68487120 1781 26 132 5122
-2.1727192 4.3836122 0.25186828 715 68487120 1716 27 116 4899
-1.860469 5.0831113 0.23529066 728 68487120 2138 28 75 5418
-1.9545518 4.790648 0.17534687 647 68487120 1735 29 71 5177
-2.0222635 4.4890232 0.12144559 674 68487120 1634 30 57 4925
-2.0827839 4.2060351 0.070125841 755 68487120 1664 31 83 4694
-1.7773753 4.8568735 0.036107082 674 68487120 1803 32 118 5172
-1.8561586 4.554256 -0.012446105 713 68487120 1725 33 104 4918
-1.9441726 4.3170853 -0.056525335 657 68487120 1473 34 125 4735
-2.0009527 4.0473528 -0.096861213 753 68487120 1535 35 118 4516
-1.7046232 4.6651335 -0.14749826 745 68487120 1839 36 152 4969
-1.7776244 4.370729 -0.18456134 728 68487120 1624 37 74 4722
-1.8660388 4.1482272 -0.22142982 721 68487120 1495 38 221 4554
-1.9259869 3.8955474 -0.25277579 790 68487120 1498 39 92 4353
-1.6221129 4.4501619 -0.31435421 784 68487120 1766 40 142 4747
-1.6923672 4.1665201 -0.34074429 720 68487120 1464 41 127 4510
-1.7745351 3.9477594 -0.36954033 758 68487120 1431 42 173 4344
-1.8400611 3.7268257 -0.39442563 782 68487120 1364 43 78 4175
-1.5597247 4.2836509 -0.47062081 797 68487120 1674 44 124 4583
-1.6378094 4.0368485 -0.49080884 730 68487120 1403 45 91 4384
-1.7202544 3.8323677 -0.51333171 759 68487120 1359 46 142 4232
-1.7806277 3.6086717 -0.53135097 774 68487120 1275 47 143 4059
-1.4914184 4.1067519 -0.61319292 791 68487120 1540 48 104 4412
-1.5873206 3.91731 -0.63417196 721 68487120 1317 49 91 4274
-1.6507664 3.6827228 -0.6450538 750 68487120 1253 50 86 4087
-1.7226727 3.4936767 -0.66107899 776 68487120 1212 51 92 3951
-1.4290845 3.9460537 -0.74802786 762 68487120 1385 52 114 4263
-1.5191054 3.7544219 -0.76110333 732 68487120 1243 53 128 4121
-1.5930886 3.5570421 -0.77087688 767 68487120 1211 54 101 3973
-1.6548355 3.3559513 -0.77897191 772 68487120 1128 55 88 3822
-1.380869 3.8195808 -0.88110155 599 68487120 1034 56 131 4156
-1.462375 3.6196644 -0.88515538 714 68487120 1144 57 84 4003
-1.5326085 3.4237642 -0.88880599 729 68487120 1083 58 94 3855
-1.5945987 3.2345045 -0.89244723 428 68487120 591 59 77 3715
-1.3668383 3.7946432 -1.0350519 141 68487120 244 60 52 4164
-1.409735 3.4978042 -1.0056957 695 68487120 1058 61 45 3903
-1.4884084 3.3267362 -1.0104411 444 68487120 636 62 77 3782
-1.5584261 3.1577959 -1.0158051 18 68487120 25 63 60 3665
-2.0866857 5.8139548 1.9280866 824 68583460 3450 0 126 6471
-2.3182189 5.7593246 1.8634295 882 68583460 3707 1 91 6482
-2.5824564 5.7792244 1.8329177 818 68583460 3554 2 70 6590
-2.8215361 5.7251458 1.7829115 896 68583460 3933 3 54 6627
-2.1250627 5.911469 1.6969669 883 68583460 3738 4 125 6507
-2.3716674 5.8995409 1.6499627 866 68583460 3734 5 54 6569
-2.6287251 5.8888373 1.6064624 838 68583460 3702 6 108 6646
-2.3980486 4.8782997 1.2994139 680 68583460 2124 7 110 5589
-2.1837621 6.0710969 1.4868112 863 68583460 3783 8 107 6621
-2.4412332 6.0658545 1.4383378 819 68583460 3670 9 138 6695
-2.2348669 5.0138073 1.1523842 616 68583460 1940 10 68 5609
-2.1823387 4.4492888 0.99204183 1159 68583460 2961 11 72 5054
-2.2330749 6.2051311 1.2652874 819 68583460 3692 12 146 6715
-2.1069272 5.2409973 1.0256163 273 68583460 901 13 65 5741
-2.1221254 4.7633371 0.89548224 353 68583460 988 14 102 5291
-2.4768789 5.0529108 0.91354525 127 68583460 414 15 68 5701
-1.9690782 5.4718533 0.89610904 88 68583460 303 16 46 5884
-2.016767 5.0200143 0.780554 97 68583460 291 17 87 5466
-2.2775669 5.1196918 0.75442851 406 68583460 1298 18 109 5654
-2.3795071 4.8617816 0.67679691 480 68583460 1429 19 101 5455
-1.8479395 5.1355033 0.63777184 67 68583460 203 20 94 5495
-2.0734355 5.1634145 0.59601337 591 68583460 1851 21 106 5596
-2.1906891 4.930656 0.52607781 657 68583460 1931 22 96 5421
-2.255775 4.6152959 0.45295897 684 68583460 1818 23 156 5157
-1.8971026 5.2753086 0.44888622 630 68583460 1994 24 86 5624
-2.0137687 5.0186272 0.38126448 663 68583460 1949 25 81 5421
-2.1145656 4.7597709 0.31736958 650 68583460 1770 26 113 5218
-2.1562932 4.4184012 0.25310215 721 68583460 1747 27 104 4923
-1.8413991 5.1282816 0.23685406 742 68583460 2208 28 79 5454
-1.9340448 4.8248153 0.17615975 633 68583460 1713 29 71 5201
-2.0044017 4.5232825 0.12203741 680 68583460 1667 30 68 4949
-2.0621955 4.2295208 0.070305116 739 68583460 1637 31 89 4706
-1.7597045 4.9015694 0.036358405 660 68583460 1790 32 123 5208
-1.8415617 4.5989795 -0.012537211 717 68583460 1760 33 122 4954
-1.9273667 4.3508749 -0.056811843 675 68583460 1529 34 113 4759
-1.9760809 4.0595541 -0.096861213 719 68583460 1466 35 108 4516
-1.6759664 4.6755047 -0.14749826 730 68583460 1802 36 141 4969
-1.7596712 4.4038239 -0.1854994 724 68583460 1632 37 78 4746
-1.8405507 4.1595988 -0.22142982 732 68583460 1518 38 225 4554
-1.9125348 3.9288344 -0.25416946 709 68583460 1359 39 90 4377
-1.6028396 4.4825807 -0.31594354 797 68583460 1814 40 122 4771
-1.6889443 4.2323933 -0.34527746 752 68583460 1571 41 112 4570
-1.7647836 3.991379 -0.37260279 768 68583460 1472 42 156 4380
-1.827605 3.7595344 -0.39669299 791 68583460 1395 43 85 4199
-1.5414416 4.3156228 -0.47308537 800 68583460 1698 44 132 4607
-1.6306695 4.0911303 -0.49618265 776 68583460 1525 45 69 4432
-1.6967071 3.8428509 -0.51333171 756 68583460 1354 46 131 4232
-1.7792467 3.6623328 -0.53763455 742 68583460 1252 47 183 4107
-1.4741675 4.1382146 -0.61652857 808 68583460 1590 48 108 4436
-1.5632545 3.9269757 -0.63417196 724 68583460 1323 49 85 4274
-1.6329188 3.7036247 -0.64694768 751 68583460 1262 50 65 4099
-1.7012035 3.5041809 -0.66107899 770 68583460 1202 51 87 3951
-1.4127542 3.9770131 -0.75223917 762 68583460 1401 52 113 4287
-1.5003965 3.774632 -0.76331961 729 68583460 1245 53 101 4133
-1.5807245 3.5882959 -0.77553356 736 68583460 1176 54 93 3997
-1.6496055 3.3977473 -0.78630918 777 68583460 1157 55 73 3858
-1.3574066 3.8279817 -0.88110155 484 68583460 836 56 131 4156
-1.4530891 3.6612017 -0.89311576 698 68583460 1139 57 89 4039
-1.5256877 3.4651639 -0.89710617 749 68583460 1134 58 83 3891
-1.5848953 3.2651865 -0.89821267 189 68583460 265 59 75 3739
-1.3745039 3.890635 -1.0589149 102 68583460 184 60 46 4260
-1.3925146 3.5171688 -1.0087878 644 68583460 988 61 61 3915
-1.5192033 3.4522333 -1.0457078 77 68583460 119 62 70 3914
-1.7053108 3.5095227 -1.125562 21 68583460 34 63 41 4061
-2.0585794 5.8482594 1.9352376 746 68681130 3147 0 105 6495
-2.2870629 5.7841287 1.8668792 875 68681130 3690 1 125 6494
-2.5423095 5.784409 1.8295802 801 68681130 3467 2 74 6578
-2.7762632 5.7215543 1.7764546 907 68681130 3957 3 71 6603
-2.0926025 5.9353228 1.7000964 854 68681130 3628 4 137 6519
-2.3439565 5.9355888 1.655991 780 68681130 3392 5 63 6593
-2.5878611 5.8941941 1.6035618 858 68681130 3776 6 120 6634
-2.3680708 4.8929224 1.2994139 502 68681130 1569 7 74 5589
-2.1464696 6.0843821 1.4868112 844 68681130 3700 8 114 6621
-2.3953502 6.0589218 1.4331818 805 68681130 3582 9 123 6671
-2.2040606 5.0274258 1.1523842 630 68681130 1983 10 75 5609
-2.1856978 4.5261703 1.0061746 627 68681130 1649 11 63 5126
-2.187114 6.1964903 1.2607652 860 68681130 3849 12 158 6691
-2.0443728 5.1769543 1.0106099 607 68681130 1943 13 95 5657
-2.0501387 4.6787748 0.87720358 739 68681130 1985 14 94 5183
-2.4303837 5.0360112 0.90777653 82 68681130 264 15 77 5665
-1.8880996 5.3496256 0.87417841 460 68681130 1515 16 41 5740
-1.9292486 4.8886728 0.758277 351 68681130 990 17 88 5310
-2.2985487 5.2534204 0.77204162 450 68681130 1507 18 102 5786
-2.3496308 4.8762908 0.67679691 519 68681130 1545 19 82 5455
-1.7886273 5.068069 0.62802243 113 68681130 332 20 83 5411
-2.1117661 5.353631 0.61646271 575 68681130 1927 21 96 5788
-2.1843052 4.9987259 0.53190047 454 68681130 1365 22 78 5481
-2.2377796 4.6505933 0.45506698 679 68681130 1822 23 145 5181
-1.8925494 5.3658142 0.45559078 586 68681130 1910 24 90 5708
-2.0048845 5.0865712 0.38548434 653 68681130 1962 25 92 5481
-2.0805247 4.7616801 0.31663972 690 68681130 1869 26 158 5206
-2.1395214 4.4531527 0.25433603 685 68681130 1676 27 98 4947
-1.8178622 5.1620994 0.23789631 743 68681130 2231 28 89 5478
-1.908798 4.8477507 0.1765662 639 68681130 1738 29 66 5213
-1.9957805 4.5794854 0.12322104 690 68681130 1724 30 71 4997
-2.0517814 4.2745457 0.070842937 724 68681130 1629 31 82 4742
-1.7415516 4.9462309 0.036609732 693 68681130 1906 32 104 5244
-1.8264852 4.6436939 -0.012628317 720 68681130 1793 33 120 4990
-1.9054266 4.37362 -0.056955099 637 68681130 1450 34 129 4771
-1.9874269 4.147337 -0.098662883 771 68681130 1632 35 91 4600
-1.6671368 4.7422795 -0.14927928 745 68681130 1883 36 154 5029
-1.7457591 4.4480238 -0.18690647 738 68681130 1688 37 101 4782
-1.8197756 4.1818037 -0.22201328 736 68681130 1535 38 215 4566
-1.8935692 3.951299 -0.2548663 736 68681130 1418 39 90 4389
-1.5832291 4.5149288 -0.31753284 774 68681130 1779 40 145 4795
-1.6673096 4.2538171 -0.3461841 740 68681130 1553 41 141 4582
-1.7497956 4.0240622 -0.37464446 737 68681130 1428 42 164 4404
-1.8148164 3.7922292 -0.39896032 804 68681130 1434 43 73 4223
-1.5228242 4.3475304 -0.47554985 812 68681130 1741 44 129 4631
-1.601189 4.0899544 -0.49483919 719 68681130 1405 45 73 4420
-1.6873282 3.8859668 -0.51769841 778 68681130 1418 46 114 4268
-1.7567415 3.6731813 -0.53763455 738 68681130 1244 47 172 4107
-1.4565861 4.1696196 -0.61986411 818 68681130 1627 48 98 4460
-1.5477724 3.9585989 -0.6377331 735 68681130 1358 49 67 4298
-1.6195908 3.7353177 -0.65073568 749 68681130 1274 50 82 4123
-1.6898732 3.535902 -0.66509467 781 68681130 1234 51 93 3975
-1.3960974 4.0079193 -0.75645047 736 68681130 1368 52 124 4311
-1.4857854 3.8057389 -0.76775211 758 68681130 1310 53 94 4157
-1.5727159 3.6303332 -0.78251857 772 68681130 1256 54 110 4033
-1.6287262 3.407805 -0.78630918 765 68681130 1139 55 86 3858
-1.3570018 3.902699 -0.89636612 370 68681130 661 56 135 4228
-1.4348475 3.6809525 -0.89576924 725 68681130 1190 57 82 4051
-1.5090368 3.4851754 -0.89987284 723 68681130 1102 58 67 3903
-1.6100303 3.3694429 -0.92415732 93 68681130 138 59 61 3847
-1.3391919 3.866046 -1.0499662 204 68681130 364 60 34 4224
-1.3751094 3.5364537 -1.0118799 569 68681130 877 61 55 3927
-1.4382868 3.3235254 -1.004029 357 68681130 504 62 52 3758
-1.5842373 3.311897 -1.0590427 260 68681130 379 63 48 3821
-2.0114453 5.8282952 1.9245111 802 68778930 3346 0 94 6459
-2.2515292 5.7980533 1.8668792 854 68778930 3602 1 120 6494
-2.5021961 5.789319 1.8262426 832 68778930 3589 2 67 6566
-2.7460859 5.7489104 1.7796831 917 68778930 4015 3 74 6615
-2.0599294 5.9589996 1.7032257 851 68778930 3630 4 109 6531
-2.3032923 5.9390302 1.6529768 892 68778930 3861 5 53 6581
-2.5470307 5.8992715 1.600661 842 68778930 3693 6 87 6622
-2.3631032 4.9600425 1.3133636 412 68778930 1315 7 103 5649
-2.1052735 6.0863872 1.4841164 836 68778930 3651 8 119 6609
-2.3538864 6.0625801 1.4306036 794 68778930 3521 9 114 6659
-2.1824701 5.0624242 1.157315 441 68778930 1400 10 80 5633
-2.2235556 4.6776471 1.0367955 117 68778930 328 11 64 5282
-2.1529062 6.2209306 1.2630262 887 68778930 3984 12 146 6703
-1.9997615 5.1563768 1.0041785 635 68778930 2007 13 99 5621
-2.0354319 4.7238512 0.88329649 538 68778930 1465 14 112 5219
-2.3638589 4.9759355 0.89431614 168 68778930 524 15 74 5581
-1.8397251 5.3162789 0.86686826 592 68778930 1920 16 61 5692
-1.8777559 4.8450465 0.74970889 519 68778930 1431 17 96 5250
-2.2709711 5.2783494 0.77364284 591 68778930 1987 18 101 5798
-2.3094606 4.8690987 0.67381924 559 68778930 1649 19 100 5431
-1.7380085 5.0226307 0.62105864 309 68778930 885 20 104 5351
-2.0918074 5.3998661 0.62029701 624 68778930 2117 21 110 5824
-2.1724524 5.0559273 0.53655863 387 68778930 1184 22 72 5529
-2.2296693 4.707449 0.45928299 695 68778930 1900 23 152 5229
-1.9025935 5.5016785 0.46612653 638 68778930 2177 24 83 5840
-2.0082042 5.1880822 0.39223608 369 68778930 1148 25 103 5577
-2.0607247 4.7963657 0.31809941 661 68778930 1807 26 129 5230
-2.1224041 4.4878645 0.25556993 721 68778930 1781 27 110 4971
-1.8057173 5.2298174 0.24050196 662 68778930 2031 28 101 5538
-1.9006436 4.9153013 0.17859842 638 68778930 1775 29 70 5273
-1.9818194 4.6247253 0.12410877 671 68778930 1701 30 58 5033
-2.0357661 4.3087521 0.071201481 736 68778930 1672 31 85 4766
-1.7229165 4.9908519 0.036861055 671 68778930 1870 32 121 5280
-1.8066052 4.6772017 -0.012689055 685 68778930 1722 33 131 5014
-1.8927294 4.4183178 -0.057384856 673 68778930 1555 34 122 4807
-1.961942 4.1594534 -0.098662883 707 68778930 1496 35 101 4600
-1.6497328 4.7864394 -0.15034789 760 68778930 1949 36 142 5065
-1.7270583 4.481029 -0.18784451 745 68778930 1721 37 99 4806
-1.8082275 4.2259493 -0.22376373 743 68778930 1573 38 233 4602
-1.8795104 3.9845128 -0.25625995 752 68778930 1465 39 84 4413
-1.5671747 4.5585284 -0.31991684 785 68778930 1832 40 125 4831
-1.6540718 4.2974687 -0.34890398 750 68778930 1599 41 127 4618
-1.7344722 4.0567102 -0.3766861 746 68778930 1461 42 172 4428
-1.801695 3.824908 -0.40122771 776 68778930 1400 43 78 4247
-1.50775 4.3906612 -0.47924665 818 68778930 1782 44 128 4667
-1.5889002 4.1330938 -0.49886957 724 68778930 1438 45 95 4456
-1.6681296 3.9072015 -0.51915401 768 68778930 1407 46 123 4280
-1.7443041 3.7054183 -0.54077631 745 68778930 1271 47 134 4131
-1.442525 4.2122064 -0.6248675 825 68778930 1668 48 118 4496
-1.5362141 4.0012569 -0.64307469 733 68778930 1377 49 80 4334
-1.610582 3.7778864 -0.65641761 760 68778930 1315 50 71 4159
-1.6782173 3.5676155 -0.6691103 798 68778930 1277 51 68 3999
-1.3829318 4.0499501 -0.76276731 673 68778930 1272 52 117 4347
-1.4750705 3.8478203 -0.77440095 791 68778930 1391 53 113 4193
-1.5457979 3.6290848 -0.78019029 753 68778930 1218 54 97 4021
-1.6277891 3.4602568 -0.79609215 822 68778930 1254 55 89 3906
-1.3481634 3.9553523 -0.90654242 214 68778930 391 56 133 4276
-1.4206012 3.7115469 -0.90107626 720 68778930 1196 57 87 4075
-1.4921975 3.5051126 -0.90263957 741 68778930 1136 58 97 3915
-1.5843679 3.3687177 -0.9212746 620 68778930 912 59 91 3835
-1.3154451 3.8741903 -1.0499662 373 68778930 666 60 66 4224
-1.3616556 3.5664887 -1.018064 451 68778930 703 61 48 3951
-1.4223945 3.3429289 -1.0072352 373 68778930 531 62 67 3770
-1.5442404 3.2798297 -1.0457388 572 68778930 814 63 50 3773
-1.9646343 5.8079748 1.9137846 800 68878080 3301 0 104 6423
-2.2077212 5.7902803 1.8599797 842 68878080 3525 1 104 6470
-2.4576104 5.7833462 1.8195672 826 68878080 3537 2 63 6542
-2.7009244 5.7447333 1.7732261 895 68878080 3890 3 60 6591
-2.0084565 5.927639 1.6907078 871 68878080 3660 4 118 6483
-2.2544076 5.920486 1.6439345 867 68878080 3716 5 59 6545
-2.5107856 5.9147887 1.600661 853 68878080 3742 6 92 6622
-2.4168615 5.154089 1.3607925 168 68878080 576 7 84 5853
-2.0678885 6.0991902 1.4841164 869 68878080 3796 8 104 6609
-2.3208175 6.0878601 1.4331818 817 68878080 3636 9 125 6671
-2.1742818 5.1297846 1.1696422 369 68878080 1197 10 79 5693
-2.2097712 4.723176 1.043862 50 68878080 143 11 62 5318
-2.1146946 6.2340236 1.2630262 876 68878080 3935 12 139 6703
-1.997496 5.2457891 1.0191849 412 68878080 1342 13 91 5705
-2.0433149 4.8233714 0.89954406 99 68878080 279 14 131 5315
-2.308198 4.9366961 0.88470155 351 68878080 1071 15 66 5521
-1.8070705 5.327467 0.86686826 334 68878080 1084 16 71 5692
-1.8775595 4.9341803 0.76170421 159 68878080 453 17 93 5334
-2.2524402 5.3250437 0.77844638 612 68878080 2083 18 90 5834
-2.2996879 4.9263358 0.67977452 606 68878080 1820 19 97 5479
-1.7033291 5.0219126 0.61966586 263 68878080 750 20 103 5339
-2.0798435 5.4683614 0.62668741 601 68878080 2080 21 136 5884
-2.1274462 5.0361557 0.53306496 534 68878080 1613 22 67 5493
-2.2158945 4.7535443 0.46244505 673 68878080 1865 23 143 5265
-1.8841602 5.5585637 0.46995771 627 68878080 2175 24 86 5888
-1.9635757 5.1667385 0.3897042 379 68878080 1164 25 87 5541
-2.045238 4.8420219 0.32028902 651 68878080 1804 26 136 5266
-2.109998 4.5333977 0.25742081 694 68878080 1739 27 119 5007
-1.8120251 5.3543591 0.24571328 407 68878080 1304 28 71 5658
-1.8832181 4.9605079 0.17981775 635 68878080 1788 29 55 5309
-1.9580625 4.6478534 0.12440467 662 68878080 1686 30 60 5045
-2.034585 4.3755622 0.072097853 717 68878080 1670 31 107 4826
-1.715337 5.0695295 0.037363708 686 68878080 1965 32 123 5352
-1.7906373 4.7218595 -0.012780161 675 68878080 1721 33 148 5050
-1.8842121 4.474082 -0.057957865 670 68878080 1580 34 112 4855
-1.936383 4.1714134 -0.098662883 718 68878080 1519 35 125 4600
-1.6280106 4.8191996 -0.1510603 732 68878080 1897 36 185 5089
-1.7122612 4.5251861 -0.18925159 715 68878080 1677 37 71 4842
-1.7915584 4.2590613 -0.22493069 745 68878080 1594 38 215 4626
-1.8651152 4.0177021 -0.25765362 746 68878080 1469 39 81 4437
-1.5506443 4.6020989 -0.32230079 821 68878080 1944 40 126 4867
-1.6445901 4.3523102 -0.35253057 762 68878080 1659 41 133 4666
-1.7280799 4.1113663 -0.38076943 781 68878080 1563 42 170 4476
-1.7932647 3.8684061 -0.40462872 784 68878080 1439 43 92 4283
-1.4883959 4.4224553 -0.48171115 820 68878080 1805 44 121 4691
-1.5803521 4.1873908 -0.50424337 738 68878080 1498 45 87 4504
-1.657953 3.9503131 -0.52352071 773 68878080 1440 46 121 4316
-1.7265362 3.7268462 -0.54234719 763 68878080 1309 47 161 4143
-1.4204334 4.232244 -0.62653536 782 68878080 1589 48 110 4508
-1.511634 4.0106077 -0.64307469 712 68878080 1338 49 77 4334
-1.5919509 3.7986259 -0.65831149 760 68878080 1323 50 75 4171
-1.6662356 3.5993183 -0.67312598 788 68878080 1276 51 62 4023
-1.3618047 4.0695624 -0.76487297 576 68878080 1095 52 109 4359
-1.4514329 3.8567989 -0.77440095 752 68878080 1322 53 104 4193
-1.5371411 3.6710765 -0.78717524 771 68878080 1269 54 93 4057
-1.6065267 3.4701796 -0.79609215 768 68878080 1172 55 81 3906
-1.3684515 4.0970278 -0.93707144 99 68878080 193 56 128 4420
-1.3936847 3.7092385 -0.89842272 652 68878080 1077 57 85 4063
-1.4886936 3.5572886 -0.91370642 755 68878080 1186 58 68 3963
-1.5587752 3.3678045 -0.91839182 817 68878080 1194 59 101 3823
-1.2879794 3.8711603 -1.0469835 535 68878080 949 60 49 4212
-1.3600918 3.6290631 -1.0335244 346 68878080 556 61 53 4011
-1.437553 3.436939 -1.0328835 77 68878080 116 62 69 3866
-1.5192393 3.2787817 -1.0424129 682 68878080 965 63 65 3761
-1.936168 5.8416672 1.9209356 819 68973880 3404 0 100 6447
-2.1761799 5.8144817 1.8634295 854 68973880 3588 1 119 6482
-2.4354067 5.830225 1.8295802 727 68973880 3147 2 77 6578
-2.6656246 5.7611976 1.7732261 920 68973880 3999 3 71 6591
-1.9793478 5.9618402 1.6969669 851 68973880 3603 4 125 6507
-2.2221045 5.9450874 1.6469486 865 68973880 3721 5 61 6557
-2.4699616 5.9193373 1.5977604 855 68973880 3737 6 97 6610
-2.5514576 5.529129 1.4556504 128 68973880 502 7 109 6261
-2.0230525 6.0895696 1.4787271 857 68973880 3717 8 100 6585
-2.2834194 6.1019859 1.4331818 816 68973880 3631 9 133 6671
-2.2330978 5.3598437 1.2189507 100 68973880 354 10 63 5933
-2.2053528 4.7900867 1.0556393 46 68973880 132 11 44 5378
-2.0726862 6.2356982 1.2607652 888 68973880 3975 12 144 6691
-1.9859397 5.3132448 1.0299039 306 68973880 1018 13 78 5765
-2.0455058 4.9122448 0.91376078 44 68973880 129 14 100 5399
-2.3372753 5.0798931 0.90777653 478 68973880 1535 15 84 5665
-1.7893106 5.3834729 0.87417841 399 68973880 1316 16 70 5740
-1.8514044 4.9567342 0.76341778 55 68973880 157 17 104 5346
-2.2425528 5.393671 0.78645229 474 68973880 1648 18 78 5894
-2.3042102 5.0160956 0.69019634 605 68973880 1873 19 103 5563
-1.6912786 5.0888224 0.62662965 72 68973880 210 20 94 5399
-2.0545974 5.5033765 0.62924361 619 68973880 2161 21 106 5908
-2.105665 5.0711756 0.53539407 615 68973880 1873 22 94 5517
-2.2016373 4.7996464 0.46560705 682 68973880 1916 23 147 5301
-1.8613292 5.6040754 0.4728311 636 68973880 2233 24 86 5924
-1.93602 5.1899047 0.39054817 531 68973880 1638 25 92 5553
-2.0338607 4.8987288 0.32320848 658 68973880 1857 26 127 5314
-2.0971122 4.5789461 0.25927162 707 68973880 1798 27 110 5043
-1.7602702 5.3084793 0.24310762 432 68973880 1355 28 74 5598
-1.8653089 5.0056844 0.1810371 602 68973880 1718 29 53 5345
-1.9478651 4.7041154 0.12558831 690 68973880 1791 30 69 5093
-2.012691 4.3988748 0.072277121 717 68973880 1679 31 92 4838
-1.6879749 5.0913491 0.037447482 676 68973880 1945 32 115 5364
-1.7783749 4.7777424 -0.012901635 707 68973880 1838 33 117 5098
-1.8659027 4.5077329 -0.058244374 661 68973880 1574 34 115 4879
-1.9306896 4.2268672 -0.099692412 734 68973880 1586 35 97 4648
-1.6097172 4.8632598 -0.15212892 738 68973880 1938 36 134 5125
-1.6969869 4.5693293 -0.19065867 755 68973880 1797 37 89 4878
-1.7791299 4.3032031 -0.22668111 745 68973880 1619 38 221 4662
-1.8404279 4.0290709 -0.25765362 745 68973880 1467 39 87 4437
-1.5336379 4.6456375 -0.3246848 844 68973880 2029 40 105 4903
-1.6220148 4.3735385 -0.35343722 756 68973880 1654 41 131 4678
-1.7073857 4.1329432 -0.38179028 783 68973880 1576 42 155 4488
-1.7694949 3.8793366 -0.40462872 780 68973880 1431 43 98 4283
-1.4761841 4.47685 -0.48664021 835 68973880 1875 44 127 4739
-1.558771 4.2081914 -0.50558686 754 68973880 1538 45 84 4516
-1.6518521 4.0044575 -0.52934301 761 68973880 1450 46 120 4364
-1.7135051 3.7590203 -0.54548895 758 68973880 1316 47 134 4167
-1.4018618 4.2634578 -0.62987089 759 68973880 1559 48 108 4532
-1.4952314 4.042068 -0.64663583 727 68973880 1381 49 70 4358
-1.5776389 3.8302357 -0.66209948 769 68973880 1353 50 41 4195
-1.6490233 3.6202409 -0.67513382 781 68973880 1272 51 96 4035
-1.3552094 4.1339717 -0.77540118 470 68973880 918 52 106 4419
-1.4399989 3.8988211 -0.78104973 759 68973880 1358 53 95 4229
-1.5190668 3.6913254 -0.78950363 767 68973880 1270 54 95 4069
-1.5949441 3.5013542 -0.80098367 790 68973880 1221 55 82 3930
-1.3505808 4.1276393 -0.94215965 140 68973880 276 56 119 4444
-1.3830457 3.7506607 -0.9063831 564 68973880 948 57 89 4099
-1.4668385 3.5663562 -0.91370642 746 68973880 1172 58 73 3963
-1.5380814 3.3773055 -0.91839182 783 68973880 1145 59 97 3823
-1.2642021 3.8789904 -1.0469835 687 68973880 1218 60 51 4212
-1.3658154 3.713515 -1.0551689 173 68973880 291 61 65 4095
-1.4428169 3.5098674 -1.0521199 227 68973880 353 62 62 3938
-1.4990925 3.2880418 -1.0424129 723 68973880 1023 63 75 3761
-1.8932135 5.8316469 1.9137846 779 69072740 3214 0 106 6423
-2.1364992 5.8169365 1.8599797 857 69072740 3588 1 108 6470
-2.3820772 5.8024063 1.8162296 770 69072740 3284 2 87 6530
-2.6254358 5.7669268 1.7699978 916 69072740 3967 3 69 6579
-1.9391468 5.9628563 1.6938374 872 69072740 3678 4 124 6495
-2.193584 5.9804201 1.6529768 775 69072740 3358 5 62 6581
-2.4380128 5.9451547 1.600661 872 69072740 3825 6 93 6622
-2.7008367 5.9485097 1.5616682 620 69072740 2799 7 77 6717
-1.9892678 6.1129875 1.4814217 801 69072740 3486 8 108 6597
-2.2418952 6.1048803 1.4306036 813 69072740 3605 9 123 6659
-2.4315698 5.9385939 1.3471533 167 69072740 719 10 96 6557
-2.3118644 5.1036372 1.1215922 115 69072740 374 11 42 5714
-2.0453315 6.2819161 1.2675484 807 69072740 3651 12 149 6727
-2.0834079 5.6800442 1.0985045 87 69072740 327 13 57 6149
-2.0242851 4.9465952 0.91782272 54 69072740 159 14 105 5423
-2.3793347 5.256 0.9366203 218 69072740 746 15 78 5845
-1.8113183 5.5635114 0.90159166 167 69072740 584 16 50 5920
-1.8250432 4.9791522 0.76513141 30 69072740 87 17 99 5358
-2.2229106 5.4403572 0.79125595 421 69072740 1481 18 87 5930
-2.2586768 4.9975882 0.68572992 586 69072740 1790 19 111 5527
-1.6674017 5.1217713 0.62941521 35 69072740 104 20 73 5423
-2.0495222 5.5943041 0.63819015 378 69072740 1358 21 102 5992
-2.0970705 5.1392908 0.54121673 602 69072740 1873 22 88 5577
-2.1868973 4.8457518 0.46876907 680 69072740 1936 23 168 5337
-1.8491123 5.6836405 0.47857785 571 69072740 2054 24 92 5996
-1.9329425 5.2803717 0.39645594 442 69072740 1404 25 117 5637
-2.0218639 4.9554772 0.32612795 650 69072740 1868 26 148 5362
-2.0985162 4.6572847 0.26297331 687 69072740 1797 27 109 5115
-1.7239616 5.3077784 0.24258649 594 69072740 1855 28 82 5586
-1.8510344 5.0620899 0.18266286 630 69072740 1834 29 58 5393
-1.9280074 4.7382016 0.12618011 682 69072740 1787 30 61 5117
-1.9905874 4.4220829 0.072456397 732 69072740 1722 31 97 4850
-1.667822 5.1358495 0.037698805 689 69072740 2009 32 112 5400
-1.7613767 4.8223791 -0.012992742 722 69072740 1903 33 117 5134
-1.8517721 4.5524421 -0.058674138 692 69072740 1672 34 97 4915
-1.9096352 4.249577 -0.099949792 732 69072740 1590 35 93 4660
-1.5946431 4.9186854 -0.15355374 756 69072740 2023 36 135 5173
-1.6812347 4.6134539 -0.19206575 751 69072740 1814 37 93 4914
-1.7572039 4.3251433 -0.2272646 756 69072740 1652 38 225 4674
-1.8353134 4.0839958 -0.26044095 714 69072740 1437 39 92 4485
-1.5124712 4.6777458 -0.3262741 866 69072740 2102 40 118 4927
-1.6033323 4.4058971 -0.35525045 748 69072740 1653 41 128 4702
-1.6909888 4.1654983 -0.38383192 751 69072740 1530 42 179 4512
-1.7652223 3.9337182 -0.40916345 787 69072740 1477 43 88 4331
-1.4560236 4.5085411 -0.48910472 797 69072740 1808 44 112 4763
-1.5369941 4.2288837 -0.50693029 732 69072740 1501 45 88 4528
-1.6272502 4.0145178 -0.52934301 774 69072740 1474 46 136 4364
-1.695276 3.7803187 -0.54705983 786 69072740 1372 47 147 4179
-1.3829604 4.2946024 -0.63320649 744 69072740 1544 48 107 4556
-1.482548 4.0846314 -0.65197742 742 69072740 1433 49 74 4394
-1.558553 3.8508279 -0.66399348 768 69072740 1360 50 69 4207
-1.6364548 3.6518834 -0.67914945 790 69072740 1302 51 103 4059
-1.3370407 4.1647062 -0.77961248 320 69072740 632 52 117 4443
-1.4200672 3.9186714 -0.78326601 717 69072740 1290 53 112 4241
-1.5096277 3.7333169 -0.79648864 750 69072740 1264 54 120 4105
-1.5734302 3.5110745 -0.80098367 809 69072740 1250 55 77 3930
-1.3252286 4.1358485 -0.94215965 215 69072740 425 56 117 4444
-1.3759321 3.8030961 -0.91699708 464 69072740 799 57 75 4147
-1.4580538 3.6077673 -0.92200649 746 69072740 1193 58 90 3999
-1.5220925 3.39731 -0.9212746 799 69072740 1175 59 94 3835
-1.2333096 3.8645279 -1.0410177 758 69072740 1330 60 62 4188
-1.3744882 3.809077 -1.0799054 90 69072740 158 61 36 4191
-1.4082609 3.4864879 -1.0425017 590 69072740 899 62 75 3902
-1.4836079 3.3076985 -1.0457388 718 69072740 1023 63 59 3773
-1.8573955 5.8431535 1.9137846 814 69168730 3359 0 89 6423
-2.1046634 5.8407493 1.8634295 779 69168730 3273 1 131 6482
-2.3507414 5.8276029 1.8195672 821 69168730 3515 2 72 6542
-2.5947251 5.7934752 1.7732261 900 69168730 3912 3 68 6591
-1.8990077 5.9636035 1.6907078 821 69168730 3450 4 134 6483
-2.1489818 5.9719081 1.6469486 861 69168730 3699 5 52 6557
-2.4014883 5.9600019 1.600661 795 69168730 3487 6 96 6622
-2.6404874 5.9116874 1.5477185 840 69168730 3723 7 96 6657
-1.955272 6.13622 1.4841164 802 69168730 3502 8 131 6609
-2.2043943 6.1185217 1.4306036 845 69168730 3747 9 120 6659
-2.4696009 6.1386228 1.3890656 614 69168730 2809 10 72 6761
-2.3379772 5.2466998 1.1498576 93 69168730 318 11 40 5858
-1.9960086 6.2606635 1.2607652 877 69168730 3926 12 124 6691
-2.2563999 6.2704177 1.2099807 338 69168730 1551 13 106 6773
-2.1483183 5.3429813 0.9889062 90 69168730 308 14 86 5843
-2.1639345 4.8593206 0.86354947 42 69168730 123 15 62 5389
-1.8888193 5.9248118 0.95824575 96 69168730 381 16 85 6292
-1.8507226 5.1467266 0.78912216 104 69168730 318 17 97 5526
-2.1318886 5.3104191 0.7704404 67 69168730 224 18 87 5774
-2.2328067 5.022233 0.68721867 586 69168730 1798 19 103 5539
-1.6576637 5.2000413 0.63777184 47 69168730 143 20 88 5495
-2.0151577 5.6067743 0.63819015 238 69168730 855 21 96 5992
-2.0566082 5.1298904 0.53888768 606 69168730 1869 22 99 5553
-2.1716735 4.8918552 0.47193107 659 69168730 1902 23 157 5373
-1.8287266 5.7404685 0.48240903 311 69168730 1137 24 96 6044
-1.8964608 5.2808671 0.395612 600 69168730 1898 25 115 5625
-2.0003331 4.990025 0.32758766 655 69168730 1899 26 145 5386
-2.0796123 4.6919861 0.26420721 668 69168730 1764 27 126 5139
-1.724062 5.4210796 0.24727666 682 69168730 2213 28 62 5694
-1.8280383 5.0959301 0.18347576 646 69168730 1897 29 59 5417
-1.9167107 4.7944999 0.12736376 695 69168730 1853 30 53 5165
-1.9828482 4.4780984 0.073173493 755 69168730 1812 31 88 4898
-1.6471863 5.1802931 0.037950132 667 69168730 1971 32 104 5436
-1.7398496 4.8556895 -0.01305348 703 69168730 1870 33 120 5158
-1.8327094 4.5860028 -0.058960639 667 69168730 1628 34 99 4939
-1.898075 4.2941337 -0.10072193 749 69168730 1652 35 97 4696
-1.5753198 4.9626746 -0.15462235 743 69168730 2015 36 152 5209
-1.6569319 4.634974 -0.19253477 729 69168730 1770 37 77 4926
-1.7395188 4.3581076 -0.22843157 740 69168730 1633 38 232 4698
-1.8150634 4.1061373 -0.26113778 743 69168730 1503 39 89 4497
-1.4945819 4.7211843 -0.3286581 824 69168730 2029 40 116 4963
-1.5883366 4.4494596 -0.35797039 736 69168730 1652 41 136 4738
-1.665398 4.1757956 -0.38383192 764 69168730 1556 42 184 4512
-1.7458763 3.9554045 -0.41029716 753 69168730 1420 43 103 4343
-1.4319308 4.5287714 -0.49033698 785 69168730 1789 44 161 4775
-1.527035 4.2831631 -0.51230413 767 69168730 1606 45 100 4576
-1.6158071 4.0576253 -0.5337097 759 69168730 1470 46 116 4400
-1.681651 3.8124189 -0.55020159 773 69168730 1365 47 142 4203
-1.3673024 4.3370075 -0.63820982 692 69168730 1459 48 127 4592
-1.4693983 4.1271906 -0.65731907 723 69168730 1420 49 74 4430
-1.5480297 3.8933518 -0.66967535 760 69168730 1369 50 74 4243
-1.6187881 3.6726818 -0.68115729 800 69168730 1326 51 102 4071
-1.3504244 4.2968054 -0.80277449 166 69168730 347 52 119 4575
-1.411796 3.9717605 -0.79213107 703 69168730 1293 53 114 4289
-1.4953841 3.7643905 -0.80114537 758 69168730 1292 54 139 4129
-1.5660725 3.552913 -0.80832088 793 69168730 1248 55 74 3966
-1.3033365 4.1550918 -0.94470376 394 69168730 782 56 121 4456
-1.3603984 3.8335247 -0.92230397 357 69168730 622 57 64 4171
-1.4358895 3.6166458 -0.92200649 712 69168730 1139 58 94 3999
-1.5106131 3.4279041 -0.92704004 784 69168730 1168 59 96 3859
-1.2234373 3.9164009 -1.0529491 734 69168730 1317 60 47 4236
-1.3472219 3.806509 -1.0768133 203 69168730 354 61 54 4179
-1.3783116 3.4735661 -1.0360897 551 69168730 829 62 91 3878
-1.4586302 3.3061905 -1.0424129 741 69168730 1049 63 61 3761
-1.8249108 5.8653784 1.9173602 830 69266670 3438 0 81 6435
-2.0572958 5.8210435 1.8530803 855 69266670 3553 1 118 6446
-2.306447 5.8204856 1.812892 817 69266670 3472 2 83 6518
-2.5544689 5.7987103 1.7699978 910 69266670 3941 3 75 6579
-1.86238 5.9751434 1.6907078 864 69266670 3632 4 99 6483
-2.1045671 5.9630756 1.6409205 868 69266670 3706 5 71 6533
-2.3520167 5.9421449 1.5919592 856 69266670 3714 6 97 6586
-2.5994699 5.9170923 1.5449286 906 69266670 4001 7 100 6645
-1.9141022 6.1369386 1.4814217 853 69266670 3713 8 98 6597
-2.1629055 6.120882 1.4280256 807 69266670 3565 9 131 6647
-2.4146233 6.1099725 1.3792039 807 69266670 3639 10 78 6713
-2.2821236 5.2070618 1.1380804 130 69266670 435 11 52 5798
-1.9575564 6.2727928 1.2607652 866 69266670 3877 12 123 6691
